# .PCD v0.7 - Point Cloud Data file format
VERSION 0.7
FIELDS x y z intensity
SIZE 4 4 4 4
TYPE F F F F
COUNT 1 1 1 1
WIDTH 637
HEIGHT 1
VIEWPOINT 0 0 0 1 0 0 0
POINTS 637
DATA ascii
-12.092225 -27.18247 14.55202 17
-11.908379 -27.136608 13.04902 16
-11.733623 -27.145725 13.78302 16
-11.777521 -27.123703 14.52002 17
-11.508938 -27.158882 14.434021 17
-9.2608089 -27.077732 8.6035242 12
-9.2039099 -27.088783 9.1060238 13
-9.594429 -27.119431 9.2670231 13
-8.8494692 -27.122107 8.8820238 12
-8.5346451 -5.093575 -0.074004568 3
-8.4486847 -5.0995288 0.39199555 4
-8.5566616 -5.1155543 0.7279954 5
-8.4776955 -5.120512 0.94599551 6
-8.5596704 -5.1265407 1.2459955 7
-8.5441875 -5.1360202 1.8164954 8.5
-8.6076746 -5.1475325 2.2839954 10
-8.5696936 -5.1515112 2.5579956 11
-8.5097075 -5.1404977 2.8339956 12
-8.6767845 -27.161268 8.5300245 12
-8.1158371 -5.1163602 1.2049961 7
-8.1258497 -5.1308455 1.7984961 8.5
-8.1678495 -5.1473422 2.205996 10
-8.1468639 -5.1523256 2.472996 11
-7.6170411 -5.1071634 0.37799665 4
-7.6865187 -5.1146822 0.7269966 5.5
-7.7330065 -5.1221919 1.1699965 7
-7.7080255 -5.1276731 1.6804966 8.5
-7.7530279 -5.1481657 2.2649965 10.5
-7.7490358 -5.1531568 2.6669967 12
-7.8700004 -5.1696858 3.0949965 13
-7.8350139 -5.1671739 3.3809965 14
-7.739078 -5.18611 3.6389966 14
-7.4860897 -5.0971231 0.17249683 3.5
-7.3126812 -5.1065402 0.6954971 5.5
-7.3141952 -5.1185246 1.0019971 6.5
-7.3986616 -5.1235523 1.496497 8
-7.352201 -5.1390147 1.674997 9
-7.3922043 -5.1575069 2.2004972 10.5
-7.4062004 -5.1600089 2.5939972 12
-7.4411988 -5.173007 2.919997 13
-7.4087281 -5.183979 3.4014971 14
-7.0358043 -5.0964441 0.063497432 3.5
-7.1662641 -5.1169682 0.59399724 5
-7.0143437 -5.1199055 1.1079975 7
-7.007863 -5.1333861 1.4739975 8
-6.9988742 -5.1383767 1.6879975 9
-7.0303707 -5.148376 2.1334977 10.5
-7.0353847 -5.1618609 2.6039977 12
-7.0726333 -5.1763577 3.0424974 13.5
-7.0024266 -5.1818242 3.4179976 14
-6.8579817 -5.1652889 3.7694979 15.5
-6.4800992 -5.0982332 0.32749814 4.5
-6.4506207 -5.1027179 0.47499821 5
-6.6490407 -5.1247621 0.95349801 6.5
-6.7117672 -5.1325254 1.4642479 8.5
-6.703526 -5.1367669 1.7949979 9.5
-6.5353112 -5.1563501 2.244998 11.333333
-6.6568379 -5.1644673 2.6154981 12.5
-6.5766625 -5.1876612 3.0459981 14
-6.6466246 -5.1891832 3.4449983 15
-6.5796885 -5.2096362 3.8259981 16
-6.6311841 -5.0941215 4.1753311 17
-6.2037573 -5.0989695 0.23666522 4
-6.1584659 -5.109942 0.61499864 5.6666665
-6.259758 -5.1232934 0.96499848 6.6666665
-6.3757095 -5.1381488 1.4314983 8.5
-6.3567348 -5.1491294 1.7864984 9.5
-6.3177924 -5.1750865 2.6184986 12.5
-6.364779 -5.1855898 3.2359984 15
-6.2868433 -5.1995463 3.7249985 16
-6.3108377 -5.2055478 4.0399985 17
-6.2926631 -5.0617032 4.1634984 17.5
-5.7403836 -5.1051474 0.32533249 4.6666665
-5.7999468 -5.0572157 0.637999 5.6666665
-5.7579794 -5.0615306 0.99699903 7
-5.6588016 -5.0674934 1.3479992 8.5
-5.7050214 -5.0665078 1.7859992 10
-5.6032195 -5.1623769 2.0009995 11
-5.3992677 -5.1003866 0.34499961 5
-5.2895255 1.4545068 0.32949108 5
-5.2896833 1.7438819 0.25293511 4.6666665
-5.2751007 2.0329998 0.2499903 4.5
-5.5391994 -5.1184063 0.58399945 6
-5.2894444 1.3974435 0.53865778 6.5
-5.2509942 1.8131381 0.44524065 6
-5.3190684 -5.6058779 1.0230004 7
-5.2719803 1.4430356 0.92459112 8.6000004
-5.2515764 1.7936451 0.97049063 8.666667
-5.2441359 2.0484874 0.92699033 8.5
-5.3092103 -5.6941285 1.4006672 8.666667
-5.3067684 -5.3993177 1.3255001 8.5
-5.509088 -5.1425381 1.3903328 8.666667
-5.2653723 1.4016136 1.2612412 10
-5.2541742 1.7691309 1.265574 10
-5.2557063 2.0909119 1.3269902 10
-5.2962556 -5.7172718 1.7405006 9.5
-5.2847886 -5.4010601 1.7870001 10
-5.5462575 -5.1613626 1.7789996 10
-5.2521892 1.5163131 1.838691 13.2
-5.235045 2.2786102 1.79849 12.5
-5.231595 2.5716429 1.8749896 12.5
-5.2133751 3.4249041 1.8899885 12
-5.5821242 -5.0834527 2.1999993 12
-5.2402201 1.4680052 2.1404912 14.5
-5.2294335 2.2154675 2.1612401 14.5
-5.228549 2.5471835 2.0869896 14
-5.2056689 3.3290396 2.1719887 13.5
-5.5267696 -5.1603565 2.4609995 13
-5.3056946 2.6352627 3.0898647 17.5
-5.3253798 3.2211316 3.1659884 17
-5.5313368 -5.2093062 3.4859996 16
-5.2992959 2.6215384 3.3443646 18.75
-5.3008022 3.1792037 3.4339888 18
-5.3279243 3.2431009 3.3719885 18
-5.5412145 -5.1273937 3.7559996 17.5
-5.4362178 -5.0794139 4.0679994 18
-5.2684216 -10.427936 4.8180065 15
-5.2858725 -10.140041 5.0130067 16
-5.2792296 -10.329967 5.4010067 16
-5.2535753 -9.9571323 5.5270061 17
-4.9157 -9.2655697 -0.23499423 3
-4.9935765 -2.6043763 -0.038003173 3
-4.8403969 -2.3167441 -0.034003351 3
-4.9837656 -2.8230391 0.19699714 4
-4.9845557 -2.5728209 0.21506347 4.4000001
-4.8970952 -2.130193 0.20816301 4.3333335
-4.9433951 -1.9427552 0.22174601 4.5
-4.9247265 2.053112 0.21499075 4
-4.9761119 -2.834018 0.55833048 6
-4.9740853 -2.6064177 0.54338568 6
-4.879487 -2.2769549 0.51624656 6
-4.9176574 -1.957381 0.50349605 6
-4.9702821 -2.8355122 1.043997 8.5
-4.9676166 -2.6399076 0.9679302 8.3999996
-4.8323927 -2.1520088 0.98579639 8.8000002
-4.9071708 -1.9763434 1.1084961 9.5
-4.9532714 -2.8170302 1.3734972 10.5
-4.952261 -2.6086788 1.4229969 11
-4.8394418 -2.1253893 1.3726631 11
-4.9631324 -1.9224668 1.4789959 11
-5.1794515 1.9302163 1.2949905 10
-4.94278 -2.8220167 1.7269971 12.5
-4.9451447 -2.5998547 1.8431636 12.833333
-4.8675365 -2.020911 1.8156629 13.333333
-4.9528995 -1.9514111 1.7644961 13
-5.1406322 10.21078 1.8719796 8
-4.9221454 -2.6575873 2.1928301 14.333333
-4.8372087 -2.0202272 2.1639962 15
-4.931653 -1.949901 2.1069958 14.5
-4.82267 3.8835328 2.2409885 14
-4.8023396 4.941411 2.1219871 12
-5.0065346 10.202729 2.1324799 9
-4.9157748 -2.8055251 2.6109972 16.5
-4.8105326 5.0183306 2.5259869 14
-5.0057864 10.202648 2.6036463 10
-4.9107795 -2.8080187 2.9119971 18
-4.9047189 -2.7381198 2.9959972 18
-5.1708293 3.1632898 3.506989 19
-5.1839404 3.2182069 3.4999888 19
-5.176353 3.628154 3.3049881 17.5
-5.1648636 3.6296585 3.6559882 19
-5.0503554 -1.6900835 4.5936623 24.666666
-5.0592613 2.8687718 4.6033225 23.666666
-4.8414063 -2.3197327 5.2749968 27
-4.7058926 -5.1771569 -0.15999937 3
-4.7661843 -1.9592921 -0.088003725 3
-4.6089869 -5.5048604 0.3120012 4.5
-4.6134295 -5.4708877 0.75500113 6
-4.7902312 -2.0431621 1.9969963 14
-4.6952548 3.8823607 2.1682386 13.5
-4.7995129 5.00735 2.3299868 13
-4.7556295 10.379291 2.2869799 9
-4.6479373 -1.2744373 2.5219955 18
-4.6474204 -1.1761196 2.5064955 18
-4.7019653 1.796187 2.6306581 17.5
-4.7722821 10.267303 2.4149799 10
-4.6904836 1.8775094 2.8499911 19
-4.7843585 -2.2328403 5.3599968 27
-4.1650105 -6.1723709 -0.041997336 3
-4.2772875 -5.2020741 -0.11099877 3
-4.3130155 -1.4404386 -0.067003816 3
-4.3194189 -0.97282064 -0.02000444 3
-4.2914639 -0.52119237 -0.066505 3
-4.2938123 -0.24075794 -0.04800538 3
-4.2662544 1.0461841 -0.016007049 3
-4.3217564 -1.3717856 0.21564609 4.8000002
-4.3081326 -1.018559 0.23272064 5
-4.2961435 -0.61239636 0.22507846 5
-4.2868109 -0.24534446 0.20371464 4.8000002
-4.2778172 0.32797325 0.23424388 5
-4.2756176 0.59926409 0.23218104 5
-4.2658739 0.92662382 0.21882644 4.8333335
-4.2029657 -9.4808264 0.59100693 5
-4.3137488 -1.3906132 0.58403778 7
-4.2990246 -0.98981678 0.59576643 7
-4.2897387 -0.59591681 0.58184922 7
-4.2845221 -0.33406329 0.54749477 7
-4.2620182 0.6524561 0.7632435 9
-4.2563496 0.92854095 0.64424312 8
-4.2503552 -9.4533091 1.0515069 6.5
-4.2987957 -1.3766952 0.93454605 9.3999996
-4.2868505 -0.99425858 1.0102098 10
-4.2783556 -0.58955795 0.99300551 10
-4.2705145 -0.30480194 0.95470309 10
-4.2544971 0.65889078 0.93093795 9.666667
-4.2472835 0.87652099 0.90974319 9.5
-4.2923789 -1.3984179 1.3676213 12
-4.2794194 -0.98502076 1.3734956 12.5
-4.2706194 -0.58730948 1.4465189 13
-4.2686887 -0.29057929 1.4640156 13
-4.25247 0.35755172 1.390994 13
-4.2369561 0.60199529 1.4931536 13.4
-4.2360072 0.96954602 1.4320431 12.8
-4.1676512 -9.288909 1.7665068 8
-4.287282 -1.3990239 1.7883018 14.666667
-4.2769213 -0.99894208 1.7471957 14.8
-4.2656989 -0.60625654 1.6734952 14.5
-4.2657733 -0.33355269 1.7659948 15
-4.2314906 0.70087385 1.6456602 14
-4.2288318 0.91171134 1.7099932 14.5
-4.0204902 3.9669511 2.8849895 17
-3.813767 -10.692748 -0.11899088 3
-3.689482 -8.8773203 -0.22999312 3
-3.9332352 -8.3743572 -0.20899412 3
-3.9066417 -5.2150378 -0.11399826 3
-3.6251807 -2.7015088 -0.12800123 2
-3.719367 -5.536818 0.062002409 4
-3.8553019 2.0350769 0.32324219 5.5
-3.6194644 -9.8740902 0.52600831 5
-3.849123 2.0685256 0.50599211 7
-3.6505229 -9.9260559 0.96900833 6
-3.62451 -9.9010792 1.4930084 7
-3.6549027 -9.8655653 1.8040082 8.5
-3.6619146 -6.3813314 2.3410037 13
-3.9038811 3.8861158 3.1189897 18.5
-3.57355 -4.3616877 -0.16899896 2
-3.2306476 -5.9656587 0.23900363 4
-3.481925 2.3552365 0.63999224 8
-3.4980419 2.4101496 0.76799214 9
-3.5375996 3.4633064 0.67049068 7.5
-3.5411315 2.3504684 0.88949221 9.5
-3.5226576 3.4811294 0.96399069 9
-3.5045016 -6.4703302 2.3275874 12.5
-3.5104029 2.1255763 4.2829924 28
-3.1981993 -10.481306 -0.097990334 3
-3.1284311 -5.2220783 -0.20199724 2
-3.14856 -4.7333817 -0.1999979 2
-2.905472 -3.9489446 -0.18199861 2
-2.8289845 -0.8581323 -0.10900261 2
-2.941987 -0.43810275 -0.10100333 2
-2.9528039 1.2283138 -0.065005548 3
-2.9541752 -10.293063 0.58950973 5
-3.1270542 3.863215 0.6759907 7.5
-3.1058192 3.860152 1.0747408 9.5
-3.0077081 -10.348002 1.4165099 7.5
-2.8458159 -10.286666 1.8910099 8.5
-2.9241471 3.8169277 3.6119909 23
-2.4202704 -9.4392166 -0.29599071 2
-2.4509647 -2.0258157 -0.13800056 2
-2.4012361 -1.2690183 -0.1300015 2
-2.4051454 -1.1322825 -0.12700169 2
-2.7389686 -0.62457168 -0.10750281 2
-2.6976349 1.3511641 -0.039005373 3
-2.4798751 1.642722 -0.01300547 3
-2.6853378 -10.181841 1.0180099 6
-2.5815363 -10.143453 1.3966351 7.5
-2.6483607 -10.165882 1.7560101 8.5
-2.7704058 -10.27774 2.47701 10
-2.4197252 3.8143947 3.3949916 23
-2.4526458 3.8003728 4.3229918 26
-2.5749128 3.7089961 4.576992 27
-2.1305704 -2.3312631 -0.15399973 2
-2.3480463 -0.91518193 -0.1210019 2
-2.1610911 -0.15530688 -0.11150266 2
-2.2299855 1.1836051 -0.093004532 2
-2.3524053 -9.9737139 0.6090101 5
-2.3914311 -10.015168 1.0080101 6
-2.113112 3.8127172 3.1009922 22
-2.2319665 3.8150911 3.2564919 22.5
-2.1847539 3.7940829 4.2305636 26.428572
-2.3298512 3.538877 4.6243925 28
-2.1966097 3.7189384 4.5611172 27.5
-1.7584234 -4.8857007 -0.22899586 2
-1.7214396 -3.2434163 -0.18599798 2
-1.7511141 -0.87579674 -0.14350116 1
-1.7452518 -0.55553585 -0.13050157 1
-1.692046 -0.2360688 -0.12575194 1
-1.7749332 0.69971251 -0.10875329 1.5
-1.9585369 0.91220963 -0.10100381 2
-1.8358001 1.4257811 -0.061504327 2.5
-1.6894711 -9.7694988 4.5925107 16.5
-1.9708052 3.7555788 4.6096592 28
-1.4886371 -4.81389 -0.23299558 2
-1.5425432 -3.4658325 -0.19499744 2
-1.349494 -2.1918819 -0.17174889 1
-1.4195007 -1.9283936 -0.16399933 1
-1.5612708 -1.0318112 -0.14300071 1
-1.5760338 -0.65864122 -0.13800122 1
-1.4046868 1.3734548 -0.072337024 2.3333333
-1.3064641 1.6725821 -0.013003953 3
-1.3765059 1.6579061 0.080495976 4.3333335
-1.2931401 -5.9748383 0.7500062 7
-1.3334427 3.8292942 0.71799308 8.5
-1.2271188 -5.9159126 1.0480062 8
-1.3541725 3.8336847 0.93699312 10
-1.2818331 -5.8078713 1.534006 11
-1.2870667 3.8239493 1.4476599 13.5
-1.2906913 -5.7408719 1.761006 12
-1.4387066 3.8009567 2.9495766 22.25
-1.3810353 -9.5714083 3.9320109 15
-1.4045993 -9.6218729 4.2545114 15.5
-1.5350308 -9.6842003 4.6300111 16.5
-1.3545538 -9.5604439 4.5995107 16.5
-1.5564998 -9.6841707 4.8285108 17
-0.998447 1.2731789 -0.080503017 2
-0.95467174 1.6677663 -0.01300348 3
-0.81656307 1.6473657 0.065996729 4
-0.97005057 3.8482847 0.71186864 8.5
-1.1882101 -5.9349499 1.0020063 8.5
-1.0124303 3.8462741 0.84139353 9.3999996
-0.94564992 3.8365464 1.3965145 13.5
-1.1320901 3.8176639 2.9909933 23
-0.90007675 3.8007698 3.9689937 27
-1.014707 -9.3819218 4.3458443 16
-0.93081564 3.7952702 4.0958271 28
-0.89251977 -9.3211002 4.5855107 17
-0.64137149 -6.6395607 -0.092992045 3
-0.5186196 -4.1208634 -0.23099522 2
-0.7698434 -3.8996353 -0.21899584 2
-0.4635798 -3.0330279 -0.20899659 1
-0.59668624 -2.6585009 -0.19699726 1
-0.71199793 -2.3710277 -0.18899779 1
-0.76351833 1.2737349 -0.082002707 2
-0.65037489 1.6614778 -0.013003068 3
-0.47360384 2.0056162 -0.01700329 3
-0.46637601 2.4784496 -0.021003908 3
-0.64646536 1.6413866 0.066032685 4
-0.54476559 3.8357711 0.63806081 8
-0.41464105 -7.1158738 1.0050089 7
-0.62410706 3.8372986 0.84557736 9.666667
-0.60388607 3.8260193 1.3513693 13.5
-0.48134238 3.8135927 1.9478277 17.333334
-0.4858501 3.8114612 2.0983276 18.333334
-0.6613338 -9.17945 3.7890112 15
-0.67151028 3.7919292 3.9429939 27
-0.63738936 -9.1894865 4.2300115 16
-0.66051847 3.7933424 4.0467443 28
-0.69837016 -9.2253923 4.5080113 17
-0.18366408 -6.9547434 -0.097491011 3
-0.018953986 -4.4405074 -0.25299412 2
-0.14553519 -4.1499949 -0.24366134 1.3333334
-0.3818619 -3.6350501 -0.22499567 1
-0.11296445 1.539151 -0.11275219 1
-0.26485679 1.7555838 -0.081169352 2
-0.32273546 2.7537503 -0.024504082 3
-0.35330701 2.7598269 0.099370867 4.5
-0.21234185 3.8207712 0.28824463 5.4285712
-0.34905201 -7.2759724 0.43900919 5
-0.33378205 -7.1269984 0.77600902 6
-0.17847219 3.8170207 0.6683197 8.5
-0.39658904 -7.075902 1.0390089 8
-0.15855119 3.8201945 0.84911972 10
-0.14973003 3.81461 1.297528 13.2
-0.20045836 3.8074055 1.9426892 17.5
-0.13088323 3.7972407 2.1494946 19
-0.15179276 3.7979944 2.7006946 22
-0.032365166 3.7882459 2.876745 23
-0.088132203 -4.0704021 3.5165052 24.5
-0.085885555 -3.9434066 3.5840051 25
-0.1595131 3.7861617 3.4465947 25.6
-0.13579932 -3.9353373 3.6130049 26
-0.018686837 3.7813954 3.9449952 27.5
-0.30237842 -4.8600869 4.1030064 24
-0.27245566 -4.7076316 4.2228394 25.333334
0.2105141 -3.0288379 -0.1299957 2
0.08552748 1.5940105 -0.14400199 1
0.25435871 1.7599739 -0.152752 1
0.19073583 2.7360492 -0.082753375 2.25
0.3388907 -6.7891378 0.017009458 3
0.24281085 -4.8759365 0.070006795 4
0.22139648 3.8083498 0.259839 5.25
0.20696108 3.8066745 0.66245353 8.5
0.22934154 3.804862 0.93356669 10.428572
0.18683736 3.805053 1.3533912 13.625
0.27788448 3.7922218 1.8952453 17
0.28484964 3.789005 2.0783284 18.333334
0.1221431 3.7913532 2.7324953 22
0.2771326 -2.6709175 2.8590038 28
0.083679631 3.7871361 2.851995 23
0.16943626 3.7769096 3.4204202 25.5
0.046175241 3.7774138 3.976495 28
0.63617778 -4.4096518 -0.025993306 3
0.42065632 -4.321239 -0.037993707 3
0.57630026 -2.8929718 -0.1499954 2
0.45629653 1.8042389 -0.16200179 1
0.66837084 2.154815 -0.17000197 1
0.55328393 2.641679 -0.14900278 2
0.57490808 3.7956164 -0.069004275 3
0.56122935 -3.9344883 0.058005963 4
0.62927753 3.7998109 0.24325533 5.1428571
0.63248897 3.799798 0.67242169 8.333333
0.62658399 3.799865 0.96936244 10.8
0.63138485 3.7924469 1.3708235 13.666667
0.59475893 3.785152 1.9299958 17.5
0.57305503 3.7806344 2.1033709 18.5
0.48971692 -3.2373166 2.770005 24
0.49186262 -3.1633165 2.7733381 25
0.65774292 -2.6205966 2.8750043 28
0.61458755 3.821461 3.8937335 27.142857
1.1175056 -4.415688 -0.0049926583 3
1.1249824 -3.6836944 -0.061993618 3
0.97828972 -2.8943303 -0.13949485 2
1.0254667 -2.7338283 -0.19819503 1.2
1.1565466 1.2705852 -0.20100015 0
1.1076167 1.9284312 -0.18850109 1
0.86335731 2.1265099 -0.17850167 1
0.85534012 2.7706265 -0.16400255 2
1.0133791 2.8125923 -0.17100239 2
1.0472733 3.7994297 -0.040336985 3
1.0950021 -2.9646058 0.042255387 3.5
1.024771 3.7976763 0.223443 4.9000001
1.171054 -2.8967931 0.46425539 7.5
0.99487847 3.7945585 0.67907965 8.375
1.1449674 -3.9227443 1.1420066 11.5
1.0220131 3.7866952 0.97659636 10.6
1.1066294 -3.8676522 1.2440065 12
1.0184314 3.7813542 1.3697795 13.6
0.9162308 -2.2391312 1.9980042 24
0.95640534 3.7777812 1.9132463 17
0.89578593 -2.1978574 2.0813375 24.666666
0.86416906 3.7763925 2.1164961 18.5
0.97600412 3.9053795 3.7588017 25.833334
1.0021888 3.7536154 4.0651631 27.333334
1.5617782 -2.8258579 -0.14049417 2
1.2756686 1.1579018 -0.20599985 0
1.4086936 1.4061513 -0.204 0.5
1.3522831 1.7059702 -0.1963338 1
1.4718118 2.9012222 -0.18100189 2
1.4810822 3.7840145 -0.079141952 2.6666667
1.4667473 -2.8873403 0.17025578 5
1.4146115 3.7877116 0.24070241 5
1.3485768 -2.9089253 0.51817232 8
1.377423 3.7849283 0.66299677 8.25
1.38155 -3.0995088 1.0014226 12
1.4201247 3.7782836 0.93018436 10
1.4207889 -2.888454 1.5011724 16.5
1.5060288 -2.6609843 1.433061 16.333334
1.3916078 3.7698369 1.4061219 13.5
1.4133735 3.7680743 1.9839969 17
1.39723 3.7678425 2.163497 18.333334
1.4525441 -2.0858328 2.6227546 27.5
1.4325243 3.9389555 3.1056631 22.666666
1.5422535 3.815021 3.856622 26
1.8385032 -2.6321077 -0.13738295 2
1.7239357 1.4094377 -0.21099958 0
1.7334934 3.7800975 -0.058752719 3
1.8592107 -2.726769 0.076006085 4
1.8018838 3.7774386 0.2417196 5
1.7222275 3.7732337 0.67393059 8.1999998
1.7761279 3.7697747 0.88353068 9.6000004
1.8190747 3.7552731 2.2127683 18
1.8208768 3.8139069 3.7952197 25.333334
1.7241762 3.7331581 4.0404968 27
2.2158849 -2.3270535 -0.22999395 1
2.1420324 -0.57357264 -0.26249638 0
2.0703208 -0.31742185 -0.25299683 0
2.2872949 2.7520468 -0.20100062 2
2.2252669 3.7701941 -0.038502049 3
2.3558321 -3.5711901 0.030007863 3
2.2549953 3.7658174 0.29659802 5.1999998
2.2718265 3.7587235 0.62179804 7.1999998
2.0915983 3.757715 0.8789978 9.5
2.0419433 -3.2102602 1.8010069 17
2.0989661 -3.1387038 1.8072569 16.666666
2.3017519 -1.6539565 2.8475606 27
2.3457823 -1.599817 2.8950052 27
2.0866776 3.8784826 3.7724977 24.5
2.2601244 3.7204998 4.1337481 26.5
2.4592743 -3.3345876 -0.19599231 2
2.5509331 -2.2293003 -0.21149366 1.5
2.517355 0.88474524 -0.23699784 1
2.605294 2.3424969 -0.21399966 1
2.6133416 2.7318027 -0.20450017 2
2.6279697 3.7616615 -0.051834837 3
2.5880954 3.7612991 0.20224845 4.5
2.6460588 3.7560108 0.57736522 6.8000002
2.6313052 3.7508919 0.96966517 9.666667
2.4766753 -1.7047671 2.7610054 25.5
2.4271362 -1.6391101 2.8215053 26
2.598304 3.8685522 3.4499149 22.5
2.5029356 3.7731085 3.8549984 24.5
2.8550506 -2.8831255 -0.20499238 2
2.9466853 -2.0698905 -0.28049335 1
3.1214309 1.4464725 -0.24099778 1
2.9311678 2.2823641 -0.22799914 1
3.1450043 2.8264914 -0.0059995772 3
3.0122252 3.7508092 -0.04400098 3
3.0372846 3.751256 0.18233238 4.1666665
3.1745107 -2.2706532 0.60400718 8
3.1461442 2.7710145 0.62250048 7.5
3.0058029 3.7467437 0.60179901 6.8000002
3.0695767 3.7380028 0.9737491 9.25
3.0460238 3.7266331 1.501999 12
2.987586 3.7269485 1.7334991 13.5
3.150403 -1.9667511 3.8710067 27
3.1362326 -2.025655 4.1080065 28
3.1720607 -1.9118754 4.0885067 28
3.5197685 -3.216429 -0.099991061 3
3.4259169 -2.8023064 -0.13599174 2
3.5731676 -2.6839514 -0.2269917 2
3.3934476 -1.8241769 -0.31632641 1
3.4283507 -1.3458707 -0.31599364 1
3.3774066 -1.0514128 -0.31099412 1
3.4530878 1.4049392 -0.25999728 1
3.3754263 2.7633564 -0.13199919 2
3.4047413 3.7367213 -0.091000438 3
3.3253889 -2.3491957 0.21817419 5
3.2396953 2.7900286 0.35700059 6
3.2588544 2.8169167 0.3100006 5
3.4546728 3.7334616 0.35799965 5
3.2393708 -2.3098826 0.56700736 7
3.2624655 2.7569306 0.40000069 6
3.2030277 2.8371904 0.40000048 6
3.3880484 3.7304802 0.53833288 6.3333335
3.3970819 3.7267687 0.99859959 9.1999998
3.5203257 -1.4128051 3.4795623 25.666666
3.4874864 -1.1622751 3.5685062 26.5
3.3890569 -2.055145 3.712007 26
3.3092668 -1.9124269 3.7751737 26.5
3.433888 -1.5527147 3.6697569 26.5
3.2004364 -1.9499619 4.1290064 28
3.6027281 -3.6035357 -0.11299044 3
3.9160113 -2.5139339 -0.17599146 2
3.7297654 -0.95001149 -0.3149938 1
3.701503 -0.76107478 -0.31199408 1
3.908762 2.0572431 -0.25799754 1
3.7474229 3.7349408 -0.099999987 3
3.8657031 -2.50948 2.1839249 16.5
3.8559759 -2.3623016 2.2160084 17
3.7275467 -1.5644276 3.2970068 24
3.9526629 3.4900348 4.2780004 24
4.3382249 -4.8096476 -0.32398787 2
4.1315846 -1.8313857 -0.24849208 2
4.1510773 3.7318866 -0.17199945 2
4.3682957 3.7917638 3.1700008 18
4.2705693 3.7452822 3.3105009 19
4.1377211 3.6759925 3.9680007 22
4.0315318 3.4786444 4.2520008 24
4.532176 -1.6387594 -0.2689918 2
4.7727246 -1.4779518 -0.2809917 2
4.5925131 -4.2169318 0.12801169 4
4.7887487 2.2778988 0.51700336 6
5.1537652 0.62797779 -0.31199402 1
4.8713188 2.2075801 -0.20732979 2.3333333
5.1812925 2.7326355 -0.25999674 2
5.19872 2.8054872 -0.12999682 3
4.8767424 2.3030882 0.18175341 4
4.8575296 2.2011497 0.5397535 6.5
4.8741608 2.1815908 0.85300356 8
5.2352285 -1.3331026 -0.2569913 2
5.4226937 1.9472885 -0.19499539 2
5.3910022 2.0013776 -0.022995504 3
5.3972826 1.9623897 0.13600457 3.5
5.3622794 2.0494602 0.1710044 4
5.2098255 2.7399952 0.13500327 3.5
5.206841 2.8264298 0.077003159 4
5.3623414 -1.8455898 0.71250951 7
5.3271194 1.9603816 0.51067114 6
5.3216987 2.033664 0.70250434 7
5.2145748 2.782434 0.43300322 5
5.2677484 2.8151538 0.57800329 6
5.3061328 -1.8356088 0.97125953 8.5
5.3476644 1.9396428 0.98300451 8.5
5.9026375 -1.2191337 -0.28999054 2
5.6998229 -1.7016977 1.1380098 9
5.7548628 -1.6894485 1.5045099 11
5.7148123 -1.7037592 1.6550099 11
6.273622 -0.97005481 -0.39199039 1
6.3073335 3.6514862 1.3770036 9
6.146955 3.5773113 1.7190034 10
6.1173906 3.6473882 2.1830034 12
6.7390141 3.6274838 3.1070042 15
6.6730227 3.6247962 3.3640041 16
6.6600099 3.62186 3.612004 17
7.1907692 3.61339 2.0600047 11
7.003387 3.6222548 2.5190046 12.5
7.1197066 3.5987365 3.1180048 14
6.8969212 3.6217513 2.8320043 14
7.0746584 3.5879574 3.3460045 15
7.4906273 3.6060071 2.2980053 11
7.5455627 3.5977619 2.5500052 12
7.2197876 3.6182508 2.6950047 13
7.4975314 3.5899928 3.3240051 14.5
7.454586 3.5971844 3.6590049 16
7.5664244 3.5756915 4.5630054 18
7.616509 3.5924397 3.0540051 14
7.6145902 3.6064336 2.8080053 13
7.9123726 3.5840838 3.5580058 15
7.9113884 3.5870862 3.8370056 16
7.7593651 3.5753 4.2050056 17
8.4742527 3.5894945 2.5410063 11
8.4951668 3.5754147 2.9370062 12.5
8.4911509 3.5724373 3.3330064 14
8.40522 3.5808222 3.7530065 15
8.4111824 3.5748019 4.0340061 16
9.0480433 3.5768838 2.5540071 11
9.0660286 3.5748048 2.9650073 12
9.0214815 3.5650201 3.3640072 13.5
8.9470501 3.5743499 3.9690073 15
8.9649725 3.5612831 4.2540073 16
9.1948586 3.5502479 5.0090075 17
9.2069111 3.5601821 5.4090075 18
9.7030993 -0.38793787 0.64701343 5
9.9233208 -0.33798066 0.80801362 6
9.7722025 -0.36427525 1.2920135 7
10.494177 -0.14577301 0.63001412 5
10.603517 -0.18220706 0.99801433 6
10.760337 -0.22284563 1.4205146 7
11.738793 0.53726071 1.393515 6.5
11.756608 0.49723765 1.8255149 8
11.797768 0.42365772 2.4300151 9
13.111662 1.2516582 -0.44098428 2
14.369151 1.5646238 0.39001697 4
14.338428 1.3096194 0.4875173 4
14.208938 1.3116933 0.99401712 5
14.508189 1.572992 -0.25198284 3
14.406358 1.3996897 0.0010172572 3
15.692352 2.2267992 -0.54998213 2
15.770625 2.2823734 -0.011982104 3
20.951578 5.0873384 0.14802106 3
21.551659 3.7385511 0.19052362 3.5
21.589907 3.5885954 0.88802391 4
21.499598 3.526088 2.2400239 6
21.518972 3.6018949 2.7100239 7
21.655754 3.5583448 1.1220239 5
24.292439 6.0750356 0.55702418 4
26.914997 3.8415253 1.0980307 4
