# .PCD v0.7 - Point Cloud Data file format
VERSION 0.7
FIELDS x y z intensity
SIZE 4 4 4 4
TYPE F F F F
COUNT 1 1 1 1
WIDTH 511
HEIGHT 1
VIEWPOINT 0 0 0 1 0 0 0
POINTS 511
DATA ascii
-22.215965 -14.980416 12.901608 17
-22.079323 -14.678854 14.120333 18
-21.811871 -14.987098 13.229447 17
-21.841776 -15.002558 14.136917 18
-16.415115 -16.180384 11.087741 17
-16.593147 -15.815815 11.483097 17
-16.478235 -15.936768 11.7506 18
-16.085169 -16.462107 11.219563 17
-16.132076 -16.414576 11.953361 18
-15.802783 19.887171 -0.081118628 3
-15.779088 21.84062 -0.09245237 3
-15.742249 7.1486368 12.368096 22
-11.630708 13.318698 -0.053745814 3
-10.050577 -5.6568756 3.8074245 13
-10.266094 -5.3764973 3.8251755 13
-10.110527 -5.5657144 4.0918121 14
-9.6755199 -6.2142954 3.3748488 12
-9.8968344 -5.8641925 3.3612664 12
-9.6943626 -6.1261635 3.7779837 13
-9.9044113 -5.8737483 3.7362685 13
-9.7243643 -6.1146946 4.372571 14
-9.9520864 -5.7655296 4.0634804 14
-9.2067976 -6.7667422 2.0778491 9
-9.4269571 -6.5482841 3.3854823 12
-9.4708195 -6.3790765 3.5955737 12
-9.3641548 -6.5585184 3.7774661 13
-8.9831886 7.6901512 -0.22384675 3
-8.9428663 -7.0371723 1.8119293 8
-9.038413 -6.9991364 2.127553 8.6000004
-9.04741 -7.0065331 2.6626501 10
-8.9425364 -6.9684839 3.5878015 12
-8.8443251 -7.2228241 3.6215107 13
-8.9937239 -6.9841332 3.7312262 12.75
-9.1854563 -6.7341857 3.7398372 13
-8.8521185 -7.3073983 4.0796647 14
-8.9495754 -7.061038 4.0419693 14
-8.7038813 8.20784 -0.44569749 2
-8.6102943 -7.2693324 1.6710973 8
-8.4017582 -7.220551 2.2744517 9
-8.4740553 -7.7275624 3.4483285 12
-8.6861687 -7.5448885 3.4454949 12
-8.548665 -7.6026311 3.6984117 13
-8.6955786 -7.3880057 3.7381611 13
-8.6965122 -7.5124674 4.0954103 14
-8.3851614 -7.3112249 1.9746696 9
-8.2947493 -7.3112721 2.0898664 9
-8.0235252 -8.4515142 3.5438445 12
-8.1889114 -8.2200327 3.5139825 12
-8.1035938 -8.1824856 3.773097 13
-8.3434114 -7.7043905 3.7275691 13
-7.7766461 6.0098252 -0.26240057 2
-7.6476045 -8.8700266 3.5886087 12
-7.8468904 -8.6723938 3.5707211 12
-7.7532129 -8.6171618 3.7954447 13
-7.9191041 -8.3448715 3.8668568 13
-7.5307274 -5.8259621 0.10253491 4
-7.070745 -3.075804 -0.13654886 3
-6.4670582 5.5021901 -0.38161197 2
-6.5388942 -10.307993 3.8982632 12.5
-6.6702857 -3.7072861 3.7288342 17
-6.6472807 -3.4358637 3.7989008 17.6
-6.0656142 -1.6744432 0.1551297 4
-6.2654757 3.0357971 0.15162894 4
-6.2750616 3.0633898 0.53908992 5.5
-6.2419028 2.69102 1.0609561 8
-6.2428751 2.9802961 1.0247163 8
-6.2206154 2.6673965 1.2225144 9
-6.1765785 3.3490734 1.2935426 9
-6.0599594 3.3081417 1.6617881 10
-6.3090172 2.5308566 2.1777213 12.5
-5.760581 -4.4828825 -0.17235276 3
-5.8983712 -3.0249095 -0.024359303 3
-5.6277504 -2.154326 -0.10230552 3
-5.6263542 -1.8371429 -0.043806352 3
-5.8581629 -0.44884649 -0.10618293 3
-5.90451 -3.0000153 0.17983606 4.25
-5.8646703 -2.9903705 0.44198188 5.3333335
-5.966466 1.7513858 1.0891023 8.666667
-5.9160662 1.587729 1.2775102 9
-5.446486 -4.656085 -0.1643296 3
-5.3186707 -2.3921826 -0.020318771 3
-5.5652108 2.0831645 -0.30830953 2
-5.2891912 -2.4704902 0.2348728 4.5
-5.3268094 -2.3703175 0.13962901 4
-5.3192163 -2.4101999 0.45471227 6
-4.9861612 6.2515221 -0.42343518 2
-5.0169678 -0.88470632 -0.15509103 2
-5.0120115 -3.3555286 0.29753205 4.6666665
-4.8788767 1.4803028 0.22296107 4.5
-5.0375957 1.8946683 0.060803652 4
-5.0064487 -3.3146331 0.49496621 6
-4.5560951 6.2958403 -0.40968657 2
-4.5811763 -2.8595941 -0.025019908 3
-4.6209955 -2.6351435 -0.086515941 2.6666667
-4.5528908 -1.0839344 -0.09974847 2.5
-4.5657263 -0.5897032 -0.084759213 2.75
-4.7280884 -0.34721652 -0.25228894 2
-4.6565876 5.3055072 -0.37514144 2
-4.5287261 7.851306 -0.35179108 2
-4.5080242 -2.5694749 0.12284242 4
-4.4949236 -0.92969245 0.22050869 4.6666665
-4.5121131 -0.58167261 0.10174462 4
-4.6009302 -0.10671751 0.22047143 4.6666665
-4.4708786 -0.85018682 0.46535569 6
-4.3306484 6.6167421 -0.41551751 2
-3.9434016 -4.0503454 -0.12023854 3
-3.6022332 -0.45878631 -0.22111697 1
-3.8392665 1.438361 -0.25364539 1
-3.7733173 7.9557176 -0.03553817 3
-3.7367842 7.9576769 0.23019078 4
-3.7072356 7.9666786 0.58906907 5
-3.2854862 -3.7481964 -0.040361628 3
-3.3064587 -3.0906022 -0.098831356 3
-3.3464622 -2.0676808 -0.18397838 2
-3.4415691 -1.8051469 -0.1926578 2
-3.4883373 -1.426533 -0.19941503 2
-3.5638733 -1.0762818 -0.20913269 2
-3.5469956 -0.6249938 -0.2147831 1
-3.5601323 7.9749403 -0.036183085 3
-3.3527935 8.0063171 -0.036850415 3
-3.5096245 7.9924417 0.3598913 5
-3.3681681 8.0211725 0.22877839 4.1666665
-3.3315682 8.0196714 0.6926766 5.5
-3.4800556 8.0103512 0.80092913 6
-3.3385844 8.0651655 2.1151321 10
-3.3057418 8.0999346 2.4871609 12
-3.3618817 8.0694103 2.9615891 13
-3.0566361 -3.8373129 -0.14861478 2
-3.1501541 -2.6880789 -0.18232475 2
-3.1993222 3.0048618 -0.0522765 3
-3.0479217 8.0436249 -0.037860774 3
-3.0181959 2.9494581 0.26369265 5.1999998
-3.0093179 8.0679045 0.28968611 4.5
-2.9556448 2.9621134 0.65464973 8
-3.0112791 8.066514 0.65701747 5.3333335
-2.9301393 -3.7404511 1.0399821 9.666667
-2.9815648 3.0024273 0.91061896 10
-2.9407248 -3.7261848 1.5274267 12.666667
-2.8374293 8.1268015 1.231931 8
-2.9866676 -3.7099442 1.7917796 14
-2.9587998 8.3219042 2.5075762 12
-3.0183322 8.122386 2.8476329 13
-2.6114502 -2.67629 -0.17545614 2
-2.714113 -0.93351668 -0.21425544 1
-2.7304568 -0.62321031 -0.21528617 1
-2.5766568 -0.18558063 -0.21264286 1
-2.6100712 2.6523855 -0.26444709 1
-2.720804 2.911798 -0.12734592 2.25
-2.6507282 3.3332641 -0.28304562 1
-2.7553215 3.8301401 -0.30561146 1
-2.5412955 4.3969841 -0.31466994 1
-2.7450593 8.0830917 -0.037882753 3
-2.4045637 -3.0301685 0.019156585 3
-2.7981956 2.9139318 0.11901454 4
-2.7173865 8.1033955 0.23489754 4.25
-2.7256546 8.1084642 0.69013053 5.5
-2.7707644 8.1054754 0.97705823 7
-2.6611595 8.1459303 1.2482094 8
-2.7583015 8.1319504 1.6990594 9
-2.6919055 -4.7189069 2.7129447 17
-2.70994 -4.640089 2.9027963 18
-2.3714294 -3.2559516 -0.12824625 2
-2.2428422 -1.7916778 -0.19117621 1
-2.1499329 -1.2625993 -0.19254388 1
-2.3283339 -1.1597699 -0.20660442 1
-2.0790813 1.4669511 -0.2217935 1
-2.3568909 5.0977278 -0.32389513 2
-2.270963 5.594758 -0.33713821 2
-2.3519952 6.8451686 -0.35725647 2
-2.0223284 7.2713943 0.35194644 5
-2.0794952 8.202652 0.59211242 5.5
-2.174418 8.1999817 0.99696237 7
-2.1681526 8.2176189 1.3829585 8.5
-2.1071548 8.1976757 1.7790734 9.5
-2.2902501 -3.5137799 2.9088264 21.5
-2.246511 6.2882667 4.2333646 20
-1.7911708 -3.0743201 -0.089173682 2
-1.9714208 1.7285891 -0.22807664 1
-1.9542528 6.6709285 -0.34946629 2
-1.8552241 7.3639483 -0.036360111 3
-1.8988655 7.2837834 0.12146769 4
-1.6436598 -2.9609833 0.63058048 9
-1.8792166 8.219758 0.53941751 5
-1.965209 8.2524261 1.6992565 9
-1.9176127 8.4571743 2.2711689 11
-1.8100543 -3.5481994 2.7509279 21
-1.9798943 8.5078077 2.5060303 12
-1.8046793 -3.5676529 2.8368242 22
-1.9879688 8.2788143 2.8482013 13
-1.4503273 -2.7845404 -0.15194832 2
-1.2997941 -2.3068159 -0.16468999 1
-1.2809193 -1.6501665 -0.1757092 1
-1.3672504 -1.528563 -0.17971133 1
-1.309685 1.0606647 -0.20335476 0
-1.2335676 1.2392474 -0.20588985 0
-1.4145181 2.2668712 -0.096893348 2
-1.3494138 2.5231802 -0.06241053 2.5
-1.3629789 5.8062487 -0.31283128 2
-1.3899906 2.2634695 0.25396991 6.1666665
-1.3305714 2.4940591 0.10989454 4
-1.2961665 2.3824832 0.49004287 8.5
-1.5108529 -3.5537703 2.7103281 21.666666
-1.5060521 -3.3986096 3.4634132 26
-1.1434305 -1.5376252 -0.17511943 0
-0.80404252 2.3119733 -0.21811844 1
-1.1100708 2.5822971 -0.23182078 1
-0.86723733 -2.2320063 0.27460706 6.5
-0.95532864 -2.22525 0.65258622 11
-0.9540236 -2.2123134 0.87339407 13.666667
-1.1577327 -3.3790612 3.2492397 25.5
-0.9486798 -3.2540762 3.7056322 28
-0.9218576 -3.1497257 3.7823918 29
-0.45094624 -2.6202066 -0.1398899 2
-0.55858827 -2.3273044 -0.090264842 2
-0.5384205 2.1862977 -0.17937326 1
-0.43646193 -3.4502704 0.15873657 4.5
-0.55773646 -2.4345937 0.067806989 4
-0.64915586 -2.2071733 0.06035202 3.8
-0.41743341 1.9965891 0.1017075 5
-0.73841947 -2.1378849 0.71763599 12.5
-0.42238575 -3.3911786 2.3896523 22
-0.40547553 -3.3753285 2.5656683 23
-0.60469019 -3.2170067 2.9836707 25.5
-0.42202732 -3.2333009 3.5882678 28
-0.5998252 -3.235395 3.6692259 28.5
-0.63238817 -3.1612663 3.7597539 29
-0.33360666 -3.4423718 -0.0079525309 3
-0.27561703 2.1172812 -0.10170942 2
-0.27033487 6.2915664 -0.29561457 2
-0.29675806 -3.4337945 0.21891868 5
-0.061523892 1.5721103 0.25743589 8.1999998
-0.1507355 1.710339 0.24325526 7.4000001
-0.38829586 2.0061145 0.020739004 4
-0.31587961 -3.4146028 0.60164785 8.5714283
-0.042590432 1.5726206 0.43303004 11.5
-0.23108414 1.6892208 0.45481008 11.2
-0.26875797 -3.397902 1.1286566 12.666667
-0.28976893 -3.3954051 1.242083 14
-0.28415865 -3.3902779 1.8000927 18
-0.39548168 -3.393312 2.2947433 21
-0.39298779 -3.3970964 2.4237621 22
-0.29231063 -3.2822835 2.9228053 25
-0.26349595 -3.1714206 2.9378729 26
-0.25483286 -3.2906747 3.7250059 28.5
-0.1470301 6.5612431 4.1707978 20.5
0.26545224 -4.1375279 -0.060186636 3
0.060244616 -3.4337232 -0.024580546 3
0.34295475 -2.9917357 -0.1282779 2
0.22651087 -2.5401917 -0.079852179 2.25
0.25330943 -2.2519953 -0.15199655 1
0.29714894 1.9184562 -0.010392843 3
0.19881307 2.2124393 -0.1919706 1
0.11484813 8.4691982 -0.32385814 2
0.075984955 -3.4472625 0.24340495 5.5
0.37148428 -2.6010644 0.10091498 4.5
0.1477692 1.5385283 0.32949001 9.5
0.087619044 1.8334229 0.0084610898 3
0.37666419 -2.7242711 0.53291023 9
0.20132135 1.5136741 0.43337777 11.5
0.2254723 -5.6623111 0.97736222 8.5
0.16523992 -5.6547408 1.3133855 10
0.30636477 -5.9496484 1.8845623 12.6
0.2764239 -5.9271879 2.163388 14
0.20403506 -3.2374356 2.9095445 25
0.17421086 -3.1569593 2.9138143 26
0.17690006 -3.2824299 3.7000976 28.5
0.02983341 6.6194959 4.0065312 20
0.45177957 -2.8217993 -0.080147691 2
0.4643071 -2.5467908 -0.035918415 3
0.7703535 -2.032866 -0.1384424 1
0.78340083 -1.4901443 -0.14490847 1
0.77786672 1.1635522 -0.15861909 0
0.64971513 1.3622307 -0.16376488 0
0.73094112 1.9882996 -0.016077107 3
0.65998125 2.1685212 -0.098751239 2
0.45354211 4.1295362 -0.23993924 2
0.51210827 8.5328522 -0.30938727 2
0.48042315 -2.5666904 0.022064544 4
0.47852126 1.5134797 0.35071152 9.5
0.479761 -2.6899166 0.55771101 9.25
0.4864597 1.5093223 0.45605314 11.5
0.92739075 -2.4971139 -0.13451505 2
1.1419559 -2.3674316 -0.13069722 2
0.98247701 -1.7923391 -0.13665707 1
0.97924727 -1.3955696 -0.14291523 0.66666669
1.1341536 1.0812001 -0.15151472 0
1.055428 1.3827506 -0.15952061 0.75
0.89431834 1.8755567 -0.11790344 1.6666666
0.85159945 2.1722939 -0.17960718 1
1.1416873 2.5682108 -0.13414542 2
0.81750101 5.3500223 -0.172479 2
1.1644752 -3.6089752 0.011172143 3
0.99466598 -3.2773128 0.32846054 6.3333335
0.96036249 -3.1299357 0.31491917 6
0.89723849 -3.2773786 0.43845606 7
1.0659494 -3.0773523 0.61620176 8.875
1.381339 -2.48715 -0.090770923 2
1.4395984 -2.3881531 -0.038662028 3
1.3091409 -1.2839863 -0.13451713 1
1.3977128 -0.99211395 -0.13281268 1
1.433161 -0.58964115 -0.13765448 0.5
1.4777124 -0.19729666 -0.14203246 0
1.4987324 0.33580393 -0.14222747 0.5
1.4754485 0.58417374 -0.14183836 1
1.2514986 -3.3526392 0.015403757 3
1.425992 -2.4068642 0.021316756 3.6666667
1.4435486 -2.3808889 0.090679377 4
1.2063289 -3.2023242 0.4255358 7
1.6680527 -2.5758398 -0.11830408 2
1.6477429 -2.0643523 -0.12478406 2
1.6430424 -1.6917323 -0.12638335 2
1.8322195 -1.5162979 -0.12139225 2
1.8467493 0.97344905 -0.14146203 1
1.722315 1.5592475 -0.14946118 1
1.6840723 1.6747878 -0.15249099 1
1.8994558 2.3029783 -0.16260277 2
1.7853549 2.4981978 -0.17373161 2
1.7509046 5.5533705 -0.24366121 2
1.7254409 6.7979131 4.2953987 20
1.8954089 6.860384 4.0825262 19
2.089685 -1.2446525 -0.11828138 2
2.0135782 -0.52966768 -0.12425698 1
2.1120031 -0.18546201 -0.1274109 1
2.0368676 0.30745155 -0.12976372 1
2.1987131 0.43097484 -0.12968951 1.5
2.0235121 1.1969868 -0.14041469 1
2.0146024 2.2210097 -0.15853289 2
2.069314 5.6461539 -0.24643493 2
2.4115341 -0.53418213 -0.11797898 2
2.4398904 -0.36800218 -0.11931719 2
2.4115617 0.29756805 -0.12627812 2
2.7882285 1.8328847 -0.14929581 2
3.0805001 -3.6634734 -0.069645397 3
3.1444485 -2.8016472 -0.087753229 3
3.1388988 -0.93668699 -0.096818238 2
2.9759791 1.5872607 -0.14229043 2
2.8675225 1.7006099 -0.14429024 2
3.2278032 -3.5016851 -0.071457639 3
3.2551069 -3.1848462 -0.078129672 3
3.2794068 -2.6700804 -0.08259242 3
3.4447539 -1.6288644 -0.073482275 3
3.5779958 -1.4510335 -0.067286775 3
3.5771871 -1.0677438 -0.073910587 3
3.3972394 1.4033884 -0.11229869 2
3.5669043 3.5348964 -0.1743893 2
3.868783 -2.1604114 -0.081472367 3
3.6710446 -0.90792888 -0.078753538 3
3.9376595 -0.5834254 -0.099456683 2.5
3.9505897 -0.20438495 -0.097146094 2
3.97277 0.10814558 -0.11442021 2
3.7212143 3.3643444 -0.17129438 2
4.3573856 -5.8043952 -0.0075630667 3
4.0231771 -0.49858096 -0.094379432 3
4.1934943 1.5115737 -0.13423912 2
4.2591925 1.9913459 -0.14513128 2
4.1515546 5.57967 -0.15294042 3
4.3137569 -6.3401537 0.0039194413 3
4.3692069 4.7777553 0.23450217 4
4.3728333 5.2789984 0.050305773 3
4.1395507 6.0944624 0.025796372 3
4.4557981 -0.11658536 -0.10057828 3
4.4366174 0.20340265 -0.10185672 3
4.5493751 0.42765483 -0.10571769 3
4.5356727 1.5890164 -0.11020511 3
4.5614052 2.8970501 -0.11529411 3
4.7994304 2.5477314 0.00498165 3
4.7149906 2.9524131 0.22090766 4.1428571
4.5911937 3.3266397 0.38093141 5
4.5395246 3.7780447 0.39384544 5
4.4769216 4.0733285 0.399762 5
4.4349737 4.4239182 0.22764792 4
4.791285 2.3391414 0.50846058 6.5
4.7517934 2.6754141 0.65023208 6.75
4.6624403 3.0826662 0.58146536 6.5
4.5819025 3.3408225 0.59822649 6.5999999
4.5145302 3.77722 0.61754036 6.4000001
4.4416614 4.1435852 0.57356477 6.1666665
4.7685523 2.6175609 0.91798252 8
4.6504426 3.2581162 0.96295071 8
4.5066495 3.9485161 0.93230164 7.5
4.708775 -29.199835 16.993675 19
4.922534 2.2433314 0.26428962 4.3333335
4.8523774 2.7555656 0.37899891 5
4.8127346 2.3366723 0.6064623 6.5
5.1383538 7.3758473 5.3257208 19.5
5.0058541 7.3093119 5.9446783 21
5.0008068 -29.778538 16.37114 18
5.0546198 -29.341423 16.86548 19
5.3690696 1.3586464 -0.11326383 3
5.445869 -29.2981 11.672434 14
5.3355436 -29.087891 16.975624 19
5.763474 0.8226577 -0.13550384 3
5.7118397 6.1795969 -0.065456159 3
5.8045387 -8.6052828 0.085933313 4
5.7970905 5.2032733 0.070888266 4
5.7228718 5.6286702 0.059739005 3
5.7485127 -29.22916 11.400429 14
5.9735494 -29.00106 16.98057 19
6.3813057 2.9665947 0.034181993 3
6.1978273 -29.290419 8.9212952 12
6.2501917 -29.230368 9.496335 13
6.0368776 -29.213364 11.092388 14
6.336431 -29.066734 16.870451 19
6.425168 -29.635235 10.206973 13
6.7234693 -29.192421 11.169283 14
6.4211078 -29.202229 11.454326 14
6.6127496 -28.926432 17.000519 19
6.9351525 6.2778344 -0.030029342 3
7.1621957 -2.8929319 0.38064578 5
7.1422329 -2.5045366 0.36650354 5
7.1974416 -2.9277551 0.68261594 6
7.1699009 -2.5284209 0.66098356 6
7.1952591 -2.8910506 0.95665038 7
7.1988902 -2.5235004 0.94998997 7
6.9969454 -29.51195 9.6229801 13
7.1006913 -29.302992 10.881133 14
6.9965034 -28.99106 16.926409 19
7.5780392 -3.5515623 0.2250592 4
7.3161387 -3.0712166 0.29749089 4.5
7.5981488 3.1093762 0.039302148 3
7.2489619 -2.8701103 0.6096738 6
7.232935 -2.9292703 0.83061719 6
7.8699617 -1.9493581 0.097533099 4
8.0271902 -5.3309894 0.06638097 3
8.3641834 7.8658915 10.440002 25
8.546896 -6.2637243 0.07452742 3
8.4083004 -2.5024023 0.1150795 4
8.7676592 -1.7716744 0.37271345 4
8.6333113 -15.663248 4.1091485 10
8.9764509 -9.7406502 0.3491897 4
8.8168402 -15.589513 4.1437225 10
8.8160467 -15.666663 4.6666532 11
8.8001423 -15.900635 5.1994419 12
9.1023664 7.951786 10.975229 25
9.4527245 -9.3859043 0.38558787 4
9.3542109 7.8198929 11.06834 25
9.694437 3.4686644 0.24150831 4
9.6946325 -29.083473 10.329007 13
9.7637148 -28.708069 11.669316 14
10.332023 -28.905085 10.342108 13
10.093676 -28.577686 11.457403 14
10.070606 -28.621037 11.810369 14
10.56875 -9.4376278 0.35066855 4
10.711308 -1.6168003 0.10688248 4
10.550631 -25.682541 10.632351 14
10.670261 -25.590937 15.777925 19
11.082155 -25.638542 9.4048719 13
10.803882 -25.653814 10.371867 14
11.188226 -25.502846 15.878987 19
10.985782 -25.541332 21.404959 23
11.566858 -9.4052515 0.34981531 4
11.595308 -15.313591 3.2031655 8
11.444514 -15.326292 3.7071397 9
11.56241 -15.430962 4.4230533 10
11.500336 -15.734647 4.9477644 11
11.208123 -25.527122 8.0789661 12
11.457314 -25.549013 10.482941 14
11.507956 -25.453941 15.848022 19
11.550432 -25.334051 21.400133 23
11.891407 -14.392935 0.22405925 4
11.917392 -15.409902 4.5501046 10
11.971279 -15.589433 4.9689403 11
11.786758 -25.528137 8.7979565 12
11.713139 -25.5669 9.4669237 13
11.684353 -25.496872 10.715985 14
12.095821 -15.396789 5.4791331 11
12.111794 -25.440416 10.59703 14
12.333907 -25.391356 10.813074 14
12.026137 -25.378025 15.926085 19
12.235941 -25.303988 16.044153 19
12.407166 -15.454922 6.0711074 12
12.629765 -25.363844 10.9601 14
12.656701 -25.264658 16.005186 19
12.964989 -1.3011937 0.42214763 4
12.884452 -25.210886 9.5242367 13
13.093823 -25.16655 16.199282 19
13.311341 3.241982 0.4875845 4
13.424495 -25.344677 10.994627 14
13.313588 -25.184309 16.116268 19
13.726058 -25.293276 11.08118 14
13.695284 -25.014156 22.684429 23
13.943618 -24.483624 24.368912 25
14.072348 -9.2722321 0.67221463 4
14.207263 -25.133156 11.075336 14
15.715725 3.1693904 0.069609806 3
15.788763 -24.929537 11.45059 14
16.275749 -12.041 0.44978312 4
16.089724 -24.89835 11.509634 14
16.50522 -8.6659327 0.48501393 4
16.411327 -24.850101 11.459697 14
16.752691 -24.687159 11.594867 14
16.927622 -24.58869 11.581971 14
19.511925 -14.637518 5.9446278 10
19.784742 -14.38623 5.4738965 10
19.710806 -14.118751 5.9241452 10
19.74382 -14.581562 6.1527066 11
19.665918 -27.624048 13.190361 14
19.889812 -27.537451 13.240456 14
20.215214 -14.616371 4.6947188 9
20.148424 -27.531582 13.33948 14
20.502016 -27.478453 13.342554 14
20.893444 -27.433159 13.221626 14
21.027521 -27.278147 19.742786 19
21.09528 -26.23398 20.383762 20
21.33703 -27.312128 13.493776 14
21.290886 -27.266113 19.403811 19
21.62923 -27.271372 13.684837 15
26.292736 -26.234241 14.143245 14
26.179193 -26.184135 15.262284 15
32.536823 4.8678851 1.1525413 4
33.88858 -22.152687 15.270866 14
