# .PCD v0.7 - Point Cloud Data file format
VERSION 0.7
FIELDS x y z intensity
SIZE 4 4 4 4
TYPE F F F F
COUNT 1 1 1 1
WIDTH 86
HEIGHT 1
VIEWPOINT 0 0 0 1 0 0 0
POINTS 86
DATA ascii
-23.905663 -16.517937 15.249251 18
-18.71843 -30.716251 12.115806 13
-9.5946846 10.126154 3.8760853 11
-8.3577003 -4.5436268 1.5569675 8
-8.3495398 -4.5497017 1.8229574 9
-8.1183453 -7.6332765 1.9090642 8
-8.1784773 -7.1339388 2.0623181 9
-7.9384632 -2.1106822 1.4562776 8.5
-7.7580166 -28.648226 15.179276 17
-6.3525553 -1.7819742 0.01478551 3
-5.4010868 -16.168688 2.9141948 8
-5.0048919 -29.313581 17.008081 19
-4.0290961 1.3685458 0.52505374 7
-4.0079875 1.6066862 0.73967355 8
-4.0415983 1.3794187 0.80400133 9
-3.2824497 1.8554968 0.29518509 5.5
-3.3327773 1.8344821 0.46908706 7
-3.2946491 1.8051261 0.60824287 8
-3.2876637 1.875972 1.1521389 12
-3.090627 2.1294458 0.15522407 4.5
-3.1007707 2.0845692 0.5082764 7.5
-3.1970372 1.9040368 0.70733249 9
-2.3763125 -26.166216 13.558143 18
-1.8170794 2.8386381 0.084433176 4
-1.8668501 -26.180731 12.552385 17
-1.8813275 -26.134144 28.805376 28
-0.63645977 2.2998316 0.30136383 7
-0.46559992 -2.1685622 0.37672904 8
-0.40246731 2.3831782 0.34976715 8
-0.47452626 -2.1740875 0.45322463 9.5
-0.34061483 -2.1573107 0.16080002 5
-0.25033751 -2.1431839 0.24085709 7
-0.22178084 2.5033298 0.28796703 7
-0.24345665 2.4921474 0.57293922 10
-0.1926098 2.8434761 0.032441664 4
-0.09365052 -2.2180285 0.73497069 13
-0.17188244 2.5441787 0.6250084 11
0.17812084 -2.134007 -0.10380428 2
0.15728566 -2.1334949 0.015677404 3.5
0.018426692 -2.1169691 0.46205741 10
0.1751879 9.3582087 0.77905464 6
0.24557762 -2.1540501 -0.12474268 1
0.22776382 9.3495359 1.4011916 8
0.51642597 -2.1723871 -0.059476685 2
0.54713893 -2.2193573 0.48355177 9
0.52330726 -2.1983171 0.50152862 10
0.48108768 8.8619566 3.7406085 15
0.70520777 2.913559 0.31167111 6.5
0.76918644 9.3114033 2.6934719 12
0.92537755 -2.2232876 0.31296027 7
0.90643299 -2.2291512 0.66293842 11
0.8553412 8.8382978 3.3454731 14
1.0520921 -2.2522154 0.13659881 4.5
1.041634 -2.2486613 0.22508752 6
1.1541508 2.671066 0.32735017 7
1.0317832 9.1716604 2.5172842 11
1.1806 8.8094044 3.554225 15
1.0054256 8.7991924 3.8718677 16
1.1107737 7.3292241 4.1755948 19
1.3311923 -2.2496297 0.54941964 9.5
1.2418959 9.2979822 1.9155184 9
1.2053592 -26.257187 29.190098 28
1.4550996 -2.2831976 0.24755663 6
1.6041846 2.621556 0.33912921 7
1.7077634 9.2693996 2.0825496 10
1.7754332 9.22404 2.3787673 11
1.6311063 7.3113685 7.129705 26
1.8648369 -2.2899785 0.5130313 8
2.1480117 9.2266645 3.7425284 15
2.0359256 -26.395075 13.333632 17
2.1662729 -26.40111 13.763717 18
2.6129911 -26.546297 14.871018 19
2.9566641 2.6124671 0.096927442 4
3.2280056 -2.4364629 0.11354094 4
4.3982716 -26.452909 14.986294 19
4.4610872 -26.388094 13.941339 18
5.1154194 -2.6963391 0.60250467 6
5.1745396 -2.5481606 0.6775884 7
5.2097158 -2.5535944 0.31562367 5
5.4598546 2.3226078 0.50385183 5.5
7.2821217 -2.6440246 0.38070115 5
7.2630639 -2.5728927 0.77668756 6
7.2119141 -2.585357 0.99263614 7
7.4837379 8.8475618 2.8201115 10
34.741173 -29.847008 11.012489 10
34.955486 -29.799078 11.646717 11
