# .PCD v0.7 - Point Cloud Data file format
VERSION 0.7
FIELDS x y z intensity
SIZE 4 4 4 4
TYPE F F F F
COUNT 1 1 1 1
WIDTH 123
HEIGHT 1
VIEWPOINT 0 0 0 1 0 0 0
POINTS 123
DATA ascii
-31.358263 -17.517256 8.1278152 10
-31.148497 -17.785786 8.998992 11
-30.234945 -19.101273 10.156471 12
-29.591599 -19.818098 8.0009661 10
-29.385511 -20.289902 14.134649 15
-29.19903 -20.363245 8.8543682 11
-28.72027 -21.166771 13.579651 14
-27.586283 -22.481733 8.0822067 10
-27.292406 -22.95137 8.7892389 11
-27.349808 -22.969707 10.3271 12
-20.665323 -2.567157 0.5637272 4
-20.718023 -2.0786123 1.1499799 5
-20.514383 -1.5956514 1.6350009 6
-10.189398 8.1115475 2.8221359 10
-10.151999 8.1237946 3.5422432 11
-10.19947 6.0765066 9.4724903 24
-8.5915728 6.4965229 4.0520511 14
-7.584599 6.3117557 10.942251 29
-5.3092694 1.1659954 0.22844999 5
-5.3613234 0.35118702 0.41095528 6
-5.2120371 1.2089127 0.55070788 6
-5.1944394 1.1761914 0.69478428 7
-4.6741567 -2.8841958 -0.086644523 3
-4.4261913 -2.8781199 0.11612056 4
-4.5153747 6.7741508 4.889111 20
-4.5719604 6.6817231 6.1070199 23
-4.3715258 -2.8461018 0.47223264 6
-4.3861003 6.7828717 5.9364858 22
-3.8345439 6.8628702 4.3900208 19
-3.8364921 6.857933 5.9260244 23
-3.545059 -2.778419 -0.067280166 3
-3.4909449 -2.7827506 0.15490523 4
-3.2514412 -2.9732594 0.20009954 5
-3.1620598 -3.029963 0.057023395 3.5
-2.5564582 8.4659977 3.2031524 14
-2.5530481 8.4544287 3.5561728 15
-2.1642148 9.0575924 2.2316098 10
-2.0642891 9.0679989 2.4298551 11
-1.8691652 -2.4533157 0.33661929 7
-1.9905635 9.0900402 1.488018 8
-1.8813529 9.0547104 2.7743313 12
-1.6526613 -2.4237595 -0.018680403 3
-1.6500632 -2.4504883 0.088398121 4.5
-1.6107583 -2.4390271 0.2255137 6
-1.483945 -2.4096787 -0.12709832 2
-1.5071707 9.1573391 0.10615145 4
-1.5740886 1.9855063 0.25487551 6.5
-1.4572839 -2.4150746 0.44602081 8
-1.5634297 2.1021113 0.58433682 10
-1.5303798 -2.4101019 0.68123931 10.5
-1.5182126 9.1330481 0.75615031 6
-1.2231265 -2.3641076 -0.13323516 2
-1.3805393 2.0790007 0.13791773 5
-1.379063 2.0773766 0.40592456 8
-1.192107 -2.4031482 -0.16301039 1
-1.0545776 -2.3742981 0.029450472 4
-1.0367383 2.3263228 0.25627968 6.5
-1.0215547 2.357199 0.50480121 9
-1.0232365 9.1868773 3.4892969 14
-1.0472466 7.1808591 5.3432384 22
-0.90195924 -2.3485591 0.16699128 5.5
-0.99975634 2.3422768 0.13187586 5
-0.92090195 2.7626143 0.085750148 4
-0.96140528 -2.3311739 0.34870461 7
-0.84150916 -2.3315833 0.46019122 9
-0.87328911 -2.3399863 0.69808865 12
-0.69670826 -2.3292842 0.79278761 13
-0.23173457 -2.3270433 0.13980517 5
-0.12132188 -2.239948 0.73605889 13
0.18046175 8.7587643 3.7024405 15
0.29339999 8.8454008 3.194591 14
0.50696242 9.3940649 0.54047155 5
0.40372136 9.2891111 2.761369 12
0.94836444 -2.1118946 0.17919642 6
0.89883542 -2.1029553 0.36522818 8
0.91325188 -2.1150765 0.50120986 10
1.1471779 -2.1071427 0.08412303 4
1.0906117 -2.0885291 0.74316305 12.5
1.1860547 9.4287939 2.4637957 11
1.2099841 -2.0683956 0.30014277 7
1.2329546 -2.0635006 0.40514088 8
1.5592695 -2.0738106 0.25404739 6
1.7372223 -2.0179245 0.084077135 4.5
1.6449616 -2.0350354 0.45757362 8.5
1.7694776 9.502162 3.2478118 13
1.8233283 9.5222883 1.0928843 7
2.1530974 2.1833165 0.15091754 5
2.114903 2.2002521 0.095879085 4
2.1396136 2.1409049 0.33042967 6.5
2.1572053 2.112505 0.49095798 8
2.0203075 3.4642138 0.48290184 7
2.0131717 3.4413366 0.672912 8
2.1790004 9.5621929 2.8144741 12
2.2595251 -1.9781108 0.52106595 8.5
2.2025344 2.0705876 0.57701105 9
2.3205147 -1.9917523 0.74004632 10
2.386714 9.5842457 2.6358058 11
2.4112077 1.7535677 0.10025916 4
2.7066672 1.6347945 0.20941435 5
2.9048686 9.6533413 0.95258182 6
2.8441463 9.6446981 1.4574945 8
3.0314367 9.6432848 0.73078966 5
3.001884 9.6363096 2.0117521 9
3.1208491 9.6636086 2.2449112 10
3.7913311 -2.5613706 0.3973411 6
3.7040818 -29.761173 33.842155 29
3.9144526 -2.3122909 0.12263868 4
3.9921126 -2.1983309 0.19977403 5
3.8285282 -2.7453356 0.22012013 5
3.8015356 -2.6264453 0.55926299 7
3.8620844 9.7601671 3.4409142 13
4.0761561 -2.2024713 0.54877001 7
4.3155179 -2.1044695 0.37688708 6
4.2377567 7.7837853 5.7730756 21
4.8805375 -2.0045178 0.12400913 4
4.8301315 2.2975907 0.19602101 4
5.6553736 7.734405 9.2865744 26
10.94115 -1.6039339 0.40549308 4
11.015207 -28.774504 28.183126 26
11.617562 -28.140999 21.047682 21
15.08946 10.497692 17.548937 26
31.902025 -24.001129 12.490479 12
31.840466 -24.428818 13.481915 13
