# .PCD v0.7 - Point Cloud Data file format
VERSION 0.7
FIELDS x y z intensity
SIZE 4 4 4 4
TYPE F F F F
COUNT 1 1 1 1
WIDTH 506
HEIGHT 1
VIEWPOINT 0 0 0 1 0 0 0
POINTS 506
DATA ascii
-36.863678 -10.724305 11.209649 12
-35.032841 -14.579955 10.75701 12
-35.03569 -14.448111 11.262771 12
-34.851112 -15.084214 12.622522 13
-34.598759 -15.468234 9.1890259 10
-34.685436 -15.405623 10.774638 12
-34.69923 -15.199798 11.299219 12
-34.709278 -15.293643 12.043362 13
-34.498474 -15.83432 12.573051 13
-34.497234 -15.756616 14.224925 14
-34.022388 -16.683426 11.372206 12
-34.34396 -16.056831 12.016969 13
-34.109665 -16.564972 12.518701 13
-34.103348 -16.589796 14.262783 14
-33.761463 -17.253527 10.310156 11
-33.902184 -16.99436 10.807194 12
-33.62991 -17.407026 11.4039 12
-33.617874 -17.593277 11.983306 13
-33.768513 -17.32999 12.483295 13
-33.697399 -17.40823 14.299697 14
-33.439209 -17.854239 9.2843924 11
-33.517944 -17.799692 10.832033 12
-33.283287 -18.376167 11.98597 13
-33.394119 -18.070545 12.441994 13
-25.271452 -8.5303669 4.2486787 8
-25.207319 -8.8282499 4.6898794 9
-25.009165 -9.1996288 4.2161388 8
-24.900032 -9.353446 4.6587548 9
-24.560234 -9.9613867 3.5439005 7
-24.707497 -9.3793001 3.5154145 7
-24.54141 -10.1287 3.7402577 8
-24.756536 -9.538805 3.7225304 8
-24.444641 -10.299294 4.1998796 8
-24.728344 -9.7484226 4.2089882 8
-24.773514 -9.4664412 4.3043542 8
-24.666187 -9.9017115 4.6454592 9
-24.284155 -10.701181 3.7541203 8
-24.291559 -10.520169 4.3437743 8
-24.382217 -10.43567 4.6213284 9
-24.379677 -10.506583 5.0144672 9
-22.930574 2.8972745 1.6298975 5
-22.85247 2.5690186 2.1924584 6
-16.450235 -29.062078 22.091343 21
-16.169987 -29.053017 22.064514 21
-15.9867 -29.119911 22.272497 21
-14.199669 10.026895 17.160294 27
-14.118861 9.814703 17.2717 27
-13.831045 -25.782 19.120951 21
-13.463755 -25.875937 19.520815 21
-12.705588 -26.104445 17.416769 20
-12.243938 -26.055773 18.211668 20
-12.287955 -25.969759 19.066229 21
-11.771075 -26.022326 18.993177 21
-11.513967 -26.045668 18.060875 20
-11.205221 -26.118271 18.699488 21
-11.412485 -26.058556 18.958384 21
-10.845866 -26.13451 17.989147 20
-10.679804 2.7102013 0.10070135 4
-10.758841 -26.137419 18.808559 21
-9.6829805 -26.188965 18.539621 21
-9.4060535 -9.9901981 -0.25125968 3
-9.2517977 -26.237392 18.354258 21
-8.8018913 7.4828749 10.737507 26
-9.1295576 7.4727221 10.992951 26
-9.0032673 7.2367444 11.247022 26.5
-9.1206074 7.1931939 11.635674 27
-9.1908169 7.2071314 11.771436 27
-8.8436594 -26.281721 17.758781 20
-8.5381746 -9.9994097 -0.082930803 3
-8.6317568 7.4568992 10.579079 26
-8.5993528 7.4084229 11.060219 26.5
-8.7210541 7.1611528 11.694994 28
-8.6776361 -26.262325 18.234509 21
-8.0861979 7.4529996 10.707853 27
-8.1560917 7.1889009 11.18056 27.5
-8.1809855 7.3542681 11.107615 27
-8.3353424 7.1596403 11.390247 28
-8.1691628 -26.313505 18.228054 21
-7.7882814 7.3681321 11.048881 27.5
-7.8026671 -26.309078 18.226776 21
-7.4228587 7.4351182 5.7869935 18
-7.4231353 -26.440664 17.787989 20.5
-7.5339332 -26.347548 18.100172 21
-7.1294141 -2.1335921 -0.020062296 3
-6.8337064 7.3670979 7.5019546 23
-6.9149427 -26.430479 17.624392 20
-6.9086738 -26.378513 17.983259 21
-6.4751296 -2.2732584 -0.010768638 3
-6.6406407 7.3528996 7.6040878 23
-6.5525923 7.4900503 9.3452826 26
-6.3157411 -2.5538032 -0.0028038011 3
-6.3198175 -2.6585135 0.25336075 4.5
-6.1551971 9.3583965 0.10357703 4
-6.2789106 7.3166022 9.7877893 27.333334
-5.6733136 7.3174171 6.6817183 22
-5.3579984 0.79593658 0.22611159 5
-5.3540893 0.98095018 0.36997885 5
-5.5433292 9.3302174 0.087507673 4
-5.4518986 0.72168207 0.53087634 6
-5.3513427 0.87583613 0.51407093 6
-5.4033513 7.297287 6.5580921 22
-5.4563189 7.2114792 6.8269897 23
-4.8464046 -3.8936398 -0.10430698 3
-5.1654654 4.3020015 -0.099566698 3
-5.0837541 1.4750109 0.25870445 4.6666665
-5.0695119 1.6186353 0.10142941 4
-5.0405421 1.4673618 0.56679451 6.5
-5.061975 1.4833559 1.1123 9.5
-5.1730828 7.2487087 8.2553692 26
-4.9930301 -29.797798 8.7133284 12
-4.9677134 7.2331467 8.447032 26
-5.1064839 -29.899712 14.420184 17
-4.9281535 -29.914358 20.443226 21
-4.4304123 -3.8913641 -0.13284361 3
-4.6727171 -1.9133193 -0.20458919 2
-4.5488191 9.2581024 2.2044606 9.666667
-4.581553 7.261332 4.6432104 18
-4.6302447 7.1704888 6.1918864 22
-4.4800482 7.2295899 6.13656 22
-4.5506797 -29.870293 7.9687672 11
-4.7318583 -29.884712 13.119992 16
-4.6157589 -29.892807 14.373124 17
-4.5879912 -29.864014 19.395761 20
-4.403614 -29.903286 20.287834 21
-4.1459699 -4.0098886 0.017458424 3
-4.2335773 9.2320404 1.7445987 8
-4.2888441 9.2559681 2.1251633 9.5
-4.3630919 7.2406182 6.1549168 22
-4.3106132 -29.852089 8.6759338 12
-4.0688014 -29.880964 9.0412588 12
-4.2209678 -29.862396 9.7184401 13
-4.0073986 -29.904491 13.141716 16
-4.3230305 -29.854437 13.758969 16
-4.1213298 -29.898981 14.337141 17
-4.2683711 -29.987003 19.788776 21
-3.6422708 -1.261533 -0.20233044 2
-3.6281559 -1.0747061 -0.19955316 2
-3.645854 9.192338 0.7253769 5
-3.8456697 9.2071495 0.61277282 5
-3.6767268 9.2276611 0.80425423 6
-3.7499657 9.2147112 1.9710547 9
-3.7064147 9.2121277 2.1536863 10
-3.6589105 7.1869559 5.8641386 22
-3.7341702 7.1796536 6.116415 23
-3.8390231 -29.887964 7.9914289 11
-3.9579949 -29.866117 8.6067638 12
-3.6414056 -29.892788 13.709554 16
-3.7812452 -29.914459 14.371922 17
-3.8877919 -29.923643 19.313498 20
-3.6410518 -29.940451 19.715815 21
-3.7628887 -29.976643 20.31032 21
-3.59846 -2.3631754 -0.22027251 2
-3.5500252 -0.88065851 -0.19456851 2
-3.4740899 -0.69756013 -0.18956065 2
-3.4054327 -2.3329954 0.30581927 5.5
-3.4268839 2.234539 0.2614274 5.3333335
-3.4200392 2.8146729 0.067113981 4
-3.4682076 -2.317831 0.63174695 8
-3.4303639 2.2450287 0.45024434 6.5999999
-3.4128661 9.1883841 0.49256089 5
-3.4272342 9.2168579 0.78999478 6
-3.5280228 -2.3440244 1.0339346 10.5
-3.392823 9.1788073 0.93663013 6
-3.3526118 9.208456 0.88522029 6
-3.5944638 9.1819248 1.4675407 8
-3.5092688 9.1862631 1.8172877 8.5
-3.4325373 9.207387 1.9549929 9
-3.433074 9.1796312 2.1420176 10
-3.5277367 9.2123356 2.1607111 10
-3.2096834 7.1437054 5.6645384 22
-3.5804014 -29.944418 19.070127 20
-3.3961496 -29.968487 20.037163 21
-2.9192145 -5.8281527 -0.25482115 2
-2.8790576 -3.3667872 -0.23345163 2
-2.9669044 -3.0228131 -0.23312159 2
-2.9946058 -2.6567216 -0.2295779 2
-2.8436434 -2.2996531 -0.21384139 2
-2.9488184 -1.9469335 -0.21192394 1
-2.8314326 2.2104642 -0.16857778 2
-2.9830589 2.979743 -0.063536838 3
-2.9333415 3.4069419 -0.089150712 3
-2.8041489 3.7955294 -0.10949703 3
-3.0135767 -2.41537 0.1488253 4
-3.0910032 2.7404399 0.24150234 5.25
-2.9508986 5.4942293 0.041717656 4
-2.9671865 9.158288 0.63357675 5.1999998
-2.9330113 9.1583433 0.90322524 6
-2.9598243 9.146965 1.4554117 8
-2.9234962 9.1491222 1.7832658 8.5
-2.9584615 9.1652803 2.1169016 10
-3.0299511 7.1386456 5.7594714 22.666666
-3.0038719 -29.745527 19.027452 20
-2.925642 -29.582155 19.401339 21
-2.6372471 1.3923104 -0.1691635 2
-2.6202221 2.4738848 -0.16652197 2
-2.6724033 4.2282076 -0.10339616 3
-2.5146286 4.6917496 -0.096264161 3
-2.6315527 -2.8404655 0.049161263 4
-2.5595293 9.1456385 0.6655435 5.4000001
-2.5945213 9.137331 0.8869552 6
-2.5945873 9.1340218 1.4514599 8
-2.603152 9.1254301 1.7354447 9
-2.7305222 9.1296873 2.0760834 10
-2.5568707 9.1145306 3.3912168 13.5
-2.4624972 -29.789078 19.009388 20
-2.6950936 -29.525057 19.698349 21
-2.3984337 -13.8908 -0.29340565 3
-2.0577526 -9.2087564 -0.044526145 3
-2.1874428 -6.6634474 -0.27406582 2
-2.0213032 -4.0463839 -0.081178911 3
-2.1299436 -0.86585402 -0.19115376 1
-2.1141973 -0.61598456 -0.18818292 1
-2.3535707 1.5343149 -0.15861715 2
-2.1132891 2.318398 -0.14423276 2
-2.1603851 5.2115946 -0.079620369 3
-2.268801 -2.6926954 0.13213822 4
-2.1149211 -2.3961573 0.37497401 7
-2.1149962 -2.388566 0.59495729 9
-2.2124908 9.1181831 0.59353405 5.25
-2.2003214 9.1175156 0.8285687 6
-2.3580928 9.1254988 1.4501281 8
-2.2606885 9.1049595 1.7870854 9
-2.3083823 9.1139259 2.0647795 10
-2.2025402 9.0929718 3.0725954 13
-2.1649377 9.0891685 3.3528032 13.6
-2.0446401 -29.561951 19.683846 21
-1.7673852 -4.053977 -0.18707016 2
-1.7380334 -2.4238307 -0.11444466 2.2
-1.7680931 -2.2731445 -0.20254268 1
-1.9501035 -1.8610111 -0.20019944 1
-1.6494503 1.1369624 -0.16304323 1
-1.7534511 2.2018275 -0.13995552 2
-1.8600931 5.1507149 -0.08266905 3
-1.9354062 -15.647326 0.27252066 4
-1.7127452 -2.4594963 0.10964923 4.3333335
-1.7375419 9.0813589 0.29585844 4
-1.6699246 -2.4499323 0.48254225 8.5
-1.8556277 9.0880356 0.61813462 5.4000001
-1.7633935 9.0876379 0.82928437 6
-1.6617289 9.0822687 1.4510641 8
-1.6646342 9.0618048 1.8990782 9.5
-1.6678083 9.0800161 2.0640523 10
-1.7475874 9.0461292 3.0413761 13
-1.7658855 9.0451174 3.3663299 13.75
-1.4453621 -11.670579 -0.2556895 3
-1.3852344 -4.2323689 -0.20832399 2
-1.5173455 -2.445596 -0.089527391 2.4000001
-1.2204655 -1.956099 -0.19778587 1
-1.4623092 1.4062999 -0.15985069 1
-1.3007406 4.3602238 -0.10329656 3
-1.2038847 6.1084137 -0.070724323 3
-1.3422769 -2.4759147 0.23314492 5.625
-1.2896835 9.0548687 0.31306499 4
-1.3753668 -2.4494162 0.65676349 10.2
-1.4219967 9.0612545 0.62041336 5.4000001
-1.4364682 -2.4477861 0.84779799 12.5
-1.3402387 9.0504837 0.82743925 6
-1.4333735 9.0509624 1.4506986 8
-1.4458452 9.0513649 1.7384157 9
-1.4513487 9.0577593 2.0566466 10
-1.3131673 9.0177212 3.0354259 12.75
-1.5462354 9.0476284 3.2074115 13
-1.2843975 7.0192876 7.4406729 28
-1.0011139 -4.4110217 -0.23850016 2
-1.0554798 -3.4417613 -0.21825066 1
-0.97437042 -2.4776716 -0.2002981 1
-1.0808039 -2.2798259 -0.19932257 1
-1.0644144 1.3312173 -0.15809718 1
-0.9474991 2.427037 -0.14449352 2
-0.89796132 3.5808654 -0.13739379 2
-1.0293548 4.1367884 -0.10730274 3
-0.88330942 5.9668546 -0.020721603 3
-1.0010948 -3.6156933 0.028034028 3
-1.1702769 -3.5795667 0.0171507 3
-0.91280127 -2.9991324 0.092548795 4
-1.0402795 -2.4945433 0.30021834 6.7142859
-0.98995411 -2.4989288 0.59426069 10.1
-1.0214621 -2.5052493 0.83285183 12.75
-1.03465 9.0217199 2.9572635 12.5
-0.8521294 7.0038629 5.2683177 23
-0.97252786 6.9882107 6.5405254 26
-0.94879133 6.9940052 7.3183846 27.6
-0.57605165 -4.4270468 -0.23638831 2
-0.79007286 -4.3909488 -0.23655067 2
-0.6604023 1.5417209 -0.14385365 1
-0.52097899 1.754189 -0.14233397 1
-0.72837692 2.3341854 -0.14273444 2
-0.65130359 3.6934912 -0.12480929 2
-0.71298146 -3.9210262 0.1383481 4
-0.73423553 -3.1681988 0.10488973 4
-0.70817345 -2.5635102 0.36655062 7.3333335
-0.68935198 -2.5681686 0.43858334 8.333333
-0.5773468 6.9876661 5.0160317 22
-0.62289691 6.9918933 5.2411637 23
-0.65886605 6.9798808 6.5015068 26
-0.56636208 6.9630089 7.1955895 27
-0.75289714 6.9907146 7.4005928 28
-0.32771218 1.8079057 -0.13703887 1
-0.016267998 1.1492528 0.04653573 4
-0.0085591841 1.6062169 0.0010743747 3
-0.28471386 6.9723248 4.9386044 21.666666
-0.20251177 6.9643598 5.2472277 23
-0.1141022 6.9484615 6.4445448 26
-0.29851162 6.948936 7.3149371 27.666666
0.075200118 -6.1375542 -0.27619889 2
0.16075115 -4.1474028 -0.24123402 1.5
0.14806986 1.5581634 -0.14246647 1
0.33893767 1.7168795 -0.084683992 2
0.32570553 2.2032249 -0.12974383 2
0.24627855 3.3791096 -0.14118928 2
0.24710469 1.0126184 0.14635497 7.4285712
0.095213987 1.4790311 0.004487582 3
0.035707913 6.9367709 6.4395766 26
0.62158787 -10.120379 -0.15782337 3
0.57309479 -4.3204875 -0.243303 2
0.51509184 -3.7648535 -0.23018429 1
0.61626476 -2.8744216 -0.21136177 1
0.74888593 -2.5983484 -0.20367981 1
0.68316752 1.553405 -0.13931432 1
0.46909234 1.6206405 -0.075047083 2
0.50691134 2.2838135 -0.12743585 2
0.73931646 2.4083846 -0.12810382 2
0.60679084 4.1587496 -0.10421782 3
0.66094309 -4.0588012 0.1233903 4
0.68384427 -3.2972176 0.027153187 3
0.78962523 -3.0624764 0.090315118 4
0.58569682 0.93983269 0.1176089 6.4285712
0.602615 1.3205864 0.024285844 4
0.60988659 -30.113203 13.46955 16
0.78695071 -30.136717 13.936368 16
0.75251985 -30.26137 14.386271 17
1.1715286 -4.5545044 -0.10648994 3
1.0259904 -3.8871791 -0.23369941 2
0.86273831 -2.349426 -0.19800088 1
1.1888983 -1.2019372 -0.16627346 0
1.1596485 0.70163721 -0.15087567 0
1.0803152 1.5271351 -0.019689929 3
1.0897802 1.9278312 -0.14553688 1
0.98780823 2.1633899 -0.13134311 2
0.97575223 -2.9648478 0.1610937 4.6999998
0.94891888 1.0105649 0.041081026 4
0.99592471 -2.9657397 0.44748035 7.5999999
0.98887837 -30.165066 14.371156 17
1.4914513 -14.100299 -0.31466001 3
1.4113079 -6.7084708 -0.2579025 2
1.4322535 -4.613061 -0.1927058 2
1.2572056 -3.3619092 -0.083282851 3
1.3686391 -2.9153278 -0.10495616 2.2
1.5362744 -1.3950794 -0.17799763 1
1.4539425 -0.99377936 -0.16600013 0.25
1.2070645 0.60864067 -0.15111278 0
1.3967235 0.97944909 -0.14803107 1
1.3340538 1.4614036 -0.08285787 2
1.5772185 2.356842 -0.14376557 2
1.4723043 -2.9302924 0.18648416 5
1.2187414 1.0503186 0.028810915 3.5
1.253682 1.305603 0.0066774897 3
1.4339033 -2.9454782 0.45933458 7.5
1.5768448 6.7184219 6.7540522 27
1.2952592 6.8649335 6.4253626 26
1.4215674 6.8497143 7.1631236 27
1.4099934 6.8472152 7.3966036 28
1.7085557 -4.5958114 -0.20482774 2
1.7823445 -2.9182532 -0.058011204 2.5
1.6708503 -2.4465184 -0.20445043 1
1.7767098 -2.2479937 -0.20075241 1
1.98799 -1.2963216 -0.18020153 1
1.9355782 -0.087100737 -0.16305237 1
1.9157269 0.18476894 -0.15956815 1
1.9245805 1.8060721 -0.14604856 2
1.6958715 4.0987482 -0.090154752 3
1.7261468 4.8047204 -0.096784219 3
1.7813904 -2.9127636 0.18166193 5
1.7562097 -2.9348259 0.46206272 7.3333335
1.665827 6.8404841 7.1790924 27
1.634496 6.8352957 7.4230404 28
1.8414721 -30.295994 14.820285 17
2.1071768 -3.0741298 -0.045273282 3
2.0205278 -1.0101018 -0.17639118 1
2.0618913 0.39810613 -0.14980265 1
2.1482913 1.6708558 -0.14383188 2
2.3480985 3.1551626 -0.11950444 2
2.0681977 -2.920738 0.21424557 5
2.1692114 -2.9123924 0.50590062 7.5
2.2264047 -30.276207 14.018489 16
2.2043803 -30.30728 14.477474 17
2.4350617 -15.570464 -0.18687958 3
2.7153814 -3.7759073 -0.22421423 2
2.6093285 1.5410966 -0.10656956 2
2.5233164 1.7710761 -0.086156256 2.5
2.6320295 4.6050582 -0.097295396 3
2.4190776 5.1376443 -0.12303504 3
2.5738056 1.391821 0.094013728 4
2.8830788 -3.471436 -0.22487697 2
3.1217067 -1.1196206 -0.20606452 1
2.9923213 -0.2926755 -0.18723199 1
3.0974927 -2.9443097 0.21449402 4.5
3.1259081 -29.865335 14.643715 17
3.4142621 -2.9695108 0.15119419 4
3.5020852 6.7389274 5.4630575 22
3.490797 6.7279563 5.6900511 23
3.2770562 -29.891394 13.403072 16
3.5786023 -29.889874 14.366356 17
3.4061751 -29.86195 19.788515 21
3.6669014 -3.6055646 -0.24611191 2
3.8764229 -3.3218272 -0.24276485 2
3.9103005 -3.0674539 -0.14044547 2.5
3.6417301 -1.0804355 -0.22103293 1
3.6512892 1.482903 -0.17626753 2
3.8503191 3.1476252 -0.11833218 3
3.8029113 -2.9626484 0.14330028 4
3.7211401 6.721786 5.19135 21
3.6435919 6.7152834 5.7282577 23
3.992485 -30.21846 12.855717 15
3.7808204 -29.839193 14.653262 17
3.7078559 -29.922287 19.600229 21
4.3145361 -3.0424371 -0.1294194 3
4.2409568 -1.8587747 -0.21794368 2
4.3152533 -1.5511062 -0.21657716 2
4.3033185 -0.40829307 -0.21135478 2
4.2163501 -0.11224758 -0.20858972 2
4.0500236 1.7815804 -0.10563236 2.5
4.3330173 2.2870917 -0.17500854 2
4.1518745 -2.9714408 0.16567221 4
4.0881209 6.6737833 4.2628245 18
4.0217404 -29.829773 13.302101 16
4.2305417 -29.855843 14.397931 17
4.0967054 -29.945482 14.424928 17
4.4497151 -2.9619095 -0.14731757 2
4.7193828 0.2523914 -0.17779148 2
4.651154 6.662272 5.7984457 22
4.5586467 6.6548095 6.0886059 23
4.7106061 -30.108126 12.797343 15
4.7272139 -29.917589 13.353534 16
4.7845392 -29.879856 13.913535 16
4.8937335 0.61664867 -0.18653007 2
4.8332424 0.96697623 -0.18631846 2
4.8538203 6.6832523 4.5276346 18
4.8699026 6.648654 5.875174 22
4.8930087 -29.904898 14.476439 17
5.5345116 6.6657 4.2882695 17
5.7083888 6.6406078 4.1894288 17
5.7356653 6.5020485 4.4245243 17
5.8753738 -30.520584 14.535181 16
5.9220934 -30.539919 15.120132 17
6.2520971 -30.45418 13.635029 16
6.3366194 -30.480957 14.884953 17
6.6045761 -30.556618 14.654721 16
6.6253762 -30.582018 15.195683 17
6.9913774 -30.516197 13.700552 16
7.0320492 -30.535177 14.986511 17
7.5530438 0.69233942 0.35958856 5
7.5569615 0.7599954 0.51264036 5
7.5778913 0.81472546 0.69568199 6
7.5203743 5.9336691 9.9478683 27
7.4605289 6.0114927 9.9898186 27
7.6722345 -2.3478546 -0.23250839 2
7.8400574 -4.1349893 0.16923623 3.6666667
7.8591127 -3.8143513 0.20415288 3.75
7.9267902 -3.5345676 0.1580153 3.5
7.7152095 0.57397383 0.2454952 4
7.9544487 -4.1037951 0.58828086 5.5
7.9139943 -3.6576364 0.53385741 5
7.9697595 -3.4988568 0.57506227 5
7.6519485 0.7719571 0.64465117 6
7.7269444 0.76402414 0.86764652 7
7.7411776 -30.675894 14.483989 16
7.7393212 -30.564451 15.081109 17
8.1958179 -3.8741567 -0.045413818 3
8.0649567 -3.3604283 0.2932412 4
8.0909386 -30.620935 14.915876 17
8.6531343 -3.0828025 -0.13839488 3
8.5396032 -30.771338 13.908502 16
8.4385099 -30.571856 15.174767 17
10.383155 -3.1580648 0.052548505 3
11.561468 -4.708715 -0.19437921 3
11.479169 1.1754158 -0.18897043 3
12.631539 0.5574041 -0.09647572 3
26.363989 -29.121569 18.663511 17
26.594913 -1.380312 -0.00035383552 3
26.808464 -28.67248 16.260107 15
26.821245 -29.007233 18.721668 17
27.215809 -29.256529 15.368341 14
27.206226 -28.799175 18.800943 17
30.874264 -2.9749651 0.033953335 3
32.777943 -29.584152 20.837091 17
33.009121 -27.888226 13.958405 13
32.997822 -27.884365 16.370413 14
32.987808 -29.246681 16.744562 14
32.894981 -29.251379 18.063547 15
32.970951 -28.323887 20.495817 17
32.811371 -28.827847 21.267118 17
50.304279 3.1969953 10.13808 9
50.394218 2.7796082 11.316702 10
50.137863 2.7788417 17.473703 13
50.212746 3.898761 17.553699 13
50.303017 6.1625562 17.718615 13
50.385735 2.9662318 19.300877 14
50.434376 3.3523531 8.8802214 8
50.562943 3.9295082 15.049733 12
50.626854 4.4636354 16.425198 13
50.678032 5.6403532 16.488192 13
50.430664 3.5530853 18.912401 14
50.489628 4.6491194 19.017355 14
50.428596 4.1489468 19.309921 14
50.529655 5.3346634 19.359936 14
