# .PCD v0.7 - Point Cloud Data file format
VERSION 0.7
FIELDS x y z intensity
SIZE 4 4 4 4
TYPE F F F F
COUNT 1 1 1 1
WIDTH 482
HEIGHT 1
VIEWPOINT 0 0 0 1 0 0 0
POINTS 482
DATA ascii
-39.093025 -15.684624 9.1473732 10
-38.973278 -15.916164 17.180973 15
-38.750198 -16.288708 9.4599428 10
-38.690819 -16.373102 15.978212 14
-38.42804 -16.758461 17.148346 15
-38.753609 -16.233456 16.862892 15
-38.236675 -17.075684 15.868208 14
-37.672325 -17.939905 15.851728 14
-37.709 -17.868206 16.739552 15
-37.875813 -17.580692 17.118755 15
-37.200706 -18.67654 16.699905 15
-37.351585 -18.398245 17.458151 15
-36.813351 -19.2311 17.108652 15
-36.975883 -18.874784 18.367752 16
-36.531574 -19.670158 15.855984 14
-36.658382 -19.470776 16.647379 15
-36.614109 -19.504 17.992548 16
-36.132069 -20.259993 16.611862 15
-36.278107 -20.042231 17.112169 15
-36.148746 -20.287418 17.924868 16
-35.996258 -20.475315 15.847524 14
-35.632732 -21.059221 16.597342 15
-35.860584 -20.766232 17.293314 15
-35.64035 -21.053707 17.845322 16
-35.932652 -20.428024 18.372627 16
-35.222584 -21.670376 17.15535 15
-35.456505 -21.221184 18.404055 16
-35.096378 -21.842327 16.574944 15
-27.925156 -1.4486983 -0.1290945 3
-27.652992 -1.2674693 0.068434216 3
-27.609478 3.5813897 1.7486321 5
-27.845501 3.1307571 2.0782146 6
-27.881365 3.3902998 2.2870579 6
-27.745544 3.8088226 2.0762565 6
-22.755651 -2.3510065 -0.043701135 3
-12.210479 -11.143718 -0.08921352 3
-11.35119 6.8949871 5.0685163 14
-10.818277 6.9220142 4.8948092 14
-10.951594 -26.766386 16.916372 19
-10.725736 6.9276299 5.2420363 15
-10.45975 7.0001554 10.366695 24
-10.684229 6.74228 10.972139 25
-10.423518 6.9117355 10.840779 25
-10.740805 6.6894622 11.247999 25
-10.615672 -26.736485 16.764601 19
-10.092757 2.4576144 -0.15546554 3
-10.127513 7.0190506 10.550503 24.5
-10.204078 6.7428265 11.026806 25.5
-10.341166 6.7012739 11.236971 26
-10.002499 -26.657818 16.490793 19
-9.9600344 6.7747445 10.948899 26
-9.7970953 6.9045625 10.898303 25.5
-9.7889242 -26.657692 16.605637 19
-9.2411356 7.0682626 10.031663 25
-9.5087156 6.7639503 11.223999 26
-9.5305834 -26.651945 16.504648 19
-9.0101347 7.065011 10.304226 25
-8.9265242 6.8967619 10.896922 26
-8.8431625 -26.591713 16.321241 19
-8.1232014 7.2052941 8.9233904 24
-8.1628914 7.1666164 9.3172951 25
-7.602767 2.4100587 0.010417916 3
-7.8271794 2.3382821 0.65488803 6
-7.6638985 2.4374564 0.57027304 5.5
-7.9169064 7.1121082 4.2112126 14.666667
-7.8202987 7.2587209 8.7651262 24
-7.9892154 7.2257714 9.1327171 24
-7.7174439 7.1472144 9.4217091 25.333334
-7.8719497 7.1215925 9.7484999 26
-7.3608246 4.4038343 -0.26292184 2
-7.5859342 2.4482791 0.10245738 4
-7.3923392 7.1549687 9.7476664 26
-6.9220605 7.2278948 9.3243074 26
-6.6798391 -3.5608363 -0.26207972 2
-6.5685654 -2.4004734 0.033819858 3
-6.622735 7.3771195 8.9910288 25
-6.6737075 7.1814704 9.4899073 26
-6.5980148 7.3784027 9.2455873 26
-6.3875904 1.5876231 -0.23667523 2
-6.2293706 7.2361307 9.3989754 27
-5.6466675 1.1039972 -0.075899526 3
-5.6632996 -3.0361667 0.03075836 3
-5.6091957 -2.3621795 0.014069473 3
-5.3053951 -3.9647777 -0.15593427 3
-5.5226946 0.95208097 -0.069595464 3
-5.5790377 1.660839 -0.21075884 2
-5.468853 0.96676594 0.28775254 5
-5.4922857 0.99709833 0.55155671 6.5
-5.401535 1.1130466 0.89867765 8
-5.095046 -7.6731758 -0.19769478 3
-4.926867 -4.0667248 -0.04673316 3
-4.9724913 -3.3028479 0.026890753 3
-4.9148488 -2.3143303 0.15344179 4
-4.8140979 -2.2984135 0.42591858 6
-4.6049113 1.7624768 -0.23991384 2
-4.4328761 -2.9919729 0.13281715 4
-4.4950261 -2.4404702 0.2368792 4.5
-4.6125407 -2.3548992 0.22947957 4.5
-4.411366 -3.3459148 0.79843944 8
-4.4352336 -2.5830662 0.54055512 6.5
-4.4504685 -2.3536072 0.43487722 6
-4.341116 2.2860718 -0.12771358 3
-4.3091097 -3.7312412 0.2413795 5
-4.3248448 -3.2608478 0.21502763 4.5
-4.3442717 -2.7456417 0.29017881 5
-4.3630385 -3.7520261 0.53965789 6
-4.3613362 -3.3012087 0.57924843 6.5
-4.3902016 -2.8389428 0.49469885 6
-4.3898525 -2.5683162 0.55798501 6.5
-3.7974362 1.9809551 -0.22041228 2
-3.8446124 7.1352043 -0.071452461 3
-3.7463334 7.3373303 4.6470795 19
-3.4403009 -1.6174855 -0.2065542 2
-3.5815704 -1.3939457 -0.21062081 2
-3.4921517 -0.25816977 -0.20466456 2
-3.3251481 1.3555121 -0.011341715 3
-3.3310285 3.6110785 -0.21304776 2
-3.4084809 7.100009 -0.078474872 3
-3.4109674 7.3574529 4.6024818 18.75
-3.489831 -29.449114 23.629217 23
-2.8438616 -2.5734532 -0.19963537 2
-2.8909693 -2.3853281 -0.19609013 2
-2.9564145 -0.28993624 -0.19943422 1
-2.8835993 1.7828025 -0.060663059 2.5
-2.8114758 2.1760197 -0.072906405 2.5
-2.8367159 4.6460404 -0.11586126 3
-2.8857858 -2.6048563 0.13430665 4
-3.0254626 1.4346027 0.31266305 6.5
-2.8391902 1.7954403 0.22563538 5.3000002
-2.8203301 2.176815 0.1414886 4.3333335
-2.8222735 2.591521 0.069463991 3.6666667
-2.8577979 1.8270553 0.47091207 7
-2.8005929 2.2818031 0.50514102 7
-2.8035495 2.56563 0.53417563 8
-2.5029974 -2.513871 -0.096789584 2.5
-2.6487484 -1.9431953 -0.19216308 2
-2.7243495 -1.2783105 -0.19321734 1
-2.6919129 -0.89953411 -0.18999258 1
-2.4464524 0.35572845 -0.18534748 1
-2.4002616 0.52321225 -0.18571948 1
-2.7783728 1.1233504 -0.196035 1
-2.7242243 2.3288367 -0.17265922 2
-2.5246449 -2.5177951 0.18655796 5
-2.7966406 2.4903083 0.28168216 5.5
-2.7918031 2.1696846 0.4941442 7
-2.7918868 2.5480285 0.42470258 7
-2.0013716 -2.9317338 -0.17241515 2
-2.1666818 -2.5890269 -0.11365308 2.3333333
-2.1777096 -2.3926566 -0.17108931 2
-2.3282821 0.74136621 -0.18700382 1
-2.2151783 1.4269552 -0.18579334 1
-2.1226628 1.7101485 -0.19023481 1
-2.2998433 2.2793901 -0.18958624 2
-2.144383 4.4713273 -0.21024549 2
-2.1869311 -2.4933896 0.089587122 4.1999998
-1.7706227 -3.0922816 -0.18128388 2
-1.6355116 -1.8288327 -0.18011709 1
-1.8546629 -1.06558 -0.18088256 1
-1.8273686 -0.76238048 -0.17262208 1
-1.6356331 0.50704432 -0.18185534 0
-1.7269318 1.7943665 -0.19144182 1
-1.6932119 2.8184288 -0.19103464 2
-1.7340754 4.0930099 -0.19026732 2
-1.9727561 4.7788963 -0.051914461 3
-1.7759328 4.9522882 -0.089526191 3
-1.6644003 5.4285898 -0.11140742 3
-1.8308932 7.1576176 -0.16421035 3
-1.760137 -2.4462323 0.20953077 5.5
-1.6224821 1.7798433 0.012080238 3
-1.7449363 -2.4297419 0.60116935 9.25
-1.3536553 -4.4326391 -0.1763373 2
-1.595415 -4.3623815 -0.1814639 2
-1.2711605 -2.0612714 -0.17303206 1
-1.3713497 -1.9143538 -0.17316879 1
-1.448205 -1.2806735 -0.17208454 1
-1.3058027 -0.9912169 -0.17148246 0.33333334
-1.4814261 -0.66582114 -0.17290661 0
-1.5733671 0.63679588 -0.18014899 0
-1.368956 0.95696634 -0.17414437 0
-1.2304986 1.2566023 -0.17699786 0
-1.5905253 2.9577606 -0.19179516 2
-1.4134459 6.236084 -0.18514214 2
-1.4933133 -2.423183 0.17312831 5.2857141
-1.3393172 -2.3905993 0.27417576 6.5
-1.5641607 1.524745 0.072181493 4
-1.5761361 -2.4128084 0.44228739 8
-1.3356646 -2.3861122 0.60434687 9.666667
-1.1999868 -4.7012076 -0.17599703 2
-0.93370748 -2.5377412 -0.17070466 1
-1.1993378 -2.1631896 -0.17356275 1
-1.1446769 -1.2230389 -0.1743796 0
-1.1781863 -1.0943727 -0.17218365 0
-1.1930431 1.4124415 -0.17885789 0
-1.0203521 1.8630737 -0.18336466 1
-0.89590764 2.1359229 -0.18107319 1
-0.85037506 5.5318108 -0.17687805 2
-1.0892521 -2.402472 0.069393665 4
-1.0085959 -2.3645039 0.23383535 6
-0.86950558 1.5122116 0.057514835 4
-1.0048469 -2.3503129 0.57369089 9.916667
-0.56840259 -3.0798259 -0.16731405 2
-0.57564658 -2.1676264 -0.17131303 1
-0.48619279 1.9038013 -0.17709109 1
-0.41967496 2.000072 -0.016968803 3
-0.71304202 -2.4606247 0.01343031 3
-0.62757111 -2.3199031 0.22991343 6
-0.53974414 1.5138109 0.21254762 7.2222223
-0.5840587 1.9774668 0.024922006 4
-0.61725086 -2.3057959 0.59190881 10.8
-0.33020589 -2.9600446 -0.16614017 1.5
-0.3986392 -2.3571796 -0.16909805 1
-0.18491241 1.907777 -0.13109365 1.25
-0.12788992 2.1089752 -0.085421816 2
-0.0091686742 3.76282 -0.17083506 2
-0.023255067 7.2708192 -0.14218076 3
-0.22758907 -2.2771864 0.21080075 6
-0.37321159 1.5737268 0.23090082 7.4285712
-0.23112765 1.6807379 0.21517961 7
-0.092231728 2.0637467 0.019659569 3.5
-0.24441367 -2.2637434 0.58593518 11
-0.1174402 9.4755316 0.60310292 5.5
-0.20659016 9.4860601 0.85772026 6
-0.083187342 9.4776907 1.3869013 7.6666665
-0.075643227 9.5056601 3.4609034 14
-0.21944588 7.4933643 4.1744514 18.5
-0.20938092 9.4963121 4.0337148 15
-0.24874537 9.4934587 4.4606595 16
0.091595657 -2.936578 -0.16031808 2
0.22541223 1.9337111 -0.16802052 1
0.24227446 3.5486176 -0.16238487 2
0.3218694 7.2451148 -0.14869192 3
0.21460144 -2.5626571 0.0091960151 3
0.16191642 -2.2351816 0.23388471 6.2307692
0.19582863 9.4921656 0.32228464 4
0.18422756 -2.2078979 0.54891324 10.647058
0.26426873 9.4972725 0.48187378 5
0.18896098 9.5004015 0.99057072 6.4000001
0.21537001 9.4965391 1.3243076 7.5
0.32242683 9.5077858 1.81945 9
0.19439253 9.5005665 2.1317782 10
0.20840755 9.5016289 2.5072982 11
0.26831931 9.5284119 3.6733708 14
0.24505901 9.5075426 4.0693483 15
0.53530383 -10.155594 -0.11075686 3
0.4032236 -4.3372979 -0.14786001 2
0.62830812 -2.141449 -0.080277704 2
0.58180839 1.9356632 -0.16383107 1
0.6622808 2.2011969 -0.1413447 1.5
0.58932 3.1699843 -0.16154823 2
0.75511211 5.0605297 -0.026321128 3
0.57058161 -2.1743042 0.20831072 6
0.77010792 2.0490527 0.19240679 6
0.66967809 3.3545954 0.086226657 4
0.74176186 7.708477 0.060665198 3
0.54060173 -2.1683807 0.55911171 10.6
0.76785785 2.0498726 0.42180476 9
0.53960526 9.4945326 0.70073771 5
0.50468069 9.5246086 0.99334776 6.3333335
0.55278903 9.5169468 1.4197458 7.6666665
0.68659592 9.4484444 1.7079396 9
0.73305798 9.4301004 2.1260049 10
0.59136134 9.5281782 2.5622919 11
0.69202554 9.5213251 2.8809204 12
0.64813 9.4755135 3.5238824 14
0.48198465 9.5385056 3.6846485 14
0.47677422 9.5306435 4.0996456 15
1.153439 -2.5662866 -0.15205319 2
0.88694036 -2.1205537 -0.054848615 2.6666667
0.87036115 -1.7837257 -0.1567599 1
0.97768539 -1.5633265 -0.1558165 1
1.0693989 1.4083551 -0.1543787 1
0.97095197 2.2933946 -0.14380036 1.3333334
1.1393851 2.7739046 -0.1531601 2
0.9663958 -2.1305275 0.2292531 6.0833335
1.0799997 1.7853429 0.2571457 7
1.0466917 -2.1232677 0.53490281 9.625
1.1966598 -2.1299803 0.82297766 13
1.0039061 9.5476246 1.8122851 9
1.0083125 9.5142174 2.1266356 10
0.99906516 9.4957132 2.6846316 11.666667
1.0343442 9.564086 3.3485644 13.25
1.0166563 9.5396872 3.7133029 14
1.0973302 7.6018257 4.3651161 19
1.516606 -1.7343272 -0.14470953 1
1.2926483 -0.52270961 -0.15349111 0
1.2997466 1.2382816 -0.15138002 1
1.4655254 2.2930453 -0.0034150002 3
1.3547237 2.6939828 -0.14902674 2
1.4552965 7.3608351 -0.035428979 3
1.3388333 -2.1569366 0.23298416 5.6666665
1.4232676 1.7233149 0.18006954 5.6666665
1.3225002 -2.1175594 0.48014769 8.5
1.2966025 9.5673342 2.1741083 10
1.3837067 9.5714645 2.5666995 11
1.455806 9.5795593 2.8642733 12
1.2996182 9.5886736 3.410605 13
1.3979751 9.6046438 3.2257049 13
1.3907745 9.6137648 3.682694 14
1.2690477 7.6107702 4.0912948 18
1.4405465 7.6248546 4.4214649 19
1.7859049 -3.4111474 -0.12628949 2
1.7215101 -2.7095261 -0.13981177 2
1.6437554 -1.4800385 -0.14236435 1
1.9121969 -0.62382889 -0.15200593 1
1.877947 -0.32979479 -0.14940843 1
1.8780296 0.28115469 -0.15096676 1
1.6536245 0.62731546 -0.15036805 1
1.9543885 0.96904474 -0.14936125 1
1.8287503 1.9120597 -0.14191617 2
1.816654 2.3345199 -0.0013860769 3
1.7647811 2.523037 -0.14289248 2
1.75313 1.7560413 0.079080962 4
1.6346885 9.6086864 3.2279496 13
1.6586107 9.6267881 3.6179674 14
2.1512668 -2.559355 -0.14456306 2
2.1264918 -2.1934605 -0.1416869 2
2.1694095 -0.096213318 -0.15087165 1
2.1576278 0.13657255 -0.15174426 1
2.2039416 1.1008499 -0.13896954 2
2.1519387 1.9579427 -0.15300652 2
2.2605081 2.4929082 -0.068929039 3
2.2976747 2.8099258 -0.12390129 2
2.5805256 -2.2197092 -0.13052151 2
2.7252767 -1.8660729 -0.12813015 2
2.4449317 -0.22861697 -0.15043966 1
2.4839833 1.0346055 -0.1477717 2
2.7611539 1.640499 -0.14252271 2
2.4242935 2.4408305 -0.059983291 3
2.5362563 -28.86783 28.753428 27
3.1193018 0.44874194 -0.15615825 2
2.9397745 1.0611687 -0.14618741 2
3.1959703 2.5578005 0.18570516 4.5
3.1781735 2.377106 0.61362779 8
2.8987591 -29.002953 28.745623 27
3.2192714 -5.3909616 -0.10797042 3
3.4268103 -5.1758423 -0.10837375 3
3.4561193 -4.7315903 -0.10338318 3
3.5918565 -3.6235642 -0.095509507 3
3.3055661 -2.0198038 -0.13136438 2
3.3103371 -1.0369341 -0.15110934 2
3.3987365 -0.68615741 -0.1514944 2
3.3170094 0.16369794 -0.15517323 2
3.2820728 1.81107 0.22976653 5
3.2449169 2.1562788 0.21087284 4.8333335
3.2183595 2.5552917 0.16085757 4.3333335
3.2766507 1.8647257 0.56597829 7.8333335
3.2291532 2.1023176 0.61680907 8.25
3.2339551 2.2154081 0.82499588 9
3.2193782 2.4029601 0.9616155 10
3.5214338 -28.964712 28.724665 27
3.7134285 -6.9665613 -0.090982199 3
3.8730547 -3.56495 -0.089036785 3
3.9878411 -2.9152133 0.33161953 5
3.8413444 -29.031927 28.075468 26
3.8354518 -28.80093 28.750801 27
4.1362591 -3.0712564 -0.086788014 3
4.0036635 -2.6948664 -0.08753673 3
4.1461062 -0.60218275 -0.14624828 2
4.0760436 -0.30189916 -0.14858201 2
4.0153146 -2.8552949 0.21045423 4
4.1388345 -2.1517105 0.26905617 4.7142859
4.3272481 -1.9757504 0.26959199 5
4.0403428 -2.9886441 0.5544526 6.3333335
4.2011356 -2.1547904 0.48056722 6.3333335
4.1854134 7.9179688 4.1575069 16
4.3536983 7.9508042 9.1730423 27
4.1539774 -28.952066 28.642851 26.5
4.6555128 2.5010836 -0.11242045 3
4.6531811 -1.9320825 0.14763047 4
4.6352553 -1.8981043 0.49572921 6.3333335
4.6127334 7.7975192 7.5100932 24
4.5526257 7.764545 7.8690886 25
4.7520041 7.9543872 9.4160995 27
4.5240569 -28.988373 28.038841 26
4.4979563 -28.813168 28.820229 27
5.1159701 -1.8555415 -0.018089576 3
4.8242302 2.2977817 -0.083759964 3
5.1080899 -9.5927296 0.21485943 4
5.0612211 -2.3988559 0.021748539 3
5.1333399 -1.8618398 0.21937604 4.5
4.8269968 2.903075 0.0067628529 3
5.1450953 -1.8684709 0.53784788 6.5
5.0448632 7.9791012 9.1521196 26
5.0569515 7.8804998 9.516119 27
5.4572086 -3.2635458 -0.065587841 3
5.3072028 1.5858054 -0.11605742 3
5.2522831 -1.8667456 0.86672354 8
5.4291425 7.9366207 9.481617 26.5
5.2965918 8.0098324 9.3191233 26
5.4263577 7.8365345 9.6881132 27
5.9629865 7.8348527 10.009055 27
6.0767188 8.0579948 9.172061 25
6.0721183 7.8838129 9.5940418 26
6.0906878 7.8937716 9.79004 26.5
6.1967778 7.7755013 10.108005 27
6.5799594 -1.9796937 -0.086126179 3
6.5516739 0.29122832 -0.090512492 3
6.8268242 -1.7248447 -0.082864799 3
6.9857244 -1.4208285 -0.070403628 3
6.9410896 -0.16618387 -0.080326043 3
7.5427413 7.9630189 9.7186317 25
7.516923 7.8949084 10.098622 26
7.7020922 1.1564977 -0.083426908 3
7.7997923 8.138999 9.0355835 24
7.835145 8.0657864 9.4940453 24.5
8.1331778 2.4599748 0.095994145 4
8.141202 7.9788561 7.277379 20
8.3559828 8.0783176 8.7413139 23
8.2053213 8.1263838 9.4234028 24
8.063879 7.988359 9.7554169 25
8.0501642 7.8821912 10.104385 25
8.5370216 7.9903426 7.4591889 20
8.5666504 8.0142479 7.7636828 21
8.6147423 8.0934811 9.4558573 23.666666
8.5368376 8.0047655 9.7131958 24
8.8144426 -9.6857653 0.092352308 3
9.1108427 8.0337954 7.0528946 19
8.9895115 8.023675 7.9709592 21
8.8749228 8.2106867 9.0921049 23
9.1329327 8.0720234 9.7919035 24
9.3502722 8.0657845 9.5837717 23
9.2955513 7.9856048 10.169765 24
9.2543182 8.0437603 10.032819 24
9.8300982 -8.8167915 0.571096 4
9.6305819 8.1615391 9.4896507 23
10.730877 2.0531688 0.3654404 4
10.765181 1.8562903 0.5610894 5
10.698098 2.0790637 0.61151928 5
10.765569 1.8565181 0.93909013 6
10.647834 2.2110305 0.94078058 6
10.660252 2.4021885 0.97005725 6
10.761648 2.2967455 1.2707815 7
10.662462 2.5231059 1.2712352 7
10.574832 3.5196047 1.4542166 7.5
10.595834 3.4902217 1.9966558 9
10.636161 3.7219028 2.0029101 9
10.805007 1.8198441 0.36498418 4
11.345221 1.6509714 0.37907115 4
13.29613 -25.269215 19.559999 21
13.96499 8.2826433 5.3184433 13
13.634296 8.2015915 6.2236629 14
13.631315 -25.219463 20.105776 21
14.030877 8.2956915 5.0513973 12
14.247327 8.3102493 5.47122 13
14.000987 -25.239462 19.750914 21
14.073349 -25.167486 21.756174 23
14.686654 -25.140879 19.905554 21
14.496315 -25.119099 20.17742 21
15.167715 -24.980516 20.342882 21
15.948748 8.377656 5.4712253 12
15.662798 8.3653193 5.8749819 13
16.094202 8.406745 6.0066152 13
16.207668 8.4143391 6.5685167 14
16.573536 9.8518343 18.640533 26.333334
26.769718 1.3093079 0.60189158 4
31.574669 -24.61142 6.6865249 8
31.536903 -23.375202 6.5232458 8
31.546881 -24.757504 7.5887408 9
31.545481 -24.318401 7.7976499 9
31.537888 -23.417845 7.7513824 9
31.534752 -25.192705 9.0617743 10
31.489544 -23.777525 9.9710264 10
31.556665 -24.927361 10.18527 11
31.385786 -23.684467 12.383231 12
31.494154 -24.931934 12.664958 12
31.4902 -23.992218 12.633612 12
31.453072 -24.529491 13.040729 13
31.487034 -23.422966 12.840193 13
31.372299 -25.170986 13.485847 13
31.430172 -24.067238 13.311459 13
31.418983 -24.093473 14.955489 14
31.476816 -25.271086 15.276746 14
31.420204 -24.172173 16.181717 15
31.975664 -23.274185 8.8296318 10
31.670528 -23.140198 13.223584 13
31.775875 -23.242865 14.837494 14
32.467525 -6.4163952 1.0221109 4
35.893383 -23.410194 13.554194 12
36.121765 -23.385496 15.004511 13
36.525688 -23.06786 14.673105 13
36.477093 -23.085773 16.161892 14
36.415451 -23.325489 17.518148 15
