# .PCD v0.7 - Point Cloud Data file format
VERSION 0.7
FIELDS x y z intensity
SIZE 4 4 4 4
TYPE F F F F
COUNT 1 1 1 1
WIDTH 171
HEIGHT 1
VIEWPOINT 0 0 0 1 0 0 0
POINTS 171
DATA ascii
-6.0465469 -5.293498 1.0087255 7
-6.0034127 -5.3663497 3.492682 16
-5.8500667 1.7882199 0.30304468 5
-5.8593335 1.7502298 0.57103848 6
-5.8483262 1.7452023 0.68503529 7
-5.9230337 2.4685626 1.5761963 11
-5.8827996 1.7359644 1.6705401 11.5
-5.9383755 3.6559784 1.6564134 10.5
-5.9640388 2.9206951 1.8412894 12
-5.9631462 3.1849518 2.9383371 16
-5.8737092 3.6950536 2.8634067 15
-5.8870802 1.261488 6.7849364 29
-5.4975471 -2.7464881 0.1606283 4
-5.458694 -2.7514899 0.30661699 5
-5.451786 -2.9435544 1.4895407 10
-5.4966521 -5.5270004 2.1564639 11
-5.4886575 -2.0267854 2.4928946 16
-5.4790068 -1.9783434 3.7979105 21
-5.4599223 -2.9095573 3.9885571 21
-5.4926543 -1.9434882 3.9669261 22
-5.4587588 -2.222929 6.8808169 29.5
-5.377398 -2.546989 0.79667592 7
-5.2874327 3.8724508 1.6473136 11
-5.3786492 3.7277009 2.0113089 12
-5.2229648 0.49326667 5.9426222 29
-4.8338957 -1.5134641 -0.11806919 3
-4.8518987 0.68150729 -0.091403179 3
-4.8318419 -1.6192539 0.051892694 4
-4.8398557 -0.19907071 0.01635669 3
-4.8386116 -1.6577573 0.31538042 5.5
-4.8953581 0.73527187 0.25561857 5
-4.8604231 0.51876146 0.55855733 7
-4.8633528 0.72722393 0.45361042 6
-4.8559322 -1.6524006 0.63588625 7
-4.8824444 0.5147115 0.77756071 8
-4.8724046 -1.4968832 0.86094528 8
-4.8331504 -1.3512297 0.88598746 9
-4.9001498 0.84577954 0.92364657 9
-4.8385282 -1.5069416 1.1849341 10
-4.8771915 0.83374304 1.1266389 10
-4.8640561 -1.4691238 1.3679532 11
-4.8368011 -0.41386393 1.2302923 11
-4.8702378 0.92746055 1.2276602 11
-4.8388314 -1.4940909 1.5179389 12.5
-4.8659635 0.849612 1.4126409 12
-4.893002 0.84657407 1.6066453 13
-4.8670096 -0.25758189 2.0993447 16
-4.8634424 0.63748682 2.0615876 15.5
-4.7031932 -5.375597 0.99829006 7
-4.7429543 -5.3696704 1.015305 8
-4.5311971 1.887975 0.26080486 5
-4.4988627 1.9038078 0.61280161 7
-4.5636191 -9.5032558 1.3322953 7
-4.3967853 -5.4928699 3.1031394 16
-4.1153541 2.3153749 0.39780509 6
-4.0828347 2.4639375 0.51982576 7
-4.0457811 3.7621832 0.61603576 7
-3.8667643 -5.8397279 0.95379978 7
-3.8424695 3.7617843 0.89899319 8
-3.9440198 3.7668512 1.3145151 10.5
-3.8062325 3.7486091 1.5099835 12
-3.9734371 1.9541374 4.1717076 26
-3.8380518 1.8202113 4.6136546 29
-3.7871001 -5.735321 0.07582175 4
-3.5773447 3.9870009 0.60597223 7
-2.8387229 3.7451365 4.3687816 26
-2.8463893 3.6442819 4.5507684 27
-2.6868546 -10.181027 4.376246 15
-2.6538596 -10.083084 4.5262799 16
-2.1263869 3.7940195 1.0366448 10
-1.8184495 1.6434555 0.031237213 3.5
-1.8768502 3.8104293 0.45959806 7
-1.9142474 3.7994804 0.82360387 9
-1.9040936 3.8023913 1.132602 11
-1.922339 3.7884417 1.2336036 12
-1.6911438 -5.9762125 0.54191095 6
-1.6909909 -5.9513955 0.90842324 7.5
-1.6887052 -5.8375983 1.2249784 9
-1.637301 3.7916195 1.3005486 13
-1.6059177 3.7934754 1.5875431 14
-1.41238 1.6556851 -0.0058308761 3
-1.4767199 1.6400414 0.035177071 4
-1.4230185 3.7981648 0.22050913 5
-1.5978143 3.7964437 1.612542 15
-1.2611046 -9.3141012 3.9670813 15
-1.0499984 -6.1422129 1.5155573 10
-1.0667205 -6.0373473 1.6566163 11
-1.1715086 -9.2460165 4.0420756 16
-0.94932175 3.8014245 1.749423 16
-0.84301049 3.8080535 1.9074055 17
-0.61839259 3.8255744 0.1403698 4
-0.35560364 -2.4708099 2.8790638 29
-0.21799666 4.0146947 3.7793312 26
-0.23226893 3.7907472 3.9573033 28
-0.36185744 3.8401749 3.8783302 27
-0.090606041 -2.6184494 2.9028597 28
0.34370211 3.8401937 1.1422274 12
0.55961406 -2.5776021 -0.2034557 1
0.47921875 -2.6200726 -0.15043382 2
0.52257043 -2.8412879 0.14843918 5
0.58131468 -2.8502464 0.54490471 8.5
0.59553027 -3.0356331 1.0023097 12
0.47432885 3.8407321 1.3812107 14
0.52619696 3.8192415 4.0362005 28
0.61418015 -3.0304661 0.84130269 11
0.66869974 3.844079 1.5391872 15
0.83770275 -2.968591 1.0542171 13
0.81313574 4.0144997 3.6541905 25
0.87008327 3.9072316 3.847172 26.5
1.0784882 -2.2990556 2.7478373 28
1.0644888 -2.0395098 2.7797687 30
1.3221741 -2.4838574 -0.17813385 1
1.2058113 3.8665562 0.032131832 3
1.2652168 -2.0851505 2.6677628 28.5
1.5279405 3.8614714 1.3256018 12.5
1.5325241 3.8574259 1.6341009 15
1.4747102 -2.9036584 2.2999656 22
1.498548 4.0345263 3.7781229 25
1.5099417 3.9684134 3.8801146 26
1.5276929 3.8372006 4.0620985 27
1.7629187 2.1003258 0.18295848 5
1.6567726 3.8621428 0.89409113 10
1.6274538 3.8672154 1.0870939 11
1.613381 3.8562016 1.5460942 14
1.7699202 3.9001231 3.893086 25.5
1.8745579 2.0818877 -0.063042901 3
1.9648491 3.8693142 0.80706871 9
1.9062383 2.0606425 1.4239564 17
1.8890352 -1.5621403 2.9165642 29.5
2.1171877 3.8889871 0.24606009 5
2.0700502 -1.681023 2.8325882 28
2.3921368 3.6726825 4.3400259 27
2.5763154 3.8938305 0.82703358 8
2.5192287 -1.5974424 3.0575457 27
2.6196897 3.8927279 0.84703124 9
2.6714282 3.8623564 4.063026 25
2.759907 3.7389505 4.3210139 26
2.9416144 -2.0613258 0.66765666 9
2.9635394 -1.0062578 3.6653836 29
3.0351143 -2.1715031 0.27968293 5.5
3.4953659 -1.9447141 2.7936132 22
3.7253592 2.965745 0.3379645 5
3.7188492 -3.8498471 1.0370963 9
3.7979734 -3.7975752 1.3340803 11
3.9802365 -1.6795521 -0.072456896 3
3.9825885 -1.7156345 0.12555166 4
3.8962791 -1.6495409 0.21453625 5
3.8138919 2.8423235 0.39096379 6
3.858902 -0.49968448 3.609282 26
4.3314638 -1.968768 1.5976104 13
4.5038352 -1.5514972 1.723514 14
4.6473274 3.1076639 0.065966129 4
4.6030011 2.5946496 0.32897347 5
4.72646 2.2336981 0.54698819 6
4.6768465 2.5294139 0.71797645 7
4.700603 -1.5894941 0.8885237 9
4.6423645 -1.652684 1.1515374 10
4.7306447 3.8938046 5.5299716 25
4.8185296 2.2686803 0.080988698 4
4.8954587 2.190424 0.23899397 5
4.8554525 2.1734245 0.91999394 8
4.8714805 2.1774163 1.3709941 11
4.8870883 3.9357784 2.109971 13
5.4560761 -1.4105784 0.19449343 4
5.4132676 -1.422626 0.26949525 5
7.6593046 1.5224334 0.5781194 5
7.701663 1.471337 0.7041257 6
7.7974057 1.7006865 0.87810683 7
10.19524 0.32326388 1.764334 8
10.118608 3.9918532 10.016014 26
10.271163 0.34426802 1.2953333 7
