# .PCD v0.7 - Point Cloud Data file format
VERSION 0.7
FIELDS x y z intensity
SIZE 4 4 4 4
TYPE F F F F
COUNT 1 1 1 1
WIDTH 1392
HEIGHT 1
VIEWPOINT 0 0 0 1 0 0 0
POINTS 1392
DATA ascii
-1.8791173 -2.593859 -0.20079055 0
1.317 -2.052 -0.211 0
1.34 -1.984 -0.20999999 0
1.358 -1.8200001 -0.204 0
1.4877983 -1.8054738 -0.20770176 0
1.5616745 -1.8490527 -0.21113816 0
1.373 -1.751 -0.20200001 0
1.4418992 -1.750737 -0.20485088 0
1.539227 -1.7378354 -0.20602541 0
2.4260001 -1.702 -0.21699999 0
1.396 -1.696 -0.20200001 0
1.4481241 -1.6499413 -0.20231073 0
1.5358554 -1.6403975 -0.20235731 0
2.3359761 -1.6375427 -0.2139992 0
2.4226534 -1.6575238 -0.21622178 0
2.5255556 -1.6442178 -0.20186508 0
1.4620975 -1.5637137 -0.20114137 0
1.532002 -1.5355946 -0.20029628 0
2.1893148 -1.5325333 -0.20911048 0
2.2626452 -1.5850381 -0.21155484 0
2.4530001 -1.556 -0.215 0
2.5673413 -1.5203774 -0.20372644 0
1.475 -1.48 -0.20100001 0
2.0426533 -1.4275237 -0.20422177 0
2.115984 -1.4800285 -0.20666613 0
2.3930194 -1.4379604 -0.21239258 0
2.4745257 -1.4884669 -0.21492319 0
2.5403919 -1.4491327 -0.21139693 0
2.6431551 -1.4231652 -0.20704621 0
1.9693227 -1.3750191 -0.20177741 0
2.2399042 -1.3430803 -0.20763868 0
2.3164618 -1.3905203 -0.21001564 0
2.4536064 -1.3239498 -0.21364924 0
2.5250001 -1.364 -0.21600001 0
2.6450813 -1.3365151 -0.20335859 0
2.7047713 -1.3053788 -0.20342143 0
2.0485098 -1.2244802 -0.20169631 0
2.1633463 -1.2956402 -0.20526172 0
2.2566047 -1.2134367 -0.20716259 0
2.3457632 -1.2309043 -0.21046788 0
2.4367611 -1.2444376 -0.2129508 0
2.5303502 -1.2724271 -0.21493077 0
2.6243856 -1.2641894 -0.20921071 0
2.0990033 -1.1250262 -0.20197327 0
2.1863225 -1.1464282 -0.20610091 0
2.275481 -1.1638958 -0.20940618 0
1.9529204 -1.0028125 -0.20231692 0
2.0335605 -1.0430834 -0.20408924 0
2.1142006 -1.0833542 -0.20586155 0
1.8722802 -0.9625417 -0.20054463 0
2.5792446 -0.82013977 -0.21341258 0
2.6040001 -0.82800001 -0.214 0
2.2351468 -0.71088386 -0.20524755 0
2.3211713 -0.73819786 -0.2072888 0
2.4502077 -0.77916884 -0.21035069 0
2.063098 -0.6562559 -0.20116504 0
2.1491222 -0.68356991 -0.2032063 0
2.3258095 -0.56191742 -0.20037989 0
2.446018 -0.59101605 -0.20165119 0
0.32297283 -3.3653769 -0.1037299 0
0.47066891 -3.3345611 -0.10701403 0
0.3506515 -3.266439 -0.11046942 0
0.43375862 -3.2480235 -0.10750751 0
0.29648641 -3.1061883 -0.13286495 0
0.34092122 -3.1804512 -0.12057553 0
0.4216069 -3.1612186 -0.11760601 0
0.52800047 -3.121623 -0.1107928 0
0.28765762 -3.0197923 -0.14257663 0
0.37798566 -3.0803928 -0.12695017 0
0.42883444 -3.0707805 -0.13000701 0
0.55189574 -3.0233202 -0.11107629 0
0.2788288 -2.9333961 -0.15228832 0
0.36224282 -2.9519465 -0.14422509 0
0.45419493 -2.9665828 -0.13553387 0
0.57502735 -2.9227819 -0.10837198 0
0.27000001 -2.8469999 -0.162 0
0.35999998 -2.8180001 -0.15866667 0
0.43859747 -2.8797913 -0.14501694 0
0.55701369 -2.8348908 -0.11668599 0
0.87892359 -2.8004169 -0.11900807 0
0.90738535 -2.8811257 -0.10551211 0
0.45899999 -2.779 -0.156 0
0.53899997 -2.747 -0.125 0
0.85046178 -2.7197084 -0.13250403 0
1.0698247 -2.7185762 -0.11039773 0
0.82200003 -2.6389999 -0.146 0
1.0391624 -2.6410379 -0.12469886 0
-2.6520107 -2.5826499 -0.19964893 0
-2.5861342 -2.5206938 -0.19869281 0
-1.8252645 -2.5210493 -0.1996588 0
0.99800003 -2.5669999 -0.142 0
1.0190001 -2.5599999 -0.13600001 0
-2.5202579 -2.4587374 -0.1977367 0
-2.1670265 -2.453815 -0.19877325 0
-1.7714115 -2.4482393 -0.19852704 0
-2.4543817 -2.3967812 -0.19678058 0
-2.3885055 -2.334825 -0.19582446 0
-1.7175586 -2.3754296 -0.19739528 0
-1.6637057 -2.3026197 -0.19626352 0
-1.461 -2.358 -0.198 0
1.4843922 -2.3421466 -0.15520258 0
1.5801631 -2.3075786 -0.14400098 0
1.6470001 -2.319 -0.1485 0
2.9744854 -2.3070824 -0.1014646 0
-2.322629 -2.2728686 -0.19486836 0
-2.2567527 -2.2109125 -0.19391224 0
-1.6098529 -2.22981 -0.19513176 0
-1.4169824 -2.2836256 -0.19637373 0
-1.3717346 -2.2071724 -0.19470201 0
1.4330883 -2.2532198 -0.17230389 0
1.5321305 -2.2428627 -0.15720078 0
1.6495683 -2.2398932 -0.16471685 0
1.772872 -2.2410111 -0.14062876 0
1.918 -2.2079999 -0.139 0
2.9049044 -2.2507353 -0.1062205 0
3.2753029 -2.2237344 -0.10113859 0
-2.1908762 -2.1489561 -0.19295612 0
-1.556 -2.1570001 -0.19400001 0
-1.3264868 -2.1307192 -0.1930303 0
1.3750441 -2.1526098 -0.19165194 0
1.4600816 -2.1457891 -0.17700049 0
1.6009736 -2.1699111 -0.17126404 0
1.7010663 -2.153019 -0.1516493 0
1.853117 -2.1347203 -0.15273993 0
1.9516264 -2.1776884 -0.14114343 0
2.1188192 -2.1248183 -0.14001924 0
2.6140847 -2.1147835 -0.10128321 0
2.753813 -2.1315756 -0.11262969 0
2.8353236 -2.1943882 -0.1109764 0
3.0624275 -2.1364655 -0.10814004 0
3.1612382 -2.1522198 -0.11203746 0
-2.125 -2.0869999 -0.192 0
-1.281239 -2.054266 -0.19135858 0
1.3880327 -2.0487156 -0.19680019 0
1.5492913 -2.0496292 -0.1768675 0
1.6463885 -2.0860157 -0.16004108 0
1.7705818 -2.0415044 -0.17021795 0
1.8419566 -2.0252862 -0.16067311 0
1.9003478 -2.0887432 -0.15200774 0
2.0561233 -2.0617883 -0.14670089 0
2.398 -2.0350001 -0.121 0
2.4715948 -2.0475004 -0.11796447 0
2.5575869 -2.0498619 -0.12423363 0
2.6509848 -2.0510671 -0.12606922 0
2.7128682 -2.0541267 -0.12378655 0
2.8643818 -2.0243924 -0.11293069 0
2.9615407 -2.0455031 -0.12431447 0
3.0426395 -2.0553277 -0.1179445 0
3.1124744 -2.0779333 -0.10493688 0
3.3896234 -2.0255156 -0.11181962 0
3.465548 -2.0730188 -0.10338355 0
-1.2359912 -1.9778128 -0.18968686 0
-1.1907433 -1.9013596 -0.18801515 0
1.4551895 -1.9599645 -0.19090562 0
1.5370331 -1.9520094 -0.17682466 0
1.6880468 -1.9482882 -0.18769597 0
1.7835653 -1.9618288 -0.16933849 0
1.9623501 -1.9675155 -0.15669447 0
2.4990001 -1.987 -0.147 0
2.563 -1.959 -0.139 0
2.7379103 -1.9436889 -0.12209615 0
2.8520372 -1.9525845 -0.13583218 0
2.9637372 -1.9819667 -0.12096844 0
3.2377739 -1.9305093 -0.12869178 0
3.3136988 -1.9780126 -0.1202557 0
-1.1454955 -1.8249065 -0.18634343 0
1.438876 -1.8643306 -0.19209249 0
1.6499031 -1.8605292 -0.19300862 0
1.725174 -1.8983717 -0.17800386 0
1.8373194 -1.8418183 -0.17001925 0
2.7388952 -1.851451 -0.15286094 0
2.8341045 -1.8626167 -0.14135627 0
2.9786382 -1.8271823 -0.13221633 0
3.0859246 -1.8355031 -0.14556393 0
3.1618493 -1.8830062 -0.13712785 0
3.455826 -1.849858 -0.11829943 0
3.5408146 -1.8141373 -0.12298565 0
3.6207528 -1.8525164 -0.11498086 0
3.7006912 -1.8908955 -0.10697608 0
-1.1002477 -1.7484533 -0.18467171 0
1.6083913 -1.7714572 -0.19533461 0
1.7435462 -1.7475456 -0.18001284 0
2.5697079 -1.7170784 -0.18812951 0
2.6462035 -1.7281179 -0.17993796 0
2.7517083 -1.7800131 -0.15924679 0
2.8355179 -1.7412431 -0.15495512 0
2.941184 -1.7599791 -0.15723667 0
3.0256748 -1.7750025 -0.15349929 0
3.1740637 -1.7161938 -0.15450577 0
3.2793322 -1.7247654 -0.14982849 0
3.3631337 -1.7617204 -0.13865459 0
3.4608765 -1.7757583 -0.13099043 0
3.5461879 -1.7221849 -0.1294809 0
3.6237819 -1.7547773 -0.11722136 0
3.701376 -1.7873698 -0.10496181 0
-1.0549999 -1.6720001 -0.183 0
1.6497731 -1.6532729 -0.19000642 0
2.5886245 -1.6532284 -0.18806094 0
2.6583192 -1.6348412 -0.18310818 0
2.7586741 -1.6536365 -0.17915142 0
2.8482108 -1.6599 -0.17367539 0
2.9757404 -1.6442208 -0.16746436 0
3.0700085 -1.6405207 -0.16393757 0
3.1587105 -1.6488094 -0.16176289 0
3.2460797 -1.661953 -0.1580998 0
3.3394763 -1.668149 -0.15451784 0
3.4685941 -1.6895924 -0.14174046 0
3.52 -1.618 -0.161 0
1.556 -1.559 -0.2 0
2.552 -1.571 -0.2 0
2.6440086 -1.5476333 -0.19652219 0
2.7332993 -1.5586265 -0.18670195 0
2.832809 -1.5399103 -0.18449512 0
2.9170034 -1.5455246 -0.17783624 0
3.0288124 -1.5498236 -0.17274958 0
3.1449013 -1.5532176 -0.17379989 0
3.2674716 -1.5937043 -0.16289639 0
3.3480029 -1.5417316 -0.16866615 0
3.4720623 -1.5967431 -0.16313665 0
4.3651843 -1.5040511 -0.12129299 0
4.4476213 -1.5296614 -0.10855158 0
2.5969999 -1.436 -0.2 0
2.6794696 -1.4397049 -0.19313309 0
2.7643583 -1.4471103 -0.19337417 0
2.8535469 -1.4561175 -0.18616767 0
2.9473209 -1.4493241 -0.18584046 0
3.0424228 -1.4417539 -0.18091629 0
3.1412375 -1.4500458 -0.17788199 0
3.2239437 -1.4867202 -0.17419565 0
4.0354371 -1.4016103 -0.1722586 0
4.1178737 -1.4272205 -0.1595172 0
4.241529 -1.4656358 -0.14040509 0
-2.1199999 -1.332 -0.183 0
1.895992 -1.3225143 -0.19933307 0
2.6070001 -1.363 -0.2 0
2.7647307 -1.3587815 -0.19603424 0
2.8563583 -1.3437096 -0.19113706 0
2.9758248 -1.3766973 -0.18525466 0
3.9530001 -1.376 -0.185 0
-2.0695305 -1.2995954 -0.18250337 0
-1.9551508 -1.226156 -0.18137787 0
1.7493306 -1.2175047 -0.19444436 0
1.8226614 -1.2700095 -0.19688872 0
2.645 -1.23 -0.2 0
2.7277062 -1.2666743 -0.19631366 0
-1.8407714 -1.1527168 -0.18025236 0
-1.7645183 -1.1037571 -0.17950203 0
1.676 -1.165 -0.192 0
1.8571155 -1.1058801 -0.1957539 0
1.9336731 -1.1533202 -0.19813086 0
2.5509765 -1.1144524 -0.19720478 0
2.632 -1.149 -0.198 0
4.1758852 -1.1177838 -0.12984012 0
4.2622623 -1.1397406 -0.12020815 0
4.3486395 -1.1616974 -0.11057618 0
4.4350166 -1.1836541 -0.1009442 0
-1.6501387 -1.0303179 -0.17837653 0
1.7422788 -1.0347201 -0.19218847 0
1.9414021 -1.0366157 -0.19678396 0
2.0202026 -1.080821 -0.19937862 0
2.3419824 -1.0253394 -0.19515359 0
2.4673789 -1.0788071 -0.19638431 0
3.744 -1.008 -0.178 0
3.8303771 -1.0299568 -0.16836803 0
3.916754 -1.0519135 -0.15873605 0
4.04632 -1.0848486 -0.14428809 0
-1.5357592 -0.9568786 -0.17725101 0
-1.4595062 -0.90791905 -0.17650068 0
1.760147 -0.92482537 -0.19312231 0
1.8626014 -0.99241048 -0.19418931 0
2.0493906 -0.900581 -0.19228192 0
2.1329882 -0.93622625 -0.19310239 0
2.2165859 -0.9718715 -0.19392286 0
-2.026 -0.83899999 -0.17299999 0
-1.9678226 -0.81790268 -0.17683586 0
-1.8637711 -0.85625136 -0.17385325 0
-1.7676076 -0.81300235 -0.17303413 0
-1.3451266 -0.83447981 -0.17537516 0
1.711 -0.88200003 -0.197 0
1.8821954 -0.82929051 -0.19064096 0
1.965793 -0.86493576 -0.19146143 0
-2.0090001 -0.77600002 -0.17200001 0
-1.9635031 -0.74862742 -0.17412779 0
-1.8531469 -0.74889565 -0.18126804 0
-1.7970001 -0.70200002 -0.18000001 0
-1.6492057 -0.7597518 -0.17202559 0
-1.5308038 -0.70650125 -0.17101707 0
1.7567989 -0.77582264 -0.18941024 0
-1.9506207 -0.66561913 -0.17236559 0
-1.8371078 -0.64048219 -0.17838709 0
-1.4518692 -0.67100084 -0.17034471 0
-1.3729346 -0.63550043 -0.16967236 0
1.8910489 -0.60162795 -0.19708252 0
1.9770734 -0.62894195 -0.19912377 0
-1.9515539 -0.54609478 -0.17406011 0
-1.848 -0.523 -0.183 0
-1.294 -0.60000002 -0.169 0
1.719 -0.54699999 -0.193 0
1.8050244 -0.574314 -0.19504127 0
2.1513572 -0.51968807 -0.19853492 0
2.2385836 -0.54080278 -0.19945741 0
2.3234057 -0.50433755 -0.19873315 0
2.4329157 -0.52818984 -0.19978741 0
-3.0706286 -0.47566885 -0.16903976 0
-2.937376 -0.46388963 -0.17934658 0
-2.8380909 -0.44928181 -0.18179989 0
-2.7484818 -0.43465364 -0.18271989 0
-2.6588726 -0.42002547 -0.1836399 0
-2.5692637 -0.40539727 -0.18455991 0
-1.9334846 -0.43992269 -0.16707216 0
-1.8504949 -0.4521409 -0.17369072 0
-1.7521832 -0.47681242 -0.16615407 0
-1.6296787 -0.44359085 -0.16638479 0
-1.548009 -0.42144313 -0.16653858 0
1.7152262 -0.41411468 -0.19392249 0
1.8594694 -0.43356666 -0.19504578 0
1.9753039 -0.45281374 -0.19602826 0
2.0626297 -0.47289217 -0.19691032 0
2.1443615 -0.43898982 -0.19617119 0
2.2508476 -0.44111025 -0.1923966 0
2.3635418 -0.42525318 -0.19201322 0
2.4201453 -0.4435828 -0.19345301 0
2.5190001 -0.45100001 -0.184 0
-2.9567063 -0.31277433 -0.16629085 0
-2.8546846 -0.31443849 -0.18014197 0
-2.7382483 -0.30078393 -0.18138328 0
-2.4796546 -0.39076909 -0.18547992 0
-2.3452411 -0.36882681 -0.18685994 0
-2.2108274 -0.34688455 -0.18823996 0
-2.1212182 -0.33225638 -0.18915997 0
-2.0316091 -0.31762818 -0.19007999 0
-1.942 -0.303 -0.191 0
-1.4663393 -0.39929542 -0.16669239 0
-1.3438349 -0.36607385 -0.16692309 0
1.6226667 -0.35133335 -0.19233334 0
1.7529018 -0.34870332 -0.19087586 0
1.8664103 -0.33431411 -0.18957467 0
1.9541188 -0.35042182 -0.19001158 0
2.0544286 -0.35178643 -0.18992537 0
2.1425731 -0.3515512 -0.18906367 0
2.2301767 -0.36558905 -0.18980806 0
2.3447869 -0.34485087 -0.18982622 0
2.4300001 -0.31900001 -0.178 0
-2.648443 -0.29025239 -0.1823407 0
-2.5586376 -0.27972084 -0.18329811 0
-2.4688323 -0.2691893 -0.18425553 0
-2.3790269 -0.25865775 -0.18521294 0
-2.2892215 -0.24812619 -0.18617035 0
-2.1545134 -0.23232886 -0.18760645 0
-2.0198054 -0.21653154 -0.18904258 0
-1.9299999 -0.206 -0.19 0
1.6561234 -0.26243502 -0.18491077 0
1.7565439 -0.24859819 -0.18567599 0
1.8344752 -0.2433546 -0.18402469 0
1.9427265 -0.23914219 -0.18141954 0
2.0489378 -0.25780109 -0.18319604 0
2.1513596 -0.25595677 -0.18189307 0
2.2518132 -0.26908767 -0.18385178 0
2.3358021 -0.26580721 -0.18359318 0
2.4159999 -0.25999999 -0.177 0
-2.9165258 -0.17111455 -0.16041236 0
-2.8523221 -0.13199081 -0.1676522 0
-2.7609999 -0.108 -0.175 0
1.582 -0.14750001 -0.18799999 0
1.6522335 -0.15308787 -0.18327963 0
1.7469982 -0.13537863 -0.17989998 0
1.8468437 -0.14541045 -0.17902954 0
1.9585527 -0.13767122 -0.17957224 0
2.0661609 -0.13778622 -0.18237919 0
2.1676211 -0.14284903 -0.18101877 0
2.2662575 -0.14675219 -0.18287574 0
2.3508768 -0.16859606 -0.17410836 0
-2.8659999 -0.035 -0.15899999 0
-2.7830517 -0.032907464 -0.15966961 0
-2.6468439 -0.029471342 -0.16076916 0
-2.5106363 -0.026035223 -0.16186872 0
-2.419831 -0.023744475 -0.16260177 0
-2.3290257 -0.021453731 -0.1633348 0
-2.2382207 -0.019162983 -0.16406783 0
-2.1474156 -0.016872238 -0.16480088 0
-2.0566103 -0.014581492 -0.16553392 0
-1.9658052 -0.012290746 -0.16626696 0
-1.8688346 -0.010293591 -0.16758719 0
1.567 -0.07 -0.18700001 0
1.6455078 -0.049093541 -0.18119958 0
1.7465498 -0.057892181 -0.18137372 0
1.8590169 -0.045563053 -0.18297344 0
1.9465928 -0.048053935 -0.18269236 0
2.034169 -0.050544828 -0.1824113 0
2.1464467 -0.049896847 -0.1809473 0
2.2515938 -0.042331707 -0.18186709 0
2.3410933 -0.050413616 -0.17534187 0
2.447 -0.059999999 -0.184 0
-2.8295028 0.029870432 -0.15725914 0
-2.7522514 0.023185216 -0.17062956 0
-1.8497025 0.055163626 -0.16707177 0
1.56275 0.043250002 -0.18075 0
1.6490641 0.045836471 -0.18192324 0
1.7463821 0.055147216 -0.18220942 0
1.841218 0.051764049 -0.18169464 0
1.9472351 0.067260616 -0.1798878 0
2.0450776 0.072903737 -0.18006007 0
2.1512401 0.06919875 -0.18071078 0
2.2496855 0.074484274 -0.17555788 0
2.3726339 0.07741449 -0.16927464 0
2.4622676 0.077828981 -0.16854928 0
2.5519013 0.078243472 -0.16782393 0
2.6415353 0.07865797 -0.16709857 0
2.7311692 0.079072461 -0.16637319 0
2.8208029 0.079486951 -0.16564783 0
2.9104366 0.079901442 -0.16492248 0
3.0448875 0.080523178 -0.16383444 0
3.148 0.081 -0.163 0
-2.747617 0.15465367 -0.15941285 0
-2.654 0.146 -0.17200001 0
-1.822655 0.14749843 -0.16643295 0
-1.796 0.116 -0.16500001 0
1.5650001 0.13949999 -0.176 0
1.6435174 0.14017026 -0.17947493 0
1.7288475 0.14827149 -0.17909974 0
1.8387876 0.1367753 -0.17859113 0
1.9433236 0.1419934 -0.17708279 0
2.0480497 0.14631878 -0.17783593 0
2.163547 0.15320072 -0.17947663 0
2.2346365 0.16094318 -0.17090623 0
2.3539052 0.12759756 -0.17806773 0
2.4590077 0.16657813 -0.16965286 0
2.5549517 0.12031895 -0.17683265 0
2.6424277 0.12597843 -0.17424898 0
2.7299035 0.1316379 -0.1716653 0
2.8173792 0.13729739 -0.16908163 0
2.9485931 0.14578661 -0.1652061 0
3.0854034 0.1546379 -0.1611653 0
-2.7328606 0.23889697 -0.15621214 0
-2.6616292 0.24221213 -0.16395378 0
-2.5869999 0.26499999 -0.17 0
-1.8169863 0.25494528 -0.16709588 0
-1.7934999 0.2705 -0.167 0
1.4849999 0.25749999 -0.18349999 0
1.5595174 0.24336994 -0.17828012 0
1.6391071 0.25845975 -0.18097085 0
1.7480959 0.25458261 -0.17826387 0
1.8568733 0.23501846 -0.17674315 0
1.9567963 0.25609052 -0.17486124 0
2.0552812 0.24910055 -0.1752913 0
2.1456218 0.2682862 -0.17486028 0
2.2418313 0.23233202 -0.17885962 0
2.3311622 0.24266404 -0.17721924 0
2.4448795 0.26768696 -0.17393172 0
2.5569177 0.2148236 -0.17033669 0
2.6463971 0.2212795 -0.16942087 0
2.7561657 0.23624951 -0.17047648 0
2.8704805 0.2381397 -0.16711918 0
2.95996 0.2445956 -0.16620335 0
3.0482466 0.25098407 -0.1652995 0
3.125 0.28200001 -0.171 0
-2.6420681 0.35819426 -0.15497288 0
-2.5599883 0.36475015 -0.16676907 0
-2.3158069 0.39652592 -0.15772888 0
-2.2280056 0.37977159 -0.1591074 0
-2.1402044 0.36301726 -0.16048591 0
-2.0524035 0.34626296 -0.16186443 0
-1.9646022 0.32950863 -0.16324295 0
-1.8768011 0.31275433 -0.16462147 0
-1.7792493 0.38591576 -0.16001205 0
-1.693 0.36500001 -0.15899999 0
1.4679999 0.35466668 -0.175 0
1.5586265 0.34506807 -0.17894647 0
1.6527303 0.35089239 -0.17721753 0
1.7442664 0.35420117 -0.17632407 0
1.8515018 0.35196215 -0.17431414 0
1.9569532 0.35206604 -0.17290305 0
2.0495009 0.34482598 -0.17512558 0
2.1392517 0.34630388 -0.16574773 0
2.2318556 0.33843687 -0.17308857 0
2.3375757 0.34725654 -0.17312013 0
2.4567432 0.35518551 -0.16943091 0
2.5577061 0.34817258 -0.16847473 0
2.6463664 0.3605319 -0.1671164 0
2.7546928 0.35872161 -0.16853431 0
2.843792 0.37132472 -0.16689634 0
2.9533582 0.36345246 -0.15846705 0
-2.6402118 0.46664616 -0.15390231 0
-2.5710139 0.44962901 -0.15797339 0
-2.4625041 0.44282869 -0.16133055 0
-2.2104962 0.49049449 -0.16507231 0
-2.1242468 0.46957874 -0.16406026 0
-2.0379975 0.448663 -0.16304821 0
-1.951748 0.42774725 -0.16203615 0
-1.8383136 0.44715962 -0.15965232 0
-1.717044 0.47903693 -0.16058275 0
-1.632 0.4535 -0.161 0
1.382 0.49000001 -0.17900001 0
1.4496779 0.44367647 -0.17620541 0
1.5495696 0.44764155 -0.1752272 0
1.6419353 0.42617539 -0.17583448 0
1.7583907 0.46630511 -0.17387663 0
1.8540158 0.45591602 -0.17310251 0
1.948337 0.438335 -0.17182194 0
2.0524964 0.44579712 -0.17244935 0
2.1302354 0.44439077 -0.16832064 0
2.2392631 0.45912522 -0.16817567 0
2.3614197 0.4523322 -0.17071496 0
2.4647284 0.45590815 -0.16830182 0
2.5476232 0.45465654 -0.17042805 0
2.6552505 0.44820783 -0.16592799 0
2.7626779 0.44081458 -0.16096795 0
2.8494759 0.45529437 -0.15944585 0
2.9340324 0.42047533 -0.16479133 0
3.0509253 0.42369485 -0.1703237 0
-2.654119 0.54027259 -0.15219967 0
-2.5531192 0.51477265 -0.15919967 0
-2.46 0.551 -0.168 0
-2.3829949 0.53232598 -0.16709642 0
-2.2967455 0.51141024 -0.16608436 0
-2.1513853 0.58646327 -0.16284162 0
-2.0663211 0.56171936 -0.16170135 0
-1.972176 0.55564761 -0.15933105 0
-1.876668 0.55285245 -0.1595524 0
-1.7826037 0.54577518 -0.16007878 0
-1.6528561 0.55712473 -0.15619172 0
-1.5733334 0.56833333 -0.15533333 0
1.383 0.54949999 -0.16850001 0
1.4747376 0.54419655 -0.17511314 0
1.5469122 0.55472767 -0.17538084 0
1.6438607 0.53148335 -0.17385037 0
1.7575403 0.55224389 -0.17208683 0
1.8492155 0.54838377 -0.17099512 0
1.9417076 0.54217827 -0.16971974 0
2.0490813 0.53801322 -0.1668234 0
2.1454158 0.55195028 -0.17022972 0
2.2642961 0.54893577 -0.1693752 0
2.3673537 0.56211966 -0.16535991 0
2.4572268 0.54638314 -0.16955045 0
2.5648553 0.5446896 -0.16398783 0
2.6528654 0.56320405 -0.16318832 0
2.7462139 0.54132867 -0.16737796 0
2.8608296 0.556638 -0.16141631 0
2.9328308 0.52187538 -0.16157073 0
3.0280001 0.57099998 -0.168 0
-2.5566654 0.64660108 -0.15244332 0
-2.4360828 0.6095506 -0.16322166 0
-2.3349259 0.66714758 -0.16133106 0
-2.2273078 0.6322583 -0.15807933 0
-2.1198111 0.65532565 -0.15823635 0
-2.0271788 0.65074629 -0.15694563 0
-1.9325671 0.6469357 -0.15698424 0
-1.8442004 0.66179252 -0.15682194 0
-1.7345172 0.64313775 -0.15579674 0
-1.635384 0.65764588 -0.1547737 0
-1.5287499 0.66400003 -0.15474999 0
1.397 0.69700003 -0.175 0
1.4425817 0.64128679 -0.17447083 0
1.526105 0.65884382 -0.17181413 0
1.6278855 0.63601971 -0.17108673 0
1.7540789 0.64373779 -0.16949441 0
1.8632393 0.64999563 -0.16887939 0
1.9432061 0.64300311 -0.17079847 0
2.0431089 0.64128178 -0.1649482 0
2.1470034 0.64639801 -0.16911693 0
2.2454154 0.66458428 -0.16534147 0
2.3450115 0.64653045 -0.16795488 0
2.4437673 0.64876163 -0.16281001 0
2.5518508 0.63782394 -0.16480127 0
2.6517887 0.66381502 -0.16561046 0
2.7458122 0.65205282 -0.1620695 0
2.8290641 0.63909167 -0.164946 0
2.9461918 0.65804839 -0.1633448 0
3.0829999 0.69300002 -0.15800001 0
-2.5172589 0.76573479 -0.14905851 0
-2.4536786 0.74297971 -0.15407801 0
-2.3656156 0.73777884 -0.15736584 0
-2.257798 0.77133083 -0.16037823 0
-2.1736565 0.74283117 -0.15978928 0
-2.078826 0.74436349 -0.15612592 0
-1.9590657 0.7383399 -0.1570641 0
-1.8704991 0.77895236 -0.1557762 0
-1.7570142 0.75127238 -0.15470168 0
-1.6732455 0.76013231 -0.15532947 0
-1.5771207 0.74869841 -0.15457515 0
-1.46875 0.75100005 -0.154 0
1.265 0.7295 -0.164 0
1.3741796 0.73871469 -0.16956851 0
1.4559423 0.76446038 -0.16987514 0
1.5449791 0.7410484 -0.17323369 0
1.6554323 0.73333597 -0.17067042 0
1.7608031 0.75608468 -0.1676378 0
1.8507285 0.7632181 -0.16523798 0
1.9647322 0.73472339 -0.16215186 0
2.0601542 0.75523812 -0.16341175 0
2.1640489 0.75557613 -0.16323262 0
2.2468336 0.76402843 -0.15828231 0
2.3579783 0.74110806 -0.16520759 0
2.4537232 0.75610381 -0.16414832 0
2.5494964 0.73466635 -0.16207068 0
2.6499269 0.76506877 -0.16281979 0
2.7528493 0.73637915 -0.16403387 0
2.8348038 0.74359089 -0.15987746 0
2.9464998 0.74250001 -0.1655 0
-2.5050001 0.89399999 -0.15099999 0
-2.4494708 0.84136772 -0.15220581 0
-2.3336294 0.84377539 -0.15807925 0
-2.236841 0.86325788 -0.1603471 0
-2.1386662 0.83252591 -0.15758058 0
-2.0337486 0.84692848 -0.15641429 0
-1.9408262 0.86929995 -0.15396824 0
-1.8286594 0.85124522 -0.15432394 0
-1.7356631 0.84889072 -0.15520333 0
-1.6485771 0.85357386 -0.15410943 0
-1.5407053 0.83890992 -0.15389688 0
-1.4512765 0.848149 -0.1544226 0
-1.357 0.852 -0.15149999 0
1.163 0.87300003 -0.161 0
1.2524072 0.85623485 -0.16447282 0
1.3518203 0.83647043 -0.16637258 0
1.462082 0.89527684 -0.16081607 0
1.5416473 0.83799124 -0.16565871 0
1.6521897 0.84991449 -0.16861489 0
1.7517523 0.84822512 -0.16670077 0
1.8590521 0.88064575 -0.16684727 0
1.9355975 0.82889766 -0.16476293 0
2.0516312 0.85618967 -0.16173798 0
2.1523457 0.85430282 -0.16075799 0
2.2636905 0.84760189 -0.16237736 0
2.3494194 0.85553885 -0.15784959 0
2.4468524 0.88399053 -0.16013977 0
2.5421951 0.81684983 -0.16298874 0
2.6463621 0.85539562 -0.16019839 0
2.7508121 0.84400666 -0.16053098 0
2.8466887 0.86485165 -0.16514648 0
2.9189999 0.84899998 -0.16500001 0
-2.4460001 0.93800002 -0.149 0
-2.3637407 0.94179147 -0.15191437 0
-2.2465487 0.94073415 -0.1595474 0
-2.1597693 0.96532786 -0.15732135 0
-2.068404 0.96367913 -0.15406691 0
-1.9703759 0.95510101 -0.15426083 0
-1.8611828 0.95414233 -0.15385191 0
-1.7586502 0.94591916 -0.15550745 0
-1.6491005 0.95083243 -0.15489274 0
-1.5478582 0.94459623 -0.15461816 0
-1.4437768 0.95298082 -0.15311304 0
-1.3646333 0.95199537 -0.15164085 0
-1.2815001 0.96100003 -0.15099999 0
1.08 0.986 -0.16 0
1.2555925 0.95064116 -0.16341317 0
1.3446617 0.9244355 -0.16533548 0
1.4276075 0.95341569 -0.16675733 0
1.5300198 0.95025849 -0.16505542 0
1.6317998 0.94913745 -0.16002265 0
1.7418618 0.94724822 -0.16493222 0
1.8370392 0.9561311 -0.16163179 0
1.9368491 0.94538808 -0.16085993 0
2.017693 0.96623522 -0.15578061 0
2.1484971 0.94806033 -0.15908472 0
2.2555721 0.95020729 -0.16050524 0
2.3524373 0.94722468 -0.16095681 0
2.4386296 0.95486403 -0.15665205 0
2.5488057 0.9463352 -0.15692858 0
2.6390531 0.95603549 -0.15748215 0
2.8870001 0.91600001 -0.164 0
-2.6365724 1.0734876 -0.11998447 0
-2.5559242 1.0497569 -0.13576834 0
-2.4535143 1.0274975 -0.14653023 0
-2.3419228 1.0429769 -0.14942452 0
-2.2378566 1.0370321 -0.14608422 0
-2.1628749 1.0520141 -0.15350719 0
-2.0623469 1.0662591 -0.15765573 0
-1.9354085 1.0404339 -0.15631089 0
-1.8467321 1.0675055 -0.15429717 0
-1.7488393 1.0558491 -0.15260418 0
-1.6446096 1.0457788 -0.15058936 0
-1.5466875 1.0544885 -0.14590384 0
-1.4474727 1.0468681 -0.14600845 0
-1.3585845 1.0445186 -0.15352562 0
-1.2495521 1.0465208 -0.14915769 0
-1.174 1.0680001 -0.149 0
1.045 1.05 -0.16 0
1.1605386 1.0420438 -0.16479687 0
1.2536099 1.0646657 -0.168 0
1.3453649 1.0278325 -0.1660696 0
1.4667431 1.0409228 -0.16260953 0
1.5664744 1.0485964 -0.16604179 0
1.6725793 1.041289 -0.1640017 0
1.7522386 1.0665258 -0.1624091 0
1.8498075 1.0510993 -0.16290392 0
1.9651146 1.0553504 -0.15652092 0
2.0562897 1.0471697 -0.1596939 0
2.1728864 1.0429704 -0.15256125 0
2.2646942 1.054999 -0.15098576 0
2.3458793 1.0349704 -0.15474054 0
2.4507601 1.0571635 -0.15740781 0
2.5185521 1.0615984 -0.15810692 0
2.6481435 1.060082 -0.16162661 0
2.7578957 1.0237455 -0.16396034 0
2.839 1.0549999 -0.163 0
-2.8418572 1.1821346 -0.11419575 0
-2.7593248 1.1310586 -0.11163875 0
-2.6787143 1.1092808 -0.12851745 0
-2.4489384 1.1407442 -0.13412572 0
-2.3471196 1.1429044 -0.13348068 0
-2.2349222 1.1521053 -0.14681865 0
-2.1598628 1.1438013 -0.14970718 0
-2.046911 1.1536568 -0.15131916 0
-1.9498647 1.144775 -0.15270753 0
-1.848309 1.1695601 -0.15097192 0
-1.7567222 1.1582465 -0.14142376 0
-1.6543915 1.1553637 -0.13704455 0
-1.5564811 1.1419207 -0.13666387 0
-1.4625028 1.1477334 -0.13645868 0
-1.362151 1.1494589 -0.1379611 0
-1.2609954 1.138459 -0.15243842 0
-1.133203 1.1585228 -0.149 0
0.96100003 1.171 -0.16 0
1.0458145 1.1570393 -0.16245435 0
1.1387954 1.1434237 -0.16417225 0
1.2367479 1.142243 -0.16259882 0
1.3475249 1.1451643 -0.168 0
1.4648702 1.1301696 -0.16879752 0
1.5365919 1.1570266 -0.15777242 0
1.6635009 1.1537176 -0.16544752 0
1.7505131 1.1357344 -0.16469829 0
1.855846 1.1461904 -0.16199099 0
1.944881 1.1394511 -0.15966596 0
2.0360742 1.1411738 -0.16178766 0
2.1513958 1.134999 -0.15558228 0
2.2518303 1.150959 -0.15372391 0
2.3436108 1.1753114 -0.15292676 0
2.4399862 1.1388993 -0.14739004 0
2.6477246 1.1295264 -0.16247717 0
2.7719374 1.1457248 -0.16145682 0
2.813 1.123 -0.162 0
-2.9234285 1.2185615 -0.1070349 0
-2.7098913 1.2789447 -0.10990352 0
-2.6336684 1.2402086 -0.12017764 0
-2.5680294 1.2436504 -0.12738651 0
-2.4588065 1.2234143 -0.13666064 0
-2.3329222 1.2497698 -0.12180851 0
-2.2295861 1.2615936 -0.12312363 0
-2.1618373 1.2614274 -0.12387977 0
-2.0360973 1.2523686 -0.12733074 0
-1.9489667 1.2446344 -0.13148797 0
-1.8587643 1.2213882 -0.13496906 0
-1.7466421 1.2292119 -0.13073963 0
-1.6568234 1.2311765 -0.12094265 0
-1.5552579 1.2295148 -0.12545015 0
-1.4359761 1.2314936 -0.12624282 0
-1.3138347 1.2827529 -0.11054625 0
-1.2318575 1.2632025 -0.11292517 0
-1.1715682 1.2374642 -0.12977572 0
-1.0580782 1.2654216 -0.11130899 0
-0.95595181 1.2503698 -0.11787997 0
-0.85192949 1.2532597 -0.12154639 0
-0.75559998 1.2450001 -0.1082 0
-0.64960003 1.2558 -0.1094 0
-0.583 1.2970001 -0.106 0
0.88050002 1.2775 -0.161 0
0.9328208 1.2534227 -0.15817568 0
1.0384809 1.2578187 -0.16210538 0
1.1399742 1.2536094 -0.16189362 0
1.25126 1.2497472 -0.16274144 0
1.3586679 1.255146 -0.16180351 0
1.4414399 1.2256627 -0.168 0
1.5491928 1.2560951 -0.16809405 0
1.6275001 1.23475 -0.1655 0
1.7385012 1.2471778 -0.16637975 0
1.8491999 1.242025 -0.16053344 0
1.9609467 1.2401376 -0.15906143 0
2.0572639 1.2497708 -0.15616994 0
2.1439576 1.2522924 -0.15895903 0
2.2478876 1.2516893 -0.15906882 0
2.3584342 1.2589842 -0.14938216 0
2.4384382 1.2384784 -0.15566255 0
-2.7383556 1.3690475 -0.10786878 0
-2.6584845 1.327438 -0.11609502 0
-2.4535542 1.3747828 -0.10830957 0
-2.3435471 1.3465514 -0.10797929 0
-2.2753224 1.3411212 -0.11185941 0
-2.1487956 1.3482069 -0.10965764 0
-2.0478387 1.3377104 -0.10964291 0
-1.9216428 1.3501378 -0.10474709 0
-1.8537197 1.3339593 -0.10910757 0
-1.7545656 1.335097 -0.10959297 0
-1.6309502 1.3855239 -0.10425307 0
-1.5514024 1.3461881 -0.11177322 0
-1.4718785 1.3027701 -0.12278329 0
-1.3706692 1.3375057 -0.10409249 0
-1.2321754 1.3551706 -0.10295322 0
-1.0565912 1.3663645 -0.11209261 0
-0.94248039 1.3363955 -0.11273001 0
-0.84177363 1.3373258 -0.10757642 0
-0.74810016 1.3360273 -0.10622577 0
-0.64849782 1.3407615 -0.10355161 0
-0.56800002 1.349 -0.108 0
-0.40599999 1.339 -0.145 0
-0.35299999 1.399 -0.146 0
0.76599997 1.3765 -0.1585 0
0.84653133 1.3501643 -0.15960337 0
0.93906969 1.3559462 -0.1618505 0
1.0236064 1.3507632 -0.16158266 0
1.1370852 1.3560938 -0.16194895 0
1.2473645 1.3513091 -0.16280814 0
1.3414541 1.3461865 -0.16256833 0
1.4595128 1.3643488 -0.16021061 0
1.5443046 1.3388293 -0.16261181 0
1.6505793 1.3371954 -0.16525437 0
1.7551087 1.3551383 -0.16330929 0
1.8795035 1.3475335 -0.16113922 0
1.9853576 1.3391883 -0.15292327 0
2.0519578 1.3626016 -0.15643419 0
2.1440601 1.3311362 -0.15153784 0
2.251651 1.3561201 -0.15384682 0
2.3219504 1.3515445 -0.15199873 0
2.4278646 1.3614635 -0.1581004 0
2.5430236 1.3494661 -0.15774658 0
2.6440001 1.362 -0.15700001 0
-2.5289426 1.4187286 -0.10038696 0
-2.2487392 1.4022124 -0.10031797 0
-1.5957975 1.4166169 -0.10263882 0
-1.1513731 1.4444669 -0.10453143 0
-1.056495 1.4513937 -0.10756356 0
-0.94261885 1.4375457 -0.10344528 0
-0.81396794 1.4471121 -0.10108808 0
-0.71260393 1.4197531 -0.10212893 0
-0.56594568 1.4416966 -0.11805155 0
-0.44361946 1.4579179 -0.1424752 0
-0.37433228 1.4799325 -0.14420874 0
-0.296 1.459 -0.147 0
0.68149996 1.4619999 -0.1585 0
0.76704216 1.4565611 -0.1591447 0
0.84682333 1.4341364 -0.1604515 0
0.94956404 1.4501933 -0.16053857 0
1.0385971 1.4493206 -0.15758218 0
1.1453127 1.4471092 -0.15615624 0
1.2517861 1.470217 -0.15863675 0
1.3508503 1.4517323 -0.16090453 0
1.4412683 1.43725 -0.15942901 0
1.5503758 1.4265593 -0.15720163 0
1.6519464 1.4551555 -0.15726884 0
1.7702804 1.4668808 -0.16055647 0
1.8594275 1.4309975 -0.1565392 0
1.9637599 1.4510098 -0.16067053 0
2.0426118 1.4186562 -0.15205237 0
2.1355999 1.4374083 -0.15093367 0
2.2338858 1.456461 -0.14683196 0
2.3697634 1.4422902 -0.15670112 0
2.4539454 1.4654741 -0.15653449 0
2.517 1.447 -0.15700001 0
2.6243658 1.4343729 -0.15705588 0
-1.1033266 1.518525 -0.10008474 0
-0.58007985 1.5455869 -0.11522119 0
-0.46422461 1.5623338 -0.13859077 0
-0.36061332 1.5638585 -0.14308321 0
-0.22810666 1.5528245 -0.14846963 0
-0.167 1.58 -0.149 0
0.55499995 1.563 -0.15700001 0
0.64768404 1.5569357 -0.15800698 0
0.75497323 1.5423402 -0.159234 0
0.84601718 1.5515682 -0.15737481 0
0.9494561 1.5496762 -0.15768178 0
1.0548513 1.5489955 -0.15708275 0
1.1533713 1.5667086 -0.15337333 0
1.2410146 1.5349334 -0.15564047 0
1.3469023 1.5571826 -0.15349463 0
1.4530402 1.5471919 -0.15372692 0
1.5500336 1.5364394 -0.15539093 0
1.653258 1.5694356 -0.1525424 0
1.7512616 1.5427128 -0.15399514 0
1.8388739 1.5226746 -0.15807527 0
1.9457076 1.5329576 -0.15378731 0
2.050492 1.545171 -0.1531235 0
2.1615081 1.5482447 -0.15065819 0
2.2480001 1.5320001 -0.14899999 0
2.5570276 1.562695 -0.1570434 0
-0.61404324 1.6659526 -0.10192278 0
-0.53454584 1.6587044 -0.12669753 0
-0.4249334 1.6495522 -0.14016652 0
-0.34346089 1.6486555 -0.14227341 0
-0.24830715 1.6479567 -0.14602394 0
-0.14716981 1.647776 -0.14815389 0
-0.097000003 1.649 -0.15099999 0
0.45499998 1.6435 -0.156 0
0.54834342 1.6459012 -0.156749 0
0.64099044 1.6656382 -0.15856698 0
0.74060094 1.6476504 -0.15697148 0
0.84111714 1.6609639 -0.15624146 0
0.94223607 1.6477747 -0.15661982 0
1.0575649 1.6388781 -0.15367015 0
1.1396997 1.6439433 -0.15353352 0
1.2529125 1.634088 -0.14941394 0
1.3506737 1.6575009 -0.15164109 0
1.4422606 1.6485926 -0.15032186 0
1.542902 1.6422466 -0.14932038 0
1.6498089 1.6541158 -0.15086775 0
1.7340009 1.620976 -0.14740492 0
1.8528662 1.6312637 -0.15054712 0
1.9475045 1.6621348 -0.15087372 0
2.0663261 1.6668862 -0.15112607 0
2.1419516 1.6233317 -0.1476928 0
-0.61288172 1.7778482 -0.1027968 0
-0.55196345 1.7365631 -0.12364411 0
-0.44553325 1.7468588 -0.1378901 0
-0.35379738 1.7499633 -0.13976422 0
-0.22770357 1.7518089 -0.14463525 0
-0.13470465 1.7406228 -0.14737085 0
-0.025907904 1.7694947 -0.15061694 0
0.039999999 1.758 -0.1525 0
0.45469362 1.7494115 -0.15621698 0
0.54939944 1.753479 -0.15519008 0
0.65521234 1.760034 -0.1559722 0
0.75007927 1.7534505 -0.15636954 0
0.85875112 1.7393171 -0.15531021 0
0.95768887 1.7424804 -0.15072218 0
1.0574622 1.7761817 -0.14908323 0
1.1446091 1.7323717 -0.1524213 0
1.2467492 1.7432064 -0.15155487 0
1.3695799 1.7594433 -0.14967062 0
1.4596411 1.7695105 -0.14727545 0
1.5613954 1.7465954 -0.1457178 0
1.6540598 1.7573078 -0.14250235 0
1.7641747 1.7376266 -0.14650182 0
1.8475161 1.753538 -0.14608477 0
1.9747559 1.7604841 -0.14470883 0
2.0569098 1.7415266 -0.1488615 0
2.1603293 1.7414351 -0.14785776 0
-0.60341698 1.8308014 -0.11164685 0
-0.55892855 1.8439671 -0.12954979 0
-0.46603793 1.8583893 -0.13523932 0
-0.34260023 1.838437 -0.13954143 0
-0.23712945 1.8684055 -0.14276864 0
-0.14149171 1.8433359 -0.1456124 0
-0.052366387 1.8833696 -0.14780544 0
0.042379864 1.8440984 -0.1500558 0
0.12270058 1.8450171 -0.15280399 0
0.46916586 1.8678718 -0.15668307 0
0.55388641 1.842316 -0.15545645 0
0.66210651 1.8386365 -0.15520661 0
0.78499401 1.8539093 -0.1534555 0
0.85793173 1.8359721 -0.14967725 0
0.94248432 1.8516781 -0.15254411 0
1.0532296 1.8606919 -0.15092766 0
1.1613961 1.8241106 -0.14944631 0
1.2343624 1.8440211 -0.15255092 0
1.3401388 1.8615263 -0.14886452 0
1.4775325 1.8625603 -0.14536747 0
1.5687549 1.8559071 -0.14547989 0
1.6605409 1.8728404 -0.13948716 0
1.7501488 1.8441858 -0.13814045 0
1.8518957 1.8561119 -0.14381725 0
1.9400787 1.8697206 -0.1426122 0
2.0414355 1.8198863 -0.14257199 0
2.1232343 1.8451047 -0.14351067 0
-0.61714125 1.9487 -0.11218047 0
-0.52673769 1.9517511 -0.12828791 0
-0.44379792 1.9420542 -0.134919 0
-0.36327559 1.9349718 -0.13657938 0
-0.24346407 1.9569044 -0.14090233 0
-0.13654763 1.9524807 -0.14323398 0
-0.054756369 1.9718568 -0.14571422 0
0.043884609 1.9325893 -0.14827584 0
0.14811811 1.9420476 -0.15252224 0
0.43647742 1.9634681 -0.1553013 0
0.56160879 1.948801 -0.15331948 0
0.66089106 1.942624 -0.15344211 0
0.72197658 1.9372898 -0.15210746 0
0.80297583 1.9356369 -0.15382199 0
0.95714039 1.9545317 -0.15055414 0
1.0015482 1.9257766 -0.14691147 0
1.1312667 1.9404668 -0.14745808 0
1.2593862 1.9430708 -0.14985384 0
1.3501089 1.9548674 -0.14861853 0
1.4334332 1.9677111 -0.1458928 0
1.5667077 1.9426864 -0.14231358 0
1.6529441 1.9627652 -0.14188418 0
1.7370331 1.9425169 -0.13630274 0
1.8503945 1.9665295 -0.13286887 0
1.951719 1.955719 -0.13702193 0
2.0394645 1.9501842 -0.13997629 0
2.1490002 1.9184999 -0.1365 0
-0.64139915 2.0394063 -0.1090776 0
-0.53770316 2.0436778 -0.1256382 0
-0.45035985 2.0308805 -0.13111213 0
-0.36532322 2.0440648 -0.13548155 0
-0.25879493 2.0407135 -0.13617378 0
-0.14394772 2.0409718 -0.13850537 0
-0.041578654 2.0637617 -0.14462091 0
0.036097698 2.0419562 -0.14655222 0
0.15352403 2.044966 -0.15057598 0
0.45633072 2.0505557 -0.15377015 0
0.54932737 2.0309153 -0.15392858 0
0.65491217 2.0494895 -0.15227722 0
0.76018929 2.0548878 -0.1502603 0
0.85095775 2.0568647 -0.15068847 0
0.95118076 2.052665 -0.1461269 0
1.0458471 2.0354919 -0.14606093 0
1.1536717 2.0338817 -0.14711118 0
1.2353109 2.0729089 -0.14541614 0
1.3370237 2.0480397 -0.14898123 0
1.4490044 2.0460491 -0.14661865 0
1.5267196 2.0796893 -0.14627877 0
1.6278156 2.0397348 -0.14270341 0
1.7478261 2.0531116 -0.13409315 0
-0.63913971 2.1469989 -0.1153916 0
-0.5494284 2.1552632 -0.11954955 0
-0.44651622 2.133971 -0.12814867 0
-0.34140158 2.1497867 -0.13310945 0
-0.23706925 2.1363354 -0.13156441 0
-0.13687953 2.1314192 -0.13358784 0
-0.04345705 2.1518962 -0.14272773 0
0.046980958 2.1447816 -0.14420679 0
0.13864851 2.1668108 -0.14801554 0
0.2075008 2.1466818 -0.15089984 0
0.47618398 2.1376433 -0.15223899 0
0.57099104 2.1146231 -0.15264288 0
0.64388978 2.1654031 -0.15070514 0
0.74289256 2.1430855 -0.15051831 0
0.85650456 2.1586232 -0.14745459 0
0.98890769 2.1295533 -0.14483586 0
1.0671066 2.1471672 -0.14561489 0
1.1542053 2.1392033 -0.14254549 0
1.2499646 2.1680634 -0.14831811 0
1.359728 2.1502638 -0.1442361 0
1.4472494 2.1510363 -0.14729501 0
1.5429176 2.1557279 -0.14139578 0
1.6468663 2.1301358 -0.13987434 0
1.7563976 2.1247032 -0.13429239 0
-0.64923483 2.2410054 -0.10985253 0
-0.55328906 2.2560284 -0.12099652 0
-0.46349064 2.2562721 -0.12415217 0
-0.36794725 2.2533519 -0.12855545 0
-0.24671789 2.2246168 -0.12655638 0
-0.14687374 2.2350564 -0.12998854 0
-0.045335453 2.2400305 -0.14083456 0
0.034434874 2.2424586 -0.14193989 0
0.1526126 2.2640724 -0.14731011 0
0.21980128 2.279691 -0.14843975 0
0.48618746 2.2461216 -0.15040921 0
0.54748487 2.2488322 -0.15059638 0
0.66863453 2.2764153 -0.14934844 0
0.77011573 2.2257318 -0.14889789 0
0.84951329 2.2698252 -0.14598829 0
0.93092752 2.2589107 -0.14546597 0
1.0454981 2.2448859 -0.1428993 0
1.1451173 2.246453 -0.14148577 0
1.2688348 2.2431123 -0.14357971 0
1.39 2.253 -0.138 0
1.4414638 2.2312741 -0.14228477 0
1.5317801 2.2357461 -0.14554006 0
1.6426579 2.2482293 -0.14239675 0
1.7854419 2.2270036 -0.13921377 0
-0.7034322 2.32511 -0.10166565 0
-0.63091481 2.3733816 -0.12068067 0
-0.55405629 2.3651166 -0.1167767 0
-0.4409661 2.3575685 -0.11418779 0
-0.34578505 2.3459332 -0.12599786 0
-0.23328538 2.3393278 -0.12705678 0
-0.15143678 2.332778 -0.12416996 0
-0.047213852 2.3281648 -0.13894138 0
0.042634856 2.3516886 -0.13830577 0
0.15213852 2.3678813 -0.14544997 0
0.22800158 2.3683639 -0.14679968 0
0.52637923 2.3545525 -0.14857732 0
0.6359821 2.365746 -0.14878573 0
0.74782431 2.3439794 -0.14755443 0
0.85155326 2.3783481 -0.1452193 0
0.95268482 2.3690126 -0.14302845 0
1.131 2.3510001 -0.14050001 0
1.2104592 2.3073592 -0.13909507 0
1.4859999 2.3280001 -0.15000001 0
1.5650823 2.3344011 -0.14907941 0
1.6584455 2.3317297 -0.1448103 0
1.7195377 2.3266702 -0.14609015 0
-0.60447252 2.4526098 -0.1115807 0
-0.56281549 2.4649689 -0.11747179 0
-0.45407817 2.4584241 -0.11496729 0
-0.32925782 2.4502897 -0.11368057 0
-0.2404287 2.4689972 -0.11117278 0
-0.15039401 2.4467785 -0.11848263 0
-0.04737946 2.4353163 -0.13819076 0
0.030021926 2.4703496 -0.13716494 0
0.15803659 2.4571948 -0.14431661 0
0.2362019 2.4570365 -0.14515962 0
0.55615503 2.4574268 -0.14703079 0
0.6620729 2.4662271 -0.14725001 0
0.76855356 2.4423144 -0.14611934 0
0.84399998 2.4499998 -0.14449999 0
0.93000001 2.4200001 -0.14300001 0
2.6359999 2.4660001 -0.14300001 0
-0.55434775 2.5609546 -0.12505017 0
-0.45527792 2.5322816 -0.12696549 0
-0.36601925 2.5474632 -0.12814711 0
-0.24752708 2.5725501 -0.12693092 0
-0.15552847 2.5755441 -0.12547174 0
-0.059447832 2.5222063 -0.12812021 0
0.041381456 2.5531354 -0.13664331 0
0.14438403 2.5542121 -0.14132456 0
0.2248024 2.5554469 -0.14447719 0
0.54237491 2.5122433 -0.14481843 0
2.7326705 2.5590091 -0.12498412 0
-0.461476 2.6256645 -0.12527184 0
-0.38269833 2.6671355 -0.12564525 0
-0.25584295 2.6618688 -0.12467228 0
-0.16119413 2.6655793 -0.12298609 0
-0.064157143 2.6386843 -0.12177652 0
0.056319445 2.6622272 -0.11916339 0
0.17768426 2.6460481 -0.14220591 0
0.23229021 2.6446698 -0.14305934 0
0.57046866 2.6453042 -0.14202303 0
2.8293412 2.6520176 -0.10696824 0
-0.26199999 2.7279999 -0.123 0
-0.16600001 2.7385001 -0.121 0
-0.063498139 2.7449458 -0.11205137 0
0.057999998 2.7509999 -0.116 0
0.1525116 2.7158399 -0.14507973 0
0.24013901 2.7379463 -0.14157075 0
0.59856236 2.7783651 -0.13922763 0
0.34 2.8510001 -0.14300001 0
0.44849998 2.8915 -0.141 0
0.61729157 2.8670723 -0.13736403 0
0.34981376 2.9407914 -0.1334614 0
0.46140024 2.9806209 -0.13163687 0
0.56306422 2.9502816 -0.13356228 0
0.63099998 2.9319999 -0.13600001 0
0.708 2.9549999 -0.13500001 0
0.35962752 3.0305827 -0.12392279 0
0.43839484 3.0754097 -0.12359939 0
0.54873151 3.0736005 -0.12059861 0
0.65291679 3.0185382 -0.1205736 0
0.72818953 3.0423889 -0.12638977 0
0.87199998 3.0150001 -0.132 0
0.95899999 3.049 -0.131 0
1.649 3.0510001 -0.13600001 0
0.36944127 3.120374 -0.11438418 0
0.45009229 3.1646144 -0.11389908 0
0.52430916 3.1531117 -0.11192215 0
0.63910949 3.1383834 -0.10826045 0
0.74837905 3.1297779 -0.11777954 0
0.89639121 3.1009355 -0.12376668 0
0.95304084 3.1604595 -0.11918393 0
1.141 3.118 -0.12899999 0
1.2309999 3.1400001 -0.12800001 0
1.42 3.178 -0.125 0
1.5534999 3.1564999 -0.1285 0
1.6906067 3.1309235 -0.12971063 0
0.37925506 3.2101653 -0.10484557 0
0.46178973 3.2538192 -0.10419877 0
0.53841221 3.2421489 -0.1028962 0
0.61951387 3.2602537 -0.10249828 0
0.76856858 3.2171669 -0.1091693 0
0.94517362 3.2728059 -0.10730004 0
1.0115985 3.2190967 -0.11466902 0
1.1715071 3.2009971 -0.12103675 0
1.2327533 3.2529583 -0.11661924 0
1.4563457 3.2581711 -0.11787109 0
1.5494963 3.2631116 -0.11540736 0
1.6545855 3.2487676 -0.1241268 0
1.7530167 3.2508087 -0.12027656 0
0.78875804 3.3045557 -0.10055906 0
1.0378977 3.3041451 -0.10650353 0
1.2642529 3.3354177 -0.10872012 0
1.3284768 3.385766 -0.10449497 0
1.4538457 3.3406711 -0.12087109 0
1.5879927 3.3422234 -0.10881472 0
1.713171 3.368535 -0.11325359 0
1.8154266 3.3706939 -0.1108425 0
1.4621668 3.4603529 -0.11542815 0
1.5290372 3.4185131 -0.10361327 0
1.6264889 3.421335 -0.10222208 0
1.752228 3.4483802 -0.10600478 0
1.8570333 3.4506176 -0.10455312 0
0.38499999 -4.283 -0.0040000002 0
0.51800001 -3.6329999 -0.081 0
0.72006845 -3.6304548 -0.041429952 0
0.34 -3.5320001 -0.085000001 0
0.49855855 -3.5104148 -0.091685377 0
0.51250339 -3.5983417 -0.084021047 0
0.70112324 -3.5380187 -0.050173916 0
0.33180162 -3.4517732 -0.094018221 0
0.43590936 -3.4474645 -0.081223443 0
0.5970009 -3.464246 -0.065585598 0
0.64355475 -3.4745638 -0.059743963 0
0.39779085 -3.3394768 -0.096996695 0
0.42115179 -3.3350949 -0.087804005 0
0.57975078 -3.3785903 -0.076887399 0
0.66509581 -3.3622367 -0.066801935 0
0.55387557 -3.2501068 -0.0938401 0
0.64708209 -3.2743459 -0.075115949 0
1.0281162 -3.22348 -0.048264123 0
0.62906843 -3.1864548 -0.083429947 0
0.99277067 -3.1232512 -0.065024212 0
0.61105472 -3.0985639 -0.091743961 0
0.96430892 -3.0425427 -0.078520179 0
1.180141 -3.0452423 -0.055312537 0
1.220333 -3.0509868 -0.043880641 0
0.93584716 -2.9618342 -0.092016146 0
1.1618117 -2.9511907 -0.067494318 0
1.1311494 -2.8736525 -0.081795447 0
1.0866411 -2.799742 -0.099812537 0
1.114333 -2.7924867 -0.092380643 0
3.0869498 -2.6210032 -0.0091446713 0
3.0527954 -2.5332656 -0.018067405 0
3.1370001 -2.5450001 -0.0069999993 0
3.2154999 -2.5204999 -0.055 0
2.8753295 -2.4410045 -0.043502547 0
2.9435196 -2.4990051 -0.032431476 0
3.0446949 -2.4373939 -0.038369019 0
3.1438522 -2.4572954 -0.072193526 0
3.2492037 -2.4460351 -0.033519734 0
3.3595815 -2.4076002 -0.039596103 0
3.4452529 -2.4386284 -0.051211175 0
3.5150001 -2.4579999 -0.066 0
2.7389498 -2.3250031 -0.065644667 0
2.847697 -2.3616772 -0.053211603 0
2.9576681 -2.3590183 -0.058408231 0
3.0583024 -2.3401866 -0.079980813 0
3.1444731 -2.3695068 -0.051146194 0
3.2504845 -2.3295002 -0.052663423 0
3.3570294 -2.3457685 -0.080708988 0
3.455195 -2.3180435 -0.075803384 0
3.5052164 -2.3678818 -0.079170428 0
2.6366649 -2.2380023 -0.082251266 0
2.7663474 -2.2159469 -0.087434508 0
2.8359342 -2.2713087 -0.075168133 0
2.9286706 -2.2118168 -0.087466374 0
3.0006049 -2.2643802 -0.07535965 0
3.1571455 -2.2331772 -0.081792071 0
3.2465539 -2.2672799 -0.09099564 0
3.3434634 -2.2466469 -0.087381117 0
3.4099488 -2.2698667 -0.072873771 0
3.6933222 -2.2155282 -0.07807532 0
3.766 -2.2609999 -0.07 0
2.53438 -2.1510015 -0.098857865 0
2.6826272 -2.1711752 -0.088924803 0
2.8567364 -2.1592534 -0.099573106 0
2.9959249 -2.1472666 -0.083153829 0
3.0686564 -2.1993334 -0.074442282 0
3.1868432 -2.1259167 -0.096921109 0
3.2612116 -2.1738999 -0.088905327 0
3.5414727 -2.120522 -0.094947472 0
3.6173973 -2.168025 -0.086511396 0
2.9231937 -2.0952001 -0.091865368 0
3.7279999 -2.007 -0.068999998 0
3.9405057 -2.0060329 -0.082961723 0
4.0252218 -2.046706 -0.074478462 0
3.5663228 -1.9136543 -0.098284893 0
3.6399875 -1.9561852 -0.084941871 0
3.7471409 -1.9639955 -0.085285068 0
3.8605676 -1.9676538 -0.090966508 0
3.7789698 -1.8199623 -0.092702255 0
3.8565638 -1.8525547 -0.080442712 0
3.9100001 -1.875 -0.071999997 0
4.5300579 -1.5552716 -0.095810175 0
4.5999999 -1.577 -0.085000001 0
4.5496969 -1.2128055 -0.088156112 0
-2.9419999 1.199 -0.086999997 0
-2.8811157 1.1739802 -0.09357515 0
-2.5359907 1.1696208 -0.097814083 0
-2.4574988 1.1992636 -0.093569323 0
-3.0457859 1.2732019 -0.096293628 0
-2.746074 1.2634804 -0.075108692 0
-2.6191294 1.2072483 -0.083658963 0
-2.5415366 1.2427918 -0.078481354 0
-2.4679897 1.2904179 -0.098270744 0
-1.618 1.283 -0.1 0
-1.262 1.2485 -0.098999999 0
-1.1705 1.273 -0.0955 0
-0.74217981 1.2974761 -0.097529106 0
-3.22 1.351 -0.081 0
-3.1681428 1.3278424 -0.08555235 0
-3.033247 1.3906013 -0.056695633 0
-2.9448788 1.3747172 -0.070518836 0
-2.8549745 1.3526263 -0.065449625 0
-2.7699714 1.3314034 -0.07498078 0
-2.6511009 1.3380568 -0.064669669 0
-2.5295219 1.351239 -0.079564653 0
-2.424 1.36 -0.085999995 0
-2.3709736 1.3644027 -0.09294977 0
-2.242362 1.3614175 -0.077893302 0
-2.0706904 1.3874079 -0.096122772 0
-1.9673835 1.3607346 -0.091896184 0
-1.7484483 1.3874205 -0.074592032 0
-1.6832242 1.3352103 -0.087296017 0
-1.4176955 1.376554 -0.085153468 0
-1.3500885 1.3366905 -0.078352436 0
-1.2614204 1.33996 -0.078622349 0
-1.1208355 1.310693 -0.095427208 0
-1.0424502 1.3638321 -0.096051514 0
-0.85992002 1.3786879 -0.099530801 0
-0.73159564 1.3599138 -0.096788146 0
-0.65394765 1.360521 -0.097283572 0
-3.2793951 1.499562 -0.040913008 0
-3.156321 1.4450817 -0.04880432 0
-3.0722661 1.4986269 -0.0081083626 0
-2.9594183 1.4447509 -0.05201865 0
-2.8614323 1.4502348 -0.071593598 0
-2.7420623 1.4504982 -0.046748821 0
-2.6307521 1.4582186 -0.074884653 0
-2.54338 1.4452088 -0.077627718 0
-2.4205213 1.4526869 -0.074396074 0
-2.3539102 1.4578347 -0.080065869 0
-2.2509813 1.4476128 -0.092130758 0
-2.1414008 1.433762 -0.081182502 0
-2.051384 1.424008 -0.07894364 0
-1.9338961 1.4273846 -0.089533612 0
-1.8544524 1.4534994 -0.072917081 0
-1.7549171 1.4912066 -0.091088459 0
-1.6753454 1.4559528 -0.095118672 0
-1.5288873 1.4838496 -0.065668195 0
-1.4577465 1.4460957 -0.06237125 0
-1.3339692 1.4572428 -0.078137904 0
-1.2594079 1.4055011 -0.082165092 0
-1.128 1.429 -0.098999999 0
-1.0239999 1.418 -0.094999999 0
-0.93792999 1.4606318 -0.096306957 0
-0.85507023 1.4441353 -0.094253004 0
-0.74418813 1.4468082 -0.091537088 0
-0.65798873 1.4551167 -0.094494045 0
-3.434 1.568 -0.030999999 0
-3.3614445 1.5358824 -0.035652135 0
-3.1558557 1.5865474 -0.064868778 0
-3.0578399 1.5354855 -0.074963793 0
-2.947969 1.5272536 -0.0088122338 0
-2.8684087 1.5711159 -0.03061286 0
-2.7580543 1.5522828 -0.076309569 0
-2.6463044 1.5575366 -0.060611162 0
-2.5493462 1.5535971 -0.061646093 0
-2.4656413 1.5534979 -0.063276537 0
-2.3731732 1.5517153 -0.077329665 0
-2.2647865 1.5246502 -0.055138748 0
-2.0093448 1.5962617 -0.023776092 0
-1.9441206 1.5440514 -0.036480077 0
-1.784 1.516 -0.088 0
-1.6698308 1.5487745 -0.052502293 0
-1.5571506 1.5413824 -0.03029871 0
-1.4329261 1.5503912 -0.044296335 0
-1.3649344 1.5212051 -0.063521601 0
-1.2488172 1.5638187 -0.094676323 0
-1.1501582 1.5856563 -0.092605934 0
-1.0645335 1.5411098 -0.09643165 0
-0.96392089 1.5343566 -0.095467597 0
-0.85630131 1.5459143 -0.092780687 0
-0.75650018 1.5427622 -0.085415639 0
-0.66260219 1.5459749 -0.092013687 0
-3.0512266 1.6710827 -0.0013704989 0
-2.9741135 1.6290414 -0.01418525 0
-2.7160001 1.605 -0.067000002 0
-2.461 1.609 -0.068999998 0
-2.3577681 1.608516 -0.021387283 0
-2.039 1.62 -0.017999999 0
-1.638 1.6215 -0.011500001 0
-1.5447985 1.6189624 -0.011899565 0
-1.4780966 1.6221434 -0.060367376 0
-1.303 1.635 -0.086000003 0
-1.2991807 1.6299825 -0.086611584 0
-1.1485 1.6240001 -0.088500001 0
-1.005 1.61 -0.090999998 0
-0.81031823 1.6805383 -0.057945818 0
-0.73963416 1.6456137 -0.072168641 0
-0.66371781 1.6300848 -0.08924447 0
-0.83593577 1.7583112 -0.044844419 0
-0.76694739 1.7642498 -0.062102716 0
-0.65992117 1.7234285 -0.085862309 0
-0.85271931 1.8462598 -0.038292356 0
-0.75128692 1.8553792 -0.063189 0
-0.63277417 1.8432574 -0.097065069 0
-0.93780851 1.9582478 -0.011854209 0
-0.85632735 1.9369817 -0.036105342 0
-0.78236961 1.9784279 -0.051898502 0
-0.66165918 1.9290125 -0.086289003 0
-0.93360013 2.0552714 -0.01214613 0
-0.85301375 2.0430977 -0.036574386 0
-0.71897751 2.0990376 -0.064866997 0
-0.67607129 2.0536666 -0.085573584 0
-0.94088632 2.1581612 -0.012621564 0
-0.86917591 2.1259241 -0.030117737 0
-0.73036087 2.1790285 -0.076195106 0
-0.68664825 2.1776168 -0.087138332 0
-0.97794014 2.263931 -0.0061296504 0
-0.88089681 2.2299988 -0.024072371 0
-0.74275678 2.2635987 -0.072344512 0
-0.9301604 2.3557842 -0.010159306 0
-0.80495501 2.3540752 -0.032733992 0
-0.75210774 2.3459215 -0.080902278 0
-0.64616567 2.3601625 -0.09824501 0
-0.83361417 2.4390879 -0.022022992 0
-0.75938427 2.4424322 -0.084171169 0
-0.65003884 2.4729471 -0.093531772 0
-0.83193177 2.5468237 -0.047039241 0
-0.78179657 2.5487576 -0.06920673 0
-0.67302227 2.5592031 -0.087860346 0
-0.54683292 2.5513849 -0.095890731 0
-0.45548773 2.5631213 -0.096195154 0
