# .PCD v0.7 - Point Cloud Data file format
VERSION 0.7
FIELDS x y z intensity
SIZE 4 4 4 4
TYPE F F F F
COUNT 1 1 1 1
WIDTH 348
HEIGHT 1
VIEWPOINT 0 0 0 1 0 0 0
POINTS 348
DATA ascii
-41.626774 -20.823032 15.114496 13
-41.467049 -21.056101 13.639081 12
-41.010197 -21.665915 15.032735 13
-41.08054 -21.214594 15.724108 13
-40.446987 -22.08551 15.712456 13
-40.168907 -22.795544 13.594869 12
-40.3554 -22.478672 14.947096 13
-40.020103 -22.981236 15.443426 13
-39.607601 -23.52849 14.264006 12
-39.757603 -23.32761 14.883426 13
-39.192211 -24.182266 14.840755 13
-38.825241 -44.433712 19.337233 13
-38.508865 -44.088066 18.10848 12
-38.179649 -44.472561 17.754171 12
-37.32695 -45.532219 17.870754 12
-37.214558 -45.751198 18.425526 12
-32.695705 -2.2460225 0.62779456 4
-27.874321 -3.7544217 -0.29846832 3
-25.943623 -4.6755223 0.48561206 4
-18.76582 -3.5431213 -0.067517333 3
-16.899475 -14.780291 -0.49517193 3
-15.921746 -27.837322 15.205863 17
-15.266754 -27.761938 15.185927 17
-15.051833 -27.759054 15.040659 17
-14.73596 -27.70978 15.01264 17
-13.896799 -27.593504 14.777306 17
-13.441585 -27.582144 14.611897 17
-12.904531 -3.0514312 -0.031028641 3
-12.969614 -27.541521 14.535492 17
-12.619535 -27.595957 14.302887 17
-12.77365 -26.771351 15.50338 18
-12.36967 -26.733147 16.264751 18
-10.309932 -3.5057213 -0.14055404 3
-10.178028 -2.8997731 -0.013624217 3
-9.6188297 -3.0510435 0.30259022 4
-9.7137403 -2.7619975 0.32124439 4
-9.6007566 -3.2175493 0.47272363 5
-9.647975 -3.3495295 0.89570951 6
-9.8064032 -30.426332 15.275549 17
-9.4310932 -11.040571 -0.071340971 3
-9.5170431 -3.3879831 0.26466924 4
-9.5655928 -3.6044757 0.68504661 5
-9.573123 -3.4086478 0.58040017 5
-9.5694809 -3.4837897 0.88595724 6
-9.4089031 -30.417288 15.32611 17
-9.0566816 -30.389927 15.147452 17
-8.6556406 -30.31811 15.196891 17
-8.0092964 -10.260577 -0.090676449 3
-7.3386607 -10.315833 -0.11552273 3
-7.3852978 -2.8911097 -0.15692824 3
-7.5732875 -30.200611 14.869026 17
-7.0062146 1.4506537 -0.072607115 3
-6.781116 -3.0970392 -0.091504663 3
-6.5371509 0.98895121 0.14816089 4
-6.2917285 -4.4794464 -0.26093408 2
-6.3395185 -1.499058 -0.22754551 2
-5.8320704 -3.7576666 -0.23975857 2
-5.9306417 -0.94372988 -0.24187827 2
-5.8478613 0.8616268 0.28449291 5
-5.8368211 1.2163806 0.079654306 4
-5.8344049 0.79812866 0.56149787 6
-5.529695 1.7957532 -0.094441704 3
-5.4942188 1.5166949 0.21412814 4.6666665
-5.4913416 1.7666514 0.095622137 4
-5.5252233 1.5271394 0.51218098 6
-5.4905972 1.6435778 0.42656031 6
-4.6947947 -9.2891512 -0.20310979 3
-4.5125933 -1.3266189 -0.22398148 2
-4.5062561 2.1549983 -0.10509545 3
-4.1516018 -9.2688322 -0.21023186 3
-4.3778052 -4.1602478 -0.12465902 3
-4.0723567 -1.7195299 -0.22237712 2
-4.1504855 -1.4330237 -0.22220838 2
-4.0588388 -0.34666991 -0.21326856 2
-4.1974387 6.9993982 -0.10201007 3
-3.9530153 -4.1381745 -0.091568612 3
-3.7484167 1.8880706 -0.18264835 2
-3.6365175 4.951499 -0.07469029 3
-3.7870998 7.0350404 -0.10222676 3
-3.9052923 -2.6261458 0.024328502 3
-3.6099429 1.5046412 0.094899125 4
-3.5856895 -9.009408 -0.21178086 3
-3.3631957 -3.0361717 -0.22532012 2
-3.5413475 2.1203279 -0.17805094 2
-3.3895638 4.1369262 -0.17655429 2
-3.4482219 -3.9876883 0.060553733 4
-3.3856719 -2.9152648 0.17394139 4
-3.5009317 -2.5455189 0.20538597 4.5
-3.4381821 1.5356611 0.13878639 4.3333335
-3.2401395 1.6449121 0.04928302 3.5
-3.4825222 -2.5548151 0.55346763 7.25
-2.9628763 -8.6425667 -0.21632227 2
-2.8285415 -4.4231353 -0.20574677 2
-3.1146479 -4.3688045 -0.21374261 2
-3.1628289 -3.8439376 -0.21440233 2
-3.0720053 -3.1708236 -0.21985452 2
-3.1616318 -1.4148203 -0.22321175 1
-3.1460509 -0.90546536 -0.22143145 1
-3.0210342 -0.60550988 -0.2134939 1
-2.9378302 -0.19029129 -0.21356858 1
-3.1599607 1.2988471 -0.19577843 2
-3.0689652 1.8476123 -0.01609602 3
-3.035543 2.2274685 -0.15987888 2
-3.0333638 1.8378447 0.18136422 5
-2.9674194 2.0379772 0.12864438 4.5
-2.4522271 -0.91361862 -0.21056287 1
-2.4044046 3.2576311 -0.1769266 2
-2.0244575 -3.4842575 -0.20419376 2
-2.0404615 -2.3328931 -0.20552312 1
-2.2201035 1.0961298 -0.19189022 1
-2.1362069 1.2532582 -0.19058114 1
-2.0507057 1.9396399 -0.081060961 2.3333333
-2.0464811 2.2321684 -0.060702454 3
-2.1907294 3.2784963 -0.17147678 2
-1.7636002 -4.3430543 -0.20133023 2
-1.7331569 -3.4929097 -0.19920851 2
-1.7021085 -2.4550936 -0.20083721 1
-1.8684006 -2.3442101 -0.20702983 1
-1.6354947 1.2044902 -0.18448493 1
-1.9928328 2.162823 -0.14862619 2
-1.9540851 3.2794223 -0.17099822 2
-1.9733443 1.9013965 0.049253259 4
-1.5504289 -2.590853 -0.19759993 1
-1.4287235 1.4065545 -0.18218829 1
-1.4258535 2.1192288 -0.031417888 3
-1.3005198 2.4280505 -0.17502181 1
-1.5389805 3.0544693 -0.16776563 2
-1.3375392 3.4701865 -0.16627148 2
-1.4303538 1.5498258 0.073243298 4
-1.2394438 1.6322118 0.076726727 4
-1.2287811 9.5616121 0.39308962 4
-1.3653023 9.5513563 0.6585921 5.6666665
-1.4111664 9.5537291 0.94187129 6
-1.3076172 9.5677233 1.4944974 8
-1.3476806 9.5684462 1.8181148 8.666667
-1.3700792 9.5663805 2.9374213 12
-1.0208788 -3.4087849 -0.18883893 2
-0.90167403 -2.3061037 -0.18408623 1
-0.98767006 2.2219741 -0.17447564 1
-0.99270374 5.0869789 -0.072963513 3
-0.83131617 5.6591563 -0.08169736 3
-0.85775447 -2.0817993 0.19104354 5.75
-1.0583397 1.351403 0.34296465 9
-1.0440965 1.6954406 0.051191073 4
-0.80623996 2.2445507 0.015875852 3
-1.1186546 7.7564311 0.1601008 4
-0.83180714 -2.0506182 0.43306243 9.5
-1.0552908 9.5886135 0.59412378 5.3333335
-0.85422283 9.6146536 0.60451448 5.5
-1.0818887 9.5856371 0.93225914 6
-1.048555 9.58566 1.395798 7.6666665
-0.90109032 9.6086655 1.2684634 7
-0.96489114 9.6066904 1.7418913 8.5
-0.87230819 9.7267551 3.0805011 12
-0.79385853 -2.5366724 -0.18613639 1
-0.51334912 -2.014679 -0.067934416 2.2
-0.66268879 2.0945745 -0.10240292 2
-0.62104696 3.1445019 -0.16765237 2
-0.49029776 3.2918484 -0.16544971 2
-0.73780036 7.420486 -0.10747119 3
-0.50760162 -2.0314293 0.1908168 5.9333334
-0.7251386 1.5219809 0.32247916 9
-0.58193797 1.6659062 0.28390589 8.125
-0.54795492 2.0542936 0.059238452 4
-0.73452169 3.6536479 0.13124292 4
-0.66992068 9.6217518 0.31120801 4
-0.45573527 -2.0119672 0.42322525 9.5
-0.53662771 1.7054102 0.40223515 10
-0.63232154 9.6445417 0.42474654 5
-0.75262928 9.6357088 0.92762411 6
-0.59200233 9.6292057 1.349538 7.5
-0.56213284 9.6673737 1.8788185 9
-0.64657533 9.6588068 2.0757346 9.5
-0.66828501 9.7795849 3.0602157 12.25
-0.59679383 9.6713676 3.334785 13
-0.063401446 -2.9295766 -0.1770791 1
-0.08005853 -2.0946038 -0.061378073 2
-0.22862469 -1.9892361 -0.066785656 2.25
-0.13419341 1.894093 -0.16957925 1
-0.35541433 2.0269406 -0.17189185 1
-0.33669055 3.3532898 -0.15924256 2
-0.19411115 3.666841 -0.16405472 2
-0.0017997465 4.2005911 -0.15783319 2
-0.39275292 7.4718647 -0.10909861 3
-0.3072359 -2.0174549 0.14309028 5.4000001
-0.14949118 -1.9840571 0.17804526 6
-0.043783702 -1.9506117 0.53573859 11.333333
-0.30732918 9.6661005 1.4820691 8
-0.38903922 9.7880144 2.9779959 12
-0.25848648 9.6911449 3.3491156 13
0.32840198 -3.7024734 -0.17516562 2
0.14688492 1.9301606 -0.16875915 1
0.14289726 2.4275532 -0.024741748 3
0.16389944 -2.5022571 0.0018320174 3
0.35798529 -2.2238085 0.077017307 4
0.19806114 -1.9555403 0.24098574 6.8333335
0.2465996 2.2438941 0.19096822 5.875
0.12145901 2.6983209 0.030243147 4
0.1835297 -1.939338 0.53948718 11.6
0.30912569 2.1050837 0.4163979 9
0.67307603 -3.3041706 -0.16501322 2
0.53229058 -2.6847761 -0.16187906 1
0.6599986 -1.8084689 -0.15690719 1
0.46666154 1.8632184 -0.16550191 1
0.6953072 2.0897729 -0.16190732 1
0.67890733 2.9723322 -0.15737116 2
0.78769171 -2.4494965 0.058808245 4
0.49729398 -2.1638114 0.072048634 4
0.62507999 -1.8955299 0.2773805 7.25
0.64309508 1.9927975 0.33357325 8
0.57827121 2.06848 0.19468555 6
0.71416986 2.5722854 0.067623891 4
0.58324921 -1.8989089 0.52857327 11
0.55748558 2.0381904 0.43904436 9.5
0.5106166 7.7023368 7.6396861 27
0.96933371 -3.4143617 -0.16268855 2
1.0674913 -3.0120575 -0.15622705 2
1.0812041 -1.8112669 -0.14580156 1
1.0463156 0.99104631 -0.1564054 0
1.1301179 1.2998486 -0.15216613 1
0.86523432 1.6880333 -0.1624364 1
0.84943599 2.0592175 -0.16038762 1
1.0871865 2.6394258 -0.15432133 2
0.85831869 2.8252034 -0.15531813 2
1.1331543 5.8315234 -0.12803817 3
0.92175508 -1.8635676 0.28837079 7.4000001
0.86420286 1.9975177 0.15160553 5
0.84744018 2.0169547 0.23485753 6.5
0.87032807 2.4421785 0.062652543 4
0.94185132 -1.8532706 0.57439095 11
1.0716463 7.7506747 7.6946945 27
1.5093293 -2.815938 -0.14332657 2
1.3308889 -1.4199831 -0.13876823 1
1.4524226 -0.94732863 -0.13876264 1
1.4081299 -0.55538094 -0.13711047 0.66666669
1.252746 -0.39965487 -0.14226088 0
1.2848762 0.56922513 -0.15021034 0
1.2773588 1.164656 -0.15287633 1
1.2394708 1.2412288 -0.15479107 1
1.3237951 2.4923229 -0.15538356 2
1.4307871 5.8253522 -0.11094403 3
1.3893052 -2.1300764 0.071743846 4
1.389351 2.1812394 0.61383623 10.333333
1.2200832 7.9590168 7.4911084 26
1.2094109 7.7585111 7.7080936 27
1.8062844 -2.5790179 -0.13426158 2
1.8521835 -2.2755423 -0.1347672 2
1.7533904 -1.8119643 -0.1230085 2
1.8710575 -0.44861493 -0.12553093 1
1.6993707 0.33147314 -0.14705738 1
1.9141501 0.803563 -0.14819416 1
1.9478146 1.5355825 -0.14189915 1
1.839744 1.8333083 -0.14703153 2
1.8154371 2.00564 -0.15189558 2
1.8715342 6.1220145 -0.15384313 3
1.7033241 -2.1255684 0.092507891 4
1.9056935 -1.7889166 0.1783136 5
1.7432753 -1.7610196 0.63131654 10.5
1.7051851 -1.7614812 0.80010241 12
1.8060867 7.7947421 7.8526402 26.666666
1.8009465 8.0424318 7.6818271 26
2.2347205 -8.6142282 -0.14337301 3
2.032259 -4.3884492 -0.14439867 2
2.3362923 -3.2789774 -0.063479759 3
2.2087498 -1.7072414 -0.073142804 2.25
2.0790327 -1.2722728 -0.11852164 2
2.1413779 -1.0442119 -0.11976659 2
2.350229 1.0678126 -0.14408153 2
2.241405 1.2065387 -0.14520285 1
2.1713693 5.6520777 -0.10992183 3
2.123266 -3.3396103 0.036458854 3
2.6072752 -8.4569101 -0.14078535 3
2.5542934 -3.2521617 -0.066293202 3
2.6535194 -0.94774801 -0.12554742 2
2.484731 0.17962979 -0.14046304 2
2.490556 0.4681657 -0.14437544 2
2.7130845 1.4657114 -0.14364812 2
2.6642406 2.6805651 -0.04733913 3
2.6339502 2.9166527 -0.046138726 3
2.4442432 -1.7268564 0.19115639 4.5
2.6879501 2.5402312 0.1688191 4.8000002
2.6833048 2.8098133 0.18473466 5
2.6784916 2.6689825 0.48663336 7
3.1484985 -14.608665 -0.026868025 3
3.0720072 -8.5525246 -0.14201044 3
2.8492925 2.6255064 -0.1416049 2
2.9501004 2.0899663 0.068236999 4
3.4869354 2.1392639 -0.13104635 2
3.4553072 2.5999532 -0.13145649 2
3.4455476 2.8588581 -0.13217717 2
3.3504496 4.0752478 -0.13211492 2
3.5713143 7.6476798 -0.12781253 3
3.5011764 2.378262 0.017224753 3
3.2955742 2.4647191 0.010632883 3
3.8897645 -4.1539063 -0.09932214 3
3.8432598 1.8087152 -0.20623116 2
4.1505103 -1.093433 -0.10639019 2
4.0862584 2.4746232 -0.11259519 3
4.6209002 -1.7074171 -0.09400668 3
4.4846864 1.4330307 -0.11496606 3
4.7871141 -25.760805 21.177319 24
4.497714 -25.75552 21.267788 24
4.9065833 0.3078692 -0.1202023 3
4.9346218 1.2995402 -0.10510715 3
4.8047938 2.6261442 -0.11760452 3
5.1276312 -9.3799696 0.082603917 3
4.9139214 4.5470681 1.5204436 10
4.9476991 4.6520357 2.003495 12
5.0710921 8.2252617 9.1476049 26
4.8831358 8.0967207 9.5516777 27
4.9794025 8.0207205 9.6525812 27
5.2467489 1.136448 -0.10506399 3
5.3989015 2.3910789 0.090968862 4
5.2996893 2.4848363 0.1563011 4
5.3341403 2.2838142 0.54557741 6
5.3397555 2.2680099 0.963377 8.5
5.5409865 8.1036177 9.7241993 27
5.9647341 2.7187774 -0.41246068 2
5.7864594 8.2798338 9.4385881 26
5.7753553 8.0918407 9.8059988 27
8.7934074 2.8054819 0.3462002 4
8.8954439 1.417972 -0.070908085 3
8.9001617 -8.7934523 0.30925485 4
13.539207 -7.0894179 0.19290842 3
13.95808 -8.227108 0.060068659 3
15.119517 -6.1937237 0.16817011 3
15.760489 4.1058307 0.24190278 4
16.049042 -7.453537 0.20270656 3
19.94562 -6.931776 0.4985944 4
20.76004 4.3756709 0.18131532 4
20.699764 4.5339289 1.59479 6
20.560175 5.5648384 1.5032648 5
20.618723 5.0539179 1.7785743 6
20.6164 5.4701953 1.6209551 6
20.548481 5.6088357 1.9483811 6
20.593178 5.1535888 2.3803401 7
20.540953 5.6330676 2.3714483 7
20.470909 6.1113725 2.3605654 7
20.709597 4.3593168 2.6003919 7
20.626484 5.3481727 2.6276836 7
20.565224 5.8394403 2.6388245 7
20.625418 5.2631936 3.1995091 8
20.569292 5.7386498 3.2176116 8
20.788515 4.2885771 3.7450798 9
21.452524 -6.3711033 0.26513362 3
22.331619 -0.9872691 0.34210342 4
24.512079 -5.9844575 0.27724901 3
28.040943 4.5751109 0.4147858 4
