# .PCD v0.7 - Point Cloud Data file format
VERSION 0.7
FIELDS x y z intensity
SIZE 4 4 4 4
TYPE F F F F
COUNT 1 1 1 1
WIDTH 1395
HEIGHT 1
VIEWPOINT 0 0 0 1 0 0 0
POINTS 1395
DATA ascii
0.21949291 -4.3511143 -0.24687883 0
0.31605709 -4.3746204 -0.24586529 0
-1.4215608 -4.2280698 -0.26059178 0
-1.2142628 -4.2478361 -0.25624567 0
-1.1029265 -4.2230783 -0.25506565 0
-0.91213584 -4.2954483 -0.25438273 0
-0.89509058 -4.2099652 -0.25258848 0
-0.60527009 -4.2663651 -0.24981189 0
-0.070118561 -4.2474442 -0.24812064 0
0.082675353 -4.2110233 -0.24112445 0
0.15028074 -4.2650261 -0.24458185 0
0.25166142 -4.2188511 -0.24291787 0
0.30229282 -4.2977157 -0.24389897 0
-1.3946339 -4.1443915 -0.25865981 0
-1.1912103 -4.163269 -0.25439653 0
-1.0816948 -4.1375589 -0.25304922 0
-0.87804526 -4.1244826 -0.25079423 0
-0.59299999 -4.1929998 -0.24699999 0
-0.067000002 -4.1599998 -0.24600001 0
0.079540282 -4.1212187 -0.23889956 0
0.14699356 -4.1758232 -0.24233788 0
0.2432131 -4.1356573 -0.24094278 0
-1.3677071 -4.0607133 -0.25672784 0
-1.1681577 -4.0787015 -0.25254741 0
-1.0604632 -4.0520391 -0.25103283 0
-0.861 -4.039 -0.249 0
0.076405212 -4.031414 -0.23667467 0
0.13464694 -4.0603671 -0.24020399 0
0.23476478 -4.0524635 -0.23896769 0
2.47 -4.0050001 -0.211 0
-1.3407804 -3.977035 -0.25479588 0
-1.1335788 -3.9518509 -0.2497737 0
-1.0392317 -3.9665196 -0.2490164 0
0.073270142 -3.9416094 -0.23444979 0
0.13978718 -3.9527025 -0.23674396 0
0.20539716 -3.9484458 -0.23795153 0
2.4208677 -3.928854 -0.21127194 0
-1.3138536 -3.8933568 -0.25286391 0
-1.2869267 -3.8096783 -0.25093195 0
-1.0585001 -3.8530002 -0.24699999 0
0.070135072 -3.8518047 -0.2322249 0
0.1365 -3.8635001 -0.23449999 0
0.20226477 -3.858964 -0.23596768 0
2.3715808 -3.8524687 -0.21154475 0
-1.26 -3.7260001 -0.249 0
0.067000002 -3.7620001 -0.23 0
0.19913238 -3.7694819 -0.23398384 0
2.3222942 -3.7760832 -0.21181756 0
0.19599999 -3.6800001 -0.23199999 0
2.248364 -3.6615052 -0.21222676 0
2.1744339 -3.546927 -0.21263598 0
2.1251471 -3.4705417 -0.21290877 0
1.7668277 -3.3290181 -0.20757705 0
2.0512168 -3.3559635 -0.21331799 0
1.7126899 -3.2222323 -0.20583867 0
1.816525 -3.238194 -0.20559019 0
1.9772867 -3.2413855 -0.21372719 0
1.6717243 -3.1414287 -0.20452327 0
1.7624187 -3.140089 -0.20365782 0
1.928 -3.165 -0.214 0
0.51122195 -3.0182376 -0.20044069 0
1.6307588 -3.0606251 -0.20320785 0
1.7197875 -3.0627906 -0.20213526 0
1.882761 -3.0187702 -0.20171283 0
1.9292206 -3.0947256 -0.20297876 0
0.50099999 -2.937 -0.206 0
1.5897932 -2.9798214 -0.20189245 0
1.6771562 -2.9854922 -0.20061272 0
1.837081 -2.9440887 -0.20046814 0
1.5488276 -2.8990178 -0.20057704 0
-1.5089999 -2.651 -0.233 0
-1.5232375 -2.5345836 -0.22963643 0
-1.4531114 -2.551398 -0.22962615 0
-1.554 -2.4519999 -0.228 0
-1.4716655 -2.4475214 -0.22686374 0
-1.3880892 -2.4355185 -0.22570091 0
-1.5487185 -2.3606739 -0.22673041 0
-1.4457037 -2.3402815 -0.22403376 0
-1.3447409 -2.3582654 -0.22308409 0
-1.646 -2.2290001 -0.228 0
-1.502582 -2.2504742 -0.22397961 0
-1.4182929 -2.2345726 -0.22134407 0
-1.3402257 -2.2659419 -0.2207164 0
-1.2580446 -2.2037592 -0.21785045 0
-1.6525732 -2.1660986 -0.22785468 0
-1.5712152 -2.126539 -0.22427057 0
-1.4309365 -2.1413558 -0.2204847 0
-1.3720343 -2.1604581 -0.21907525 0
-1.2535622 -2.1357219 -0.21623048 0
-2.0137353 -2.0138977 -0.204 0
-1.6339865 -2.0560002 -0.22403502 0
-1.5201793 -2.0566158 -0.22172548 0
-1.3425333 -2.0592904 -0.21689811 0
-1.2635679 -2.0407605 -0.21467791 0
-1.1713482 -2.049253 -0.21261682 0
-1.9410231 -1.9426157 -0.204 0
-1.6476002 -1.9586548 -0.22056478 0
-1.5594064 -1.9611347 -0.22069865 0
-1.4617443 -1.9439319 -0.21850969 0
-1.3115273 -1.9594915 -0.21465987 0
-1.218034 -1.9658802 -0.21233895 0
-1.143 -1.9449999 -0.20999999 0
-1.8443527 -1.8478465 -0.204 0
-1.7079999 -1.817 -0.219 0
-1.6374209 -1.8085017 -0.20064867 0
-1.5512834 -1.8568414 -0.21702206 0
-1.4454865 -1.8595003 -0.21703504 0
-1.3670717 -1.8468463 -0.2140902 0
-1.2398818 -1.8503728 -0.21116495 0
-1.187 -1.864 -0.20999999 0
-1.80312 -1.7414089 -0.20556138 0
-1.7476821 -1.7530771 -0.204 0
-1.6584752 -1.7633934 -0.21695915 0
-1.5547678 -1.7665812 -0.20835534 0
-1.4494781 -1.7474078 -0.2132498 0
-1.3498408 -1.7631412 -0.21252672 0
-1.265 -1.707 -0.20900001 0
-1.743 -1.684 -0.21799999 0
-1.6625156 -1.6481447 -0.20796508 0
-1.5347646 -1.6522431 -0.20909421 0
-1.4393839 -1.6360406 -0.20717767 0
-1.355267 -1.6586205 -0.21020111 0
-1.288 -1.653 -0.20900001 0
-1.6260189 -1.5696551 -0.21371618 0
-1.5604277 -1.5375149 -0.20776856 0
-1.4741243 -1.5235692 -0.2063562 0
-1.344846 -1.5658851 -0.20679443 0
-2.3560944 -1.4313276 -0.22235876 0
-1.5070095 -1.4533275 -0.2093581 0
-1.4133122 -1.4610345 -0.2051781 0
-1.339 -1.4519999 -0.205 0
-2.2517335 -1.371133 -0.22004358 0
-2.1762779 -1.3276107 -0.21836965 0
-1.4475048 -1.3951638 -0.20717904 0
-1.3745 -1.3555 -0.20449999 0
-2.1008224 -1.2840886 -0.21669571 0
-2.0253668 -1.2405665 -0.21502179 0
-1.9499111 -1.1970444 -0.21334785 0
-1.8744556 -1.1535221 -0.21167393 0
-1.799 -1.11 -0.20999999 0
-2.325 -0.92699999 -0.213 0
-2.2937331 -0.91477388 -0.21255906 0
-2.3176928 -0.86088765 -0.21099713 0
-2.2222195 -0.85624409 -0.21080148 0
-2.1273482 -0.84971303 -0.2102126 0
-2.0441556 -0.8171826 -0.20903938 0
-2.304812 -0.79525346 -0.20997128 0
-2.2184436 -0.76578397 -0.20883784 0
-2.1423373 -0.76838756 -0.20858654 0
-2.0585032 -0.73876071 -0.20764562 0
-1.9721997 -0.76165253 -0.20787594 0
-1.8888597 -0.73012203 -0.20690075 0
-1.7945777 -0.71959126 -0.20551969 0
-2.2712319 -0.63710004 -0.20586044 0
-2.1653166 -0.63553661 -0.2044279 0
-2.0840533 -0.61242926 -0.20334232 0
-1.9659023 -0.67961502 -0.20552365 0
-1.8490918 -0.66424191 -0.20537516 0
-1.7473003 -0.65209699 -0.20440499 0
-1.63884 -0.63553047 -0.20397519 0
-1.545 -0.62199998 -0.20200001 0
-2.2563615 -0.54693389 -0.2049287 0
-2.1503901 -0.55790931 -0.20408522 0
-2.031049 -0.54418677 -0.20270066 0
-1.9265821 -0.54203963 -0.20089898 0
-1.8402632 -0.54310733 -0.20008558 0
-1.7133609 -0.59344602 -0.20220946 0
-1.6291804 -0.56472301 -0.20110473 0
-1.566 -0.58600003 -0.204 0
-1.9445941 -0.47130066 -0.20316978 0
-1.816396 -0.44020045 -0.20244652 0
-1.7309307 -0.41946697 -0.20196435 0
-1.6454653 -0.39873347 -0.20148218 0
-1.5599999 -0.37799999 -0.20100001 0
-2.7115002 -0.043000001 -0.212 0
-2.6570933 -0.051868815 -0.21145408 0
-2.5409486 -0.028579881 -0.21022658 0
-2.4362605 -0.036112174 -0.20917016 0
-2.3548803 -0.034056086 -0.20833509 0
-2.2735 -0.032000002 -0.20750001 0
-2.3118777 0.04728077 -0.20247304 0
-2.24 0.046999998 -0.205 0
-2.446589 0.16306898 -0.20046552 0
-2.3730593 0.15937932 -0.20231034 0
-2.2627649 0.15384483 -0.20507759 0
-2.266155 0.20704854 -0.2002136 0
-2.1929998 0.22800002 -0.204 0
-2.2441173 0.31253991 -0.20020188 0
-2.1789999 0.30500001 -0.205 0
-3.54845 0.78215861 -0.20237216 0
-3.421 0.75099999 -0.205 0
-3.6006191 0.89855367 -0.20663822 0
-3.5168097 0.87877685 -0.20981911 0
-3.4330001 0.85900003 -0.213 0
-3.7682381 0.93810737 -0.20027643 0
-3.6583083 0.9568454 -0.20643355 0
-3.5447919 0.97224027 -0.21027318 0
-3.4573958 0.9491201 -0.21113659 0
-3.3699999 0.926 -0.212 0
-3.9817719 1.0878409 -0.20595615 0
-3.850678 1.0531607 -0.20725125 0
-3.719584 1.0184805 -0.20854637 0
-4.2624803 1.1621007 -0.20318297 0
-4.1565642 1.1340812 -0.20422933 0
-4.0691681 1.1109611 -0.20509274 0
-1.608 -3.7179999 -0.124 0
-1.5754057 -3.6395743 -0.112044 0
-1.5428114 -3.5611486 -0.100088 0
0.5550549 -3.3665943 -0.17660172 0
0.54188782 -3.2619507 -0.18376276 0
0.53166586 -3.1807129 -0.18932207 0
0.5214439 -3.0994754 -0.19488138 0
1.6345251 -2.9081938 -0.19909018 0
1.9456966 -2.9651287 -0.19965899 0
1.5498779 -2.8245549 -0.19841464 0
1.7914007 -2.8694072 -0.19922346 0
1.8834801 -2.8680775 -0.19827254 0
2.0309999 -2.803 -0.19599999 0
1.4668967 -2.7374108 -0.19794622 0
1.5492625 -2.7535968 -0.19604509 0
1.7451382 -2.745496 -0.19696486 0
1.8365667 -2.794898 -0.19722712 0
1.9747012 -2.7233229 -0.19520481 0
2.0441589 -2.7532716 -0.19495282 0
1.4259311 -2.6566072 -0.19663082 0
1.5066313 -2.6762984 -0.19452254 0
1.6543603 -2.6453629 -0.19548938 0
1.74274 -2.6485388 -0.19513626 0
1.9250842 -2.6531024 -0.19450401 0
2.0576456 -2.6394491 -0.19239497 0
1.3849655 -2.5758035 -0.19531541 0
1.464 -2.599 -0.193 0
1.6511401 -2.5494068 -0.19379365 0
1.850659 -2.5477717 -0.19345281 0
1.9522184 -2.5624237 -0.19334246 0
2.0469313 -2.5628548 -0.19013312 0
1.344 -2.4949999 -0.19400001 0
1.563 -2.4960001 -0.193 0
1.602 -2.4289999 -0.192 0
1.7762337 -2.442441 -0.1924016 0
1.8761456 -2.4599493 -0.19289498 0
1.9663745 -2.4600286 -0.18839031 0
1.677 -2.302 -0.191 0
1.750666 -2.3477685 -0.19199955 0
1.8556242 -2.3744178 -0.18962207 0
1.7512045 -2.2375507 -0.18816188 0
1.8321134 -2.2886519 -0.18548563 0
1.7247045 -2.1515505 -0.18316187 0
-2.1118598 -2.0362267 -0.14168414 0
-1.901 -2.0929999 -0.19599999 0
-1.8498154 -2.0377531 -0.19690272 0
1.671 -2.0829999 -0.182 0
-2.0435998 -1.9710449 -0.15580693 0
-1.9834799 -1.9136358 -0.16824554 0
-1.7587892 -1.9395025 -0.19850813 0
1.4284872 -1.9370618 -0.18078414 0
-1.9233599 -1.8562269 -0.18068415 0
-1.698105 -1.8740022 -0.19957839 0
1.3674785 -1.852603 -0.17964022 0
1.4641056 -1.843888 -0.18083027 0
-1.8632399 -1.798818 -0.19312277 0
1.2684871 -1.7155617 -0.17778413 0
1.3512863 -1.7697765 -0.17929818 0
1.4671174 -1.7451843 -0.17893124 0
1.997 -1.735 -0.18799999 0
1.2551417 -1.6543951 -0.17729178 0
1.3527862 -1.6334301 -0.17726023 0
1.4360168 -1.6808676 -0.17792104 0
1.533 -1.632 -0.17900001 0
1.8608866 -1.6183057 -0.18458368 0
1.9298739 -1.6774509 -0.18631519 0
1.159531 -1.5385901 -0.17539017 0
1.2499038 -1.569092 -0.17622018 0
1.3284101 -1.5529206 -0.17595263 0
1.4655671 -1.5341859 -0.17686957 0
1.541 -1.564 -0.177 0
1.7574055 -1.529588 -0.18198639 0
1.1465 -1.4365001 -0.17399999 0
1.2342389 -1.4640876 -0.17464344 0
1.3671899 -1.4523312 -0.17553532 0
1.4355052 -1.4550514 -0.1748022 0
1.5327021 -1.4493234 -0.1751397 0
1.6539245 -1.4408705 -0.17938912 0
1.846318 -1.455663 -0.17380492 0
1.1670001 -1.3609999 -0.17299999 0
1.2543966 -1.3301104 -0.17317845 0
1.3492653 -1.3660712 -0.17326277 0
1.4552233 -1.3746176 -0.1736235 0
1.5589554 -1.3334273 -0.17533028 0
1.682727 -1.3289945 -0.17245738 0
1.7526815 -1.3831602 -0.17303361 0
1.198 -1.2690001 -0.17200001 0
1.2461128 -1.239782 -0.17047702 0
1.350566 -1.2418026 -0.17169552 0
1.4460051 -1.2534691 -0.17276771 0
1.5710415 -1.2104491 -0.17176121 0
1.6127725 -1.2748287 -0.17188115 0
1.2405499 -1.1580752 -0.16936041 0
1.3415809 -1.1472533 -0.17081325 0
1.4445187 -1.1284131 -0.17042279 0
1.5458587 -1.1368419 -0.17082317 0
1.2513334 -1.0446666 -0.16899998 0
1.3428314 -1.0550642 -0.16947773 0
1.4347069 -1.0361111 -0.16905411 0
1.5723681 -1.0268875 -0.16970512 0
1.2715 -0.93849999 -0.16749999 0
1.3388827 -0.96524447 -0.16782165 0
1.4515851 -0.94623435 -0.1681314 0
1.5822192 -0.92908144 -0.16789979 0
1.288 -0.83700001 -0.16599999 0
1.3608968 -0.8403672 -0.16665122 0
1.4347192 -0.84008145 -0.16689979 0
1.5010788 -0.88012218 -0.16734968 0
1.7740082 -0.81113428 -0.16529621 0
1.8639214 -0.85107839 -0.16592279 0
2.1718678 -0.81943059 -0.16446419 0
2.2558491 -0.85049212 -0.16467336 0
2.3634152 -0.89027679 -0.16494127 0
1.302 -0.75999999 -0.16599999 0
1.5375041 -0.70606714 -0.16364811 0
1.6557561 -0.75860071 -0.16447216 0
1.782164 -0.71334159 -0.16357616 0
1.8609999 -0.74400002 -0.164 0
1.9199246 -0.72624606 -0.16383667 0
2.0458963 -0.77283835 -0.16415043 0
2.3629999 -0.70499998 -0.161 0
1.3404174 -0.6185112 -0.16227469 0
1.4586694 -0.67104477 -0.16309874 0
1.5632911 -0.61108541 -0.16264403 0
1.6452119 -0.64214462 -0.1629633 0
1.7491455 -0.65506631 -0.16282113 0
1.8627853 -0.63541925 -0.16097334 0
2.0786424 -0.62090433 -0.161 0
2.1642494 -0.6462217 -0.161 0
2.2498567 -0.67153907 -0.161 0
2.3354638 -0.69685644 -0.161 0
-1.7589999 -0.51999998 -0.199 0
-1.545 -0.53600001 -0.2 0
1.3429303 -0.54252851 -0.16121468 0
1.4665558 -0.55035555 -0.16157907 0
1.5620427 -0.52569783 -0.16172457 0
1.639415 -0.55003369 -0.16145766 0
1.7412343 -0.56174827 -0.1608327 0
1.8535603 -0.51837099 -0.15840542 0
1.9502319 -0.58292818 -0.161 0
2.0705216 -0.51380885 -0.15899999 0
2.1569419 -0.53527701 -0.15899999 0
2.2433622 -0.55674517 -0.15899999 0
2.3353913 -0.57960665 -0.15899999 0
-1.84571 -0.49489164 -0.19930145 0
-1.7597826 -0.47191873 -0.19797608 0
-1.6738551 -0.44894582 -0.19665073 0
-1.5449637 -0.41448647 -0.19466269 0
1.3493476 -0.47139931 -0.16107485 0
1.5625 -0.44800001 -0.16049999 0
1.6411642 -0.44885859 -0.15976803 0
1.739055 -0.45862913 -0.15850677 0
1.854471 -0.4601385 -0.15899999 0
1.9841013 -0.49234074 -0.15899999 0
1.5506667 -0.34533334 -0.15899999 0
1.6471248 -0.34905744 -0.15876718 0
1.7477016 -0.35468283 -0.15783592 0
1.8475767 -0.37295866 -0.15706873 0
1.545 -0.228 -0.15899999 0
1.6563365 -0.24411944 -0.15712565 0
1.767673 -0.26023886 -0.15525129 0
1.8419486 -0.27099258 -0.15400086 0
1.528 -0.15099999 -0.15800001 0
1.6403967 -0.16283123 -0.15652111 0
1.7527934 -0.17466247 -0.15504219 0
1.8298624 -0.18277498 -0.15402812 0
2.2390001 -0.124 -0.153 0
2.3290904 -0.12936252 -0.15319499 0
2.4191806 -0.13472503 -0.15339001 0
2.554316 -0.14276882 -0.1536825 0
2.6894517 -0.1508126 -0.153975 0
2.779542 -0.15617511 -0.15417001 0
2.8696322 -0.16153763 -0.154365 0
2.9597225 -0.16690014 -0.15456 0
3.0498128 -0.17226267 -0.15475501 0
3.1514516 -0.1783126 -0.154975 0
1.4910001 -0.003 -0.156 0
1.5519658 -0.04943496 -0.15743393 0
1.6543807 -0.058839802 -0.15652762 0
1.748575 -0.070119224 -0.15379469 0
1.8113441 -0.0806254 -0.15267535 0
2.4870839 -1.3950281e-05 -0.14990021 0
2.5779693 -0.0010156939 -0.14926274 0
2.6688547 -0.0020174375 -0.14862527 0
2.7579999 -0.0029999996 -0.148 0
-2.4758167 0.047921158 -0.19670957 0
-2.3837557 0.047561545 -0.19994609 0
1.473 0.067000002 -0.155 0
1.5464268 0.045899928 -0.15704624 0
1.6509881 0.050614331 -0.15518396 0
1.7527158 0.037742201 -0.15407546 0
1.8542119 0.045518816 -0.15340239 0
1.9447571 0.047037628 -0.15280481 0
2.0450432 0.022480635 -0.15211701 0
2.1488161 0.026205009 -0.15077068 0
2.2394664 0.026944399 -0.1507142 0
2.346637 0.021009788 -0.15062772 0
2.4330506 0.042140868 -0.15063301 0
2.5235832 0.043750823 -0.15086703 0
2.6396661 0.049758852 -0.15045232 0
2.7292647 0.047693238 -0.15125766 0
2.8544116 0.036233094 -0.15464413 0
2.990294 0.037079714 -0.15577295 0
3.0808823 0.037644126 -0.15652551 0
3.138 0.037999999 -0.15700001 0
-2.5050001 0.16599999 -0.199 0
1.4755 0.12 -0.15650001 0
1.5492325 0.12387487 -0.15518339 0
1.6419253 0.13554139 -0.15323621 0
1.7491099 0.13042492 -0.15182506 0
1.8473349 0.14299515 -0.15088198 0
1.9366696 0.15099028 -0.15026394 0
2.0226097 0.13955963 -0.15055981 0
2.134028 0.13521704 -0.1496437 0
2.2412357 0.13151377 -0.14887057 0
2.3456883 0.14289762 -0.1481874 0
2.4598207 0.14447653 -0.14758527 0
2.5685618 0.14921218 -0.14703156 0
2.6595144 0.14564125 -0.14639771 0
2.7545426 0.1606278 -0.14718206 0
2.8673816 0.16585875 -0.1470326 0
-2.4082327 0.21757278 -0.19232041 0
-2.3460615 0.25006929 -0.19422682 0
-2.253937 0.26005545 -0.19962662 0
1.4365001 0.2405 -0.155 0
1.5457551 0.25389415 -0.15320149 0
1.6821902 0.26287192 -0.15243146 0
1.7379372 0.24940935 -0.15172356 0
1.8491808 0.26621604 -0.1503925 0
1.9551892 0.27789962 -0.14888839 0
2.0774574 0.2876294 -0.14698589 0
2.1975029 0.20091587 -0.14786632 0
2.2866035 0.20989905 -0.1472396 0
2.3757038 0.21888223 -0.14661287 0
2.4648046 0.2278654 -0.14598612 0
2.553905 0.23684858 -0.1453594 0
2.605 0.242 -0.145 0
-2.3391173 0.32353991 -0.19320188 0
-2.0505981 0.38562104 -0.19088176 0
-1.645081 0.37552026 -0.19033095 0
-1.5190324 0.34400812 -0.19073237 0
-1.4349999 0.32300001 -0.191 0
-1.358 0.37599999 -0.183 0
1.397 0.33899999 -0.154 0
1.4854764 0.35946703 -0.15271507 0
1.5739528 0.37993407 -0.15143014 0
1.6797282 0.32396653 -0.15058862 0
1.7770543 0.34175861 -0.15011221 0
1.8646088 0.35901722 -0.1489744 0
1.9560632 0.36544254 -0.14831911 0
2.0539019 0.35075021 -0.14777564 0
2.1481762 0.34983751 -0.14653525 0
2.2435768 0.34751621 -0.14583798 0
2.3371453 0.33978152 -0.14461759 0
2.425952 0.35317889 -0.14356296 0
2.5133688 0.36636817 -0.14252421 0
2.6024864 0.3933737 -0.14194268 0
-2.322392 0.43348414 -0.19002706 0
-2.2385881 0.41872621 -0.1902906 0
-2.1633921 0.40548414 -0.19052707 0
-2.0528328 0.45880452 -0.18899676 0
-1.9503981 0.44401622 -0.18846476 0
-1.855162 0.4280405 -0.18966191 0
-1.7711296 0.4070324 -0.18992952 0
-1.6510813 0.46370399 -0.1847629 0
-1.525475 0.42611656 -0.18400736 0
-1.4417375 0.40105829 -0.18350369 0
1.3665 0.421 -0.15349999 0
1.4621996 0.46021953 -0.15172528 0
1.541111 0.45148173 -0.14992179 0
1.6468652 0.43004128 -0.14984263 0
1.7343899 0.45187363 -0.14844631 0
1.8317327 0.44845682 -0.14792272 0
1.9444033 0.4610256 -0.1462812 0
2.0258305 0.43856868 -0.1456836 0
2.1444573 0.44544899 -0.14411156 0
2.2370243 0.44722828 -0.14343983 0
2.340709 0.44398633 -0.14317879 0
2.4452064 0.45787087 -0.1421092 0
2.5461655 0.44390213 -0.14218512 0
2.6589999 0.4325 -0.141 0
-2.2605424 0.5347141 -0.18799999 0
-2.1708133 0.51432121 -0.18799999 0
-2.037359 0.54408473 -0.18825375 0
-1.951067 0.52517837 -0.18713547 0
-1.8672125 0.55767488 -0.18551105 0
-1.7766875 0.50129145 -0.18551843 0
1.299 0.56099999 -0.152 0
1.3642026 0.54051387 -0.15174888 0
1.463668 0.55717486 -0.15022452 0
1.5482724 0.55009007 -0.14927584 0
1.6281685 0.5355323 -0.14845456 0
1.7690102 0.57819396 -0.14572734 0
1.8458054 0.5363248 -0.14453493 0
1.9763887 0.57268608 -0.14222628 0
2.0743265 0.55743653 -0.1424312 0
2.1567831 0.52155834 -0.14298885 0
2.2705281 0.55159748 -0.14129804 0
2.3682251 0.53959548 -0.14011279 0
2.5708425 0.50900304 -0.13907492 0
-2.0090001 0.625 -0.18700001 0
-1.9551744 0.64130533 -0.18577762 0
-1.8524051 0.66355401 -0.18412852 0
1.2590001 0.63550001 -0.15099999 0
1.3360822 0.67457277 -0.14881906 0
1.450913 0.65930027 -0.14815284 0
1.554 0.64049995 -0.14750001 0
1.8535151 0.60379094 -0.144091 0
1.9380202 0.62938792 -0.14245465 0
2.0225253 0.65498483 -0.14081833 0
2.1287651 0.65087485 -0.13916503 0
2.2605183 0.65180284 -0.13720299 0
2.3210578 0.67792422 -0.13654152 0
2.456188 0.60655153 -0.13835773 0
-1.9518464 0.73996031 -0.18530765 0
-1.8485622 0.75406909 -0.18395525 0
-1.7605 0.76750004 -0.1825 0
-1.4548599 0.77322692 -0.1821492 0
-1.381 0.73100001 -0.182 0
-1.2661309 0.75436324 -0.17612565 0
-1.192 0.708 -0.176 0
1.182 0.76800001 -0.15000001 0
1.239881 0.72372174 -0.1480346 0
1.3727423 0.76002407 -0.14556414 0
1.4709406 0.77124196 -0.14348488 0
1.5501453 0.75322694 -0.14450112 0
2.1632676 0.74458939 -0.13577282 0
2.2760406 0.73177576 -0.13590932 0
2.3573716 0.71728277 -0.13569435 0
-4.0157661 0.89640683 -0.19273677 0
-3.9307997 0.87563443 -0.19448866 0
-3.8458331 0.85486197 -0.19624054 0
-3.7608664 0.83408964 -0.19799244 0
-3.6759 0.81331718 -0.19974433 0
-1.9325 0.84149998 -0.184 0
-1.8455973 0.84768271 -0.18266749 0
-1.7461126 0.86151767 -0.18207899 0
-1.6395094 0.87879425 -0.18252224 0
-1.5287197 0.81545389 -0.18229842 0
-1.4514582 0.87027133 -0.17643976 0
-1.3519053 0.82794583 -0.1761061 0
-1.2685001 0.838 -0.176 0
1.1663333 0.83999997 -0.15166666 0
1.2492849 0.84825468 -0.14916484 0
1.3564382 0.89425081 -0.14710876 0
1.4551674 0.85405207 -0.14224213 0
1.5439208 0.81132263 -0.14097984 0
1.6592742 0.85090917 -0.13873023 0
1.7531061 0.84838903 -0.13985907 0
1.8342905 0.88645387 -0.13800225 0
2.0739999 0.87300003 -0.134 0
2.1433535 0.8496387 -0.13316448 0
2.204 0.81999999 -0.132 0
-4.0598335 0.95721889 -0.19086689 0
-3.9358573 0.97766101 -0.19391465 0
-3.8520477 0.95788419 -0.19709554 0
-2.016067 0.96144694 -0.182 0
-1.9343503 0.92342037 -0.182 0
-1.8563732 0.95933694 -0.18286879 0
-1.7359872 0.96203595 -0.18203366 0
-1.6508927 0.96708977 -0.17937693 0
-1.5491651 0.96032429 -0.17445153 0
-1.4350975 0.90133047 -0.17492183 0
-1.3493874 0.9408673 -0.1738942 0
-1.2318522 0.96508765 -0.17575455 0
-1.165 0.99000001 -0.17299999 0
1.074 0.96650004 -0.15000001 0
1.1405838 0.95540684 -0.15127434 0
1.2559098 0.93909627 -0.14860044 0
1.3365922 0.94590724 -0.14679421 0
1.5628105 0.91921717 -0.1393459 0
1.6422863 0.96733034 -0.13720754 0
1.9607114 0.96136743 -0.13447802 0
2.053 0.98900002 -0.133 0
2.145 0.91399997 -0.133 0
-4.039 1.002 -0.19 0
-1.8540001 1.031 -0.1815 0
-1.7410685 1.0604895 -0.1763843 0
-1.6363802 1.0506524 -0.17748034 0
-1.5486832 1.0569897 -0.1760256 0
-1.4342221 1.053262 -0.17428972 0
-1.344583 1.0630908 -0.17639773 0
-1.2449027 1.0586864 -0.17563869 0
-1.1283333 1.0573334 -0.17366667 0
-1.058 1.091 -0.169 0
0.99900001 1.064 -0.149 0
1.0491204 1.0486776 -0.1499517 0
1.1291026 1.0430794 -0.14809284 0
1.2207501 1.0427971 -0.14746456 0
1.3507844 1.0253329 -0.14476907 0
1.4372703 1.0389667 -0.14203075 0
1.5539758 1.0693476 -0.13806421 0
1.898 1.077 -0.132 0
2.0496745 1.0371068 -0.13116716 0
2.1293492 1.0772136 -0.12933432 0
-1.7523333 1.1339999 -0.17333333 0
-1.6537113 1.1606669 -0.17439401 0
-1.5672158 1.1531806 -0.17471175 0
-1.4567943 1.1551921 -0.17560041 0
-1.3634735 1.1597319 -0.174942 0
-1.2761272 1.1393666 -0.17429118 0
-1.1414019 1.1498295 -0.17151096 0
-1.0245 1.1365 -0.169 0
-0.96700001 1.1825 -0.1665 0
0.96083319 1.1484849 -0.14975223 0
1.0550542 1.153071 -0.14844015 0
1.1461493 1.1450735 -0.14732523 0
1.2422042 1.1442997 -0.14240918 0
1.3288308 1.1665279 -0.14159262 0
1.4819739 1.1262215 -0.13994846 0
1.535 1.1670001 -0.138 0
1.804 1.199 -0.133 0
1.9746641 1.1219792 -0.12945192 0
2.0513282 1.1669585 -0.12690383 0
2.2488611 1.1373739 -0.12658507 0
2.3683729 1.1975341 -0.1238358 0
-1.7325422 1.2540026 -0.17333706 0
-1.6495295 1.2437923 -0.17604524 0
-1.5359199 1.2508757 -0.17644458 0
-1.4488388 1.2529372 -0.17612164 0
-1.3417116 1.2370645 -0.17432909 0
-1.2550131 1.2561823 -0.17340018 0
-1.1523763 1.2515233 -0.17023025 0
-1.0358752 1.2365088 -0.1675263 0
-0.90100002 1.248 -0.16500001 0
-0.75390643 1.2661468 -0.16143404 0
0.76899999 1.2869999 -0.14399999 0
0.84978116 1.261586 -0.14707814 0
0.928397 1.2618308 -0.1457449 0
1.0433768 1.2362524 -0.14727625 0
1.2770468 1.2336049 -0.13883184 0
1.3636734 1.2558329 -0.13801527 0
1.45 1.273 -0.138 0
1.733 1.273 -0.132 0
1.8781106 1.2490748 -0.13131326 0
1.9522214 1.2991496 -0.12962654 0
2.1279924 1.2119378 -0.12435574 0
2.2046564 1.256917 -0.12180766 0
2.4480476 1.237641 -0.12200297 0
2.5277221 1.2777478 -0.12017012 0
-2.5550001 1.3940001 -0.19 0
-1.719 1.3615 -0.17750001 0
-1.650952 1.3427738 -0.17771152 0
-1.5667175 1.338769 -0.17684019 0
-1.4565885 1.3640006 -0.17514162 0
-1.3565079 1.3319807 -0.17455271 0
-1.2641325 1.3489857 -0.17174888 0
-1.1599694 1.3673948 -0.16918418 0
-1.0522566 1.3379892 -0.16685225 0
-0.95185173 1.3164881 -0.16529395 0
-0.84247941 1.3662938 -0.16520141 0
-0.75203073 1.3625475 -0.162 0
-0.67400002 1.367 -0.16500001 0
0.461 1.385 -0.149 0
0.52187115 1.3483734 -0.147 0
0.68699998 1.363 -0.14300001 0
0.74678737 1.3648937 -0.14360067 0
0.83843863 1.3264791 -0.14330028 0
0.96257108 1.3717332 -0.14409183 0
1.1095526 1.3604125 -0.144859 0
1.3660001 1.319 -0.13500001 0
1.4311614 1.3817867 -0.13348021 0
1.5514356 1.3625795 -0.1349262 0
1.8389944 1.3517796 -0.12913528 0
2.0263321 1.3492243 -0.12793981 0
2.1004426 1.3992991 -0.12625308 0
2.2813206 1.3018962 -0.11925957 0
2.3579845 1.3468754 -0.11671149 0
2.4346488 1.3918548 -0.1141634 0
2.647234 1.337908 -0.11742087 0
2.7090001 1.369 -0.116 0
-2.7025352 1.4726853 -0.18836072 0
-2.6287675 1.4333427 -0.18918036 0
-2.4689181 1.4997058 -0.18471065 0
-2.3959999 1.455 -0.185 0
-1.707 1.405 -0.18000001 0
-1.6442226 1.445526 -0.17731433 0
-1.583521 1.4824104 -0.17586105 0
-1.4477854 1.4660567 -0.17442422 0
-1.3315376 1.4444822 -0.17223714 0
-1.2479842 1.4498198 -0.17032468 0
-1.1690394 1.4592124 -0.16769561 0
-1.0367775 1.4657321 -0.16694091 0
-0.94255352 1.4424785 -0.16725734 0
-0.87236154 1.4539728 -0.1636979 0
-0.7536844 1.4422915 -0.16320223 0
-0.65221453 1.4652292 -0.16407616 0
-0.55650002 1.4685 -0.16350001 0
0.44484746 1.4445755 -0.14917108 0
0.56048465 1.4424938 -0.147 0
0.65615541 1.4659553 -0.14587778 0
0.73851991 1.4309993 -0.14382577 0
0.84815663 1.4538678 -0.14143246 0
0.97655571 1.4602499 -0.14263529 0
1.0527053 1.4482185 -0.14181292 0
1.1562519 1.4338503 -0.14094357 0
1.2514606 1.4595103 -0.13854916 0
1.4963228 1.4445734 -0.13196041 0
1.6528711 1.4521589 -0.13185239 0
1.9449887 1.4305592 -0.12627058 0
2.0156517 1.483079 -0.12436076 0
2.1745534 1.449374 -0.12456635 0
2.2486641 1.4994488 -0.12287962 0
2.5630968 1.4672159 -0.10989418 0
-2.9238377 1.5907134 -0.18590181 0
-2.8500702 1.5513707 -0.18672144 0
-2.7763026 1.512028 -0.18754108 0
-2.6147544 1.5891173 -0.18413192 0
-2.5418363 1.5444115 -0.18442129 0
-1.7276925 1.5658524 -0.16965117 0
-1.6409957 1.5497798 -0.17277187 0
-1.5508778 1.5423433 -0.17499344 0
-1.4541621 1.574326 -0.17313401 0
-1.3530247 1.538434 -0.17152533 0
-1.2504292 1.5590421 -0.16833147 0
-1.1298325 1.5561965 -0.16632274 0
-1.0383825 1.5427598 -0.16701207 0
-0.9529506 1.5575774 -0.1645458 0
-0.86055595 1.5474728 -0.16424474 0
-0.75919503 1.5643129 -0.16373301 0
-0.65144968 1.544662 -0.16268137 0
-0.55181897 1.555611 -0.16267726 0
-0.46689978 1.5545478 -0.16191308 0
-0.39199999 1.576 -0.16 0
0.26300001 1.5569999 -0.15000001 0
0.35534477 1.5332217 -0.1506851 0
0.43577871 1.5393171 -0.14905465 0
0.55061698 1.5384995 -0.14728515 0
0.64889383 1.5468572 -0.14437853 0
0.73275548 1.5373955 -0.14358741 0
0.84629107 1.5555385 -0.14136834 0
0.92803824 1.5796673 -0.13967395 0
1.0611399 1.5524786 -0.13985978 0
1.148735 1.5706351 -0.13816823 0
1.2520289 1.5385503 -0.13825877 0
1.3499868 1.5001873 -0.13588946 0
1.4109737 1.5673746 -0.13477893 0
1.5614841 1.50736 -0.13044061 0
1.6266454 1.5701467 -0.12892081 0
1.7543067 1.5417383 -0.12877858 0
2.0863144 1.5355986 -0.12245096 0
2.1569774 1.5881183 -0.12054115 0
2.3598301 1.5745609 -0.12034953 0
-3.0301883 1.6485573 -0.18099372 0
-2.9658027 1.659528 -0.18404108 0
-2.7605906 1.6785288 -0.18355322 0
-2.6876724 1.633823 -0.18384257 0
-2.4909999 1.6849999 -0.183 0
-1.8610775 1.6835574 -0.1489535 0
-1.7652067 1.6484276 -0.15954661 0
-1.6559712 1.6591288 -0.16948029 0
-1.5498073 1.6281283 -0.17423579 0
-1.429297 1.6383209 -0.17230564 0
-1.3512464 1.651194 -0.16977823 0
-1.247555 1.6719643 -0.16738182 0
-1.1218226 1.6492468 -0.16635725 0
-1.0383048 1.648645 -0.16461499 0
-0.9483403 1.6536553 -0.16325463 0
-0.86072636 1.6397864 -0.16295885 0
-0.76121736 1.6518414 -0.1629954 0
-0.63158637 1.6694294 -0.16176008 0
-0.54279315 1.6516806 -0.16130725 0
-0.42963859 1.6476624 -0.1593062 0
-0.33870339 1.6549232 -0.15913324 0
-0.24933334 1.6583333 -0.15700001 0
-0.17399999 1.694 -0.155 0
0.15289554 1.6658323 -0.15168656 0
0.24828768 1.6294156 -0.15033045 0
0.3614457 1.6766791 -0.1488701 0
0.46727872 1.643317 -0.14805464 0
0.59071666 1.6333656 -0.14603892 0
0.67489994 1.6313999 -0.14220715 0
0.74308062 1.6532854 -0.14197682 0
0.8690111 1.6665298 -0.14052995 0
0.94661766 1.6607615 -0.1392982 0
1.0505999 1.6482 -0.1388 0
1.1578416 1.6545091 -0.13721946 0
1.2566099 1.6250367 -0.13621244 0
1.350616 1.6642013 -0.13503507 0
1.4719604 1.6345618 -0.13366839 0
1.6918068 1.6329334 -0.12740101 0
1.7569683 1.6957201 -0.12588121 0
1.8557422 1.6313179 -0.12570478 0
1.9233658 1.6910374 -0.12365557 0
2.2629719 1.666898 -0.11767644 0
2.4709961 1.6496731 -0.11781944 0
2.507 1.674 -0.117 0
-3.2316918 1.7650172 -0.14894351 0
-3.1561279 1.7213447 -0.16096234 0
-3.0490079 1.7567148 -0.1651884 0
-2.8667545 1.7436173 -0.18313193 0
-2.6170681 1.7706312 -0.18014562 0
-2.554034 1.7278155 -0.18157281 0
-1.92777 1.7424098 -0.13860467 0
-1.8395133 1.7626868 -0.15540221 0
-1.7488462 1.7414788 -0.16411434 0
-1.6781548 1.7621228 -0.166339 0
-1.5915055 1.71597 -0.17069148 0
-1.465 1.734 -0.1725 0
-1.3457674 1.7578501 -0.16687728 0
-1.247 1.714 -0.167 0
-1.15372 1.7528579 -0.1650116 0
-1.0565163 1.7370764 -0.16369376 0
-0.94975173 1.7530532 -0.16277464 0
-0.83578873 1.7468487 -0.16214585 0
-0.75341374 1.7606615 -0.16022645 0
-0.65673608 1.7592492 -0.16079381 0
-0.55332124 1.7544667 -0.16008672 0
-0.44531089 1.7279301 -0.15864494 0
-0.34967035 1.7365813 -0.15770362 0
-0.24891861 1.7631403 -0.15563174 0
-0.16205266 1.7564542 -0.15374628 0
-0.059749998 1.75025 -0.15249999 0
0.055895258 1.7499392 -0.15128484 0
0.14449111 1.7602119 -0.15056328 0
0.26203984 1.7561883 -0.14872657 0
0.33666694 1.7856156 -0.14681941 0
0.4254376 1.7524683 -0.14786993 0
0.56900001 1.77 -0.14399999 0
0.65152782 1.7462759 -0.14239819 0
0.74677962 1.7486353 -0.13910444 0
0.85533905 1.7415142 -0.13957819 0
0.94067615 1.7635231 -0.13881262 0
1.0413641 1.742123 -0.13801929 0
1.1699092 1.7545576 -0.13656634 0
1.2400508 1.7297701 -0.13516128 0
1.3194913 1.7762101 -0.13310608 0
1.4238814 1.7497996 -0.13302566 0
1.5634407 1.7353427 -0.13200259 0
1.8221295 1.7585068 -0.12436141 0
1.9909896 1.7507571 -0.12160637 0
2.325 1.7130001 -0.116 0
-3.4583838 1.8960342 -0.11288701 0
-3.3450379 1.8305256 -0.13091525 0
-3.2406871 1.8695729 -0.13550238 0
-3.1640153 1.8244296 -0.14737679 0
-2.749568 1.8606312 -0.17714563 0
-2.6801021 1.8134468 -0.17871845 0
-2.0611548 1.8601147 -0.117907 0
-1.9599825 1.8321604 -0.13615578 0
-1.8381231 1.8634126 -0.15298986 0
-1.7410727 1.8267757 -0.16292743 0
-1.5231228 1.8642114 -0.16804135 0
-1.4515951 1.8481603 -0.16535762 0
-1.3551998 1.8457105 -0.16622335 0
-1.2493929 1.8000648 -0.16513935 0
-1.1226314 1.8541951 -0.1629079 0
-1.0349113 1.8193809 -0.1623455 0
-0.9531644 1.8546854 -0.16149452 0
-0.8580969 1.8525062 -0.1603176 0
-0.72800136 1.841785 -0.15904051 0
-0.65895289 1.8660959 -0.15912996 0
-0.55079675 1.8664558 -0.15775962 0
-0.45078671 1.8430945 -0.15681471 0
-0.33831984 1.842289 -0.15514866 0
-0.23553312 1.8456347 -0.15386093 0
-0.14912267 1.8263412 -0.15261994 0
-0.049724311 1.8465093 -0.15048626 0
0.049756072 1.8607517 -0.1483659 0
0.14712597 1.8473353 -0.14870609 0
0.23401944 1.8665519 -0.14736745 0
0.34638429 1.8767146 -0.14533314 0
0.43750083 1.8867471 -0.14595939 0
0.55258656 1.8635812 -0.14310598 0
0.67386669 1.8804623 -0.14015566 0
0.74722606 1.8449234 -0.13609181 0
0.85791212 1.8531023 -0.1378676 0
0.95479661 1.8331356 -0.1378669 0
1.062302 1.8498533 -0.13647416 0
1.1617534 1.8698039 -0.13622671 0
1.2602997 1.8230625 -0.13427317 0
1.3420643 1.8704282 -0.13239536 0
1.4671121 1.815007 -0.13111237 0
1.5187621 1.8680017 -0.1300596 0
1.6549208 1.8361237 -0.13033679 0
1.887291 1.8212934 -0.12284162 0
1.9524522 1.8840801 -0.12132182 0
2.0542042 1.8498255 -0.12051905 0
2.1346183 1.8775982 -0.11725398 0
3.099 1.88 -0.114 0
-3.5339477 1.9397067 -0.10086817 0
-3.3556948 1.9372878 -0.11769079 0
-2.120121 1.9540119 -0.10402723 0
-2.0317407 1.9504415 -0.1390233 0
-1.9371499 1.9325809 -0.15114643 0
-1.8669086 1.9560815 -0.15610427 0
-1.7767638 1.9139252 -0.16722871 0
-1.6174823 1.967553 -0.16815041 0
-1.5354904 1.951843 -0.1631932 0
-1.4297261 1.9336672 -0.16668807 0
-1.341161 1.9586723 -0.16419573 0
-1.226956 1.952595 -0.16445059 0
-1.1538173 1.9534199 -0.16072652 0
-1.0566838 1.9373045 -0.16122721 0
-0.95196235 1.9590902 -0.15979351 0
-0.86523569 1.9322348 -0.15922275 0
-0.75463617 1.9500213 -0.15763167 0
-0.64716899 1.9449534 -0.1572554 0
-0.55462295 1.9706295 -0.15594511 0
-0.46595228 1.9719577 -0.15473157 0
-0.35445765 1.9294869 -0.15402161 0
-0.25025362 1.9489467 -0.15217981 0
-0.14626984 1.9541731 -0.15077145 0
-0.05211528 1.9356853 -0.14897251 0
0.057936728 1.9618278 -0.14506271 0
0.13619415 1.9555172 -0.1458248 0
0.22911441 1.9546181 -0.14615841 0
0.3524355 1.9729786 -0.14458074 0
0.47162563 1.9518104 -0.14371955 0
0.56257522 1.9576702 -0.14178823 0
0.62619561 1.9379839 -0.14084747 0
0.74177128 1.953972 -0.13675982 0
0.84144676 1.9557018 -0.13312429 0
0.9395653 1.9369886 -0.13654688 0
1.0431417 1.9398313 -0.1363861 0
1.1530963 1.9598087 -0.13489746 0
1.2754307 1.9355803 -0.13393433 0
1.3596141 1.9668163 -0.13160723 0
1.4474006 1.9463851 -0.12902781 0
1.5748107 1.935935 -0.1284011 0
1.6235508 1.9877264 -0.12731665 0
1.7464011 1.9369047 -0.12867099 0
1.967 1.92 -0.123 0
2.0470405 1.9657898 -0.11685587 0
2.1519213 1.958339 -0.10731731 0
3.173105 1.9249082 -0.1073227 0
3.2472098 1.9698162 -0.10064539 0
-2.1352799 2.0458817 -0.16229579 0
-2.0278223 2.0548167 -0.13813859 0
-1.9298264 2.0207345 -0.15269269 0
-1.6551863 2.0406785 -0.16214572 0
-1.5319304 2.0502157 -0.16424835 0
-1.4402546 2.0330327 -0.16279845 0
-1.3399675 2.0630307 -0.16377577 0
-1.2291024 2.0515318 -0.15818027 0
-1.1369274 2.062547 -0.16014531 0
-1.0417476 2.037509 -0.15840219 0
-0.93707955 2.0499241 -0.15834445 0
-0.82084578 2.0652657 -0.15582229 0
-0.73305267 2.0467803 -0.15618789 0
-0.65090162 2.0386355 -0.15531939 0
-0.55507571 2.0515199 -0.15402868 0
-0.44941011 2.0818017 -0.15357663 0
-0.35847083 2.0234194 -0.15268934 0
-0.24964917 2.0458424 -0.15048833 0
-0.15753093 2.0805681 -0.14913212 0
-0.058221146 2.0428841 -0.14744547 0
0.060039826 2.0504253 -0.14225005 0
0.14238517 2.0430257 -0.14331703 0
0.2399258 2.0426698 -0.14491972 0
0.34705335 2.0609648 -0.14327621 0
0.44213873 2.0605724 -0.14318056 0
0.53080744 2.0494897 -0.13990547 0
0.63586473 2.030525 -0.13963184 0
0.7665686 2.0524828 -0.13503779 0
0.856089 2.0456576 -0.12913828 0
0.95283651 2.0367017 -0.13348252 0
1.0446225 2.0636303 -0.13497314 0
1.1627043 2.0482702 -0.13438348 0
1.2288135 2.0655115 -0.13386656 0
1.3667581 2.0630624 -0.13150921 0
1.4465625 2.0502098 -0.12991905 0
1.511 2.0309999 -0.127 0
1.6497227 2.0293367 -0.12605619 0
1.8378813 2.0376856 -0.12700519 0
2.0940866 2.0458839 -0.10335568 0
2.1155379 2.0409963 -0.11091337 0
-2.243 2.151 -0.15899999 0
-2.1677082 2.1659966 -0.15813008 0
-2.0649915 2.1387706 -0.14915878 0
-1.9620221 2.1118803 -0.16376594 0
-1.7497231 2.1447392 -0.16238554 0
-1.6403818 2.1648297 -0.16340846 0
-1.5468475 2.1380494 -0.16294187 0
-1.440502 2.1505265 -0.16240692 0
-1.3440783 2.1769409 -0.14395601 0
-1.2700176 2.1456285 -0.1526603 0
-1.1541498 2.1519759 -0.15399164 0
-1.0580524 2.1626158 -0.15828724 0
-0.96549612 2.1419051 -0.15689571 0
-0.84580326 2.1587031 -0.15453747 0
-0.75735521 2.1399169 -0.15503171 0
-0.63651836 2.1356516 -0.15416551 0
-0.56354445 2.1591413 -0.15221323 0
-0.44448 2.1628976 -0.15198109 0
-0.36175054 2.1488869 -0.15066797 0
-0.25237748 2.1509676 -0.149046 0
-0.15072401 2.1681945 -0.14786603 0
-0.049054615 2.1554704 -0.1451253 0
0.062142923 2.1390228 -0.13943738 0
0.14857619 2.1305339 -0.14080924 0
0.24584699 2.1531079 -0.14342524 0
0.36071211 2.1481786 -0.14199542 0
0.46089327 2.1481175 -0.14182746 0
0.56499875 2.1518197 -0.13725232 0
0.66213167 2.1130576 -0.13783994 0
0.74800187 2.166173 -0.13446371 0
0.85235858 2.1406727 -0.12589361 0
0.94843775 2.1383204 -0.13054043 0
1.0455257 2.1600845 -0.12891227 0
1.1465948 2.168622 -0.13382719 0
1.2642139 2.1469212 -0.13087673 0
1.4435912 2.1271348 -0.12745535 0
1.8988681 2.1048729 -0.12589467 0
1.948 2.1589999 -0.125 0
2.1495378 2.1444964 -0.10991337 0
-2.1330574 2.2298553 -0.14216955 0
-2.0855277 2.2438505 -0.16145742 0
-1.842396 2.2649784 -0.15850881 0
-1.7400355 2.2389157 -0.15984966 0
-1.6434406 2.2648575 -0.16145271 0
-1.5349801 2.247541 -0.16063087 0
-1.4034722 2.2321408 -0.16340713 0
-1.3523006 2.258549 -0.14344469 0
-1.250145 2.2483525 -0.14384094 0
-1.144058 2.2618494 -0.15547666 0
-1.0505192 2.2504864 -0.1566308 0
-0.95352113 2.2529786 -0.15479207 0
-0.84839529 2.2678301 -0.15313606 0
-0.74117833 2.2462902 -0.15308757 0
-0.64560121 2.2426083 -0.15219077 0
-0.55254561 2.243603 -0.15118696 0
-0.44640782 2.2694235 -0.15029877 0
-0.33688927 2.2514243 -0.14843631 0
-0.25043929 2.2584412 -0.14751336 0
-0.15724964 2.2579193 -0.14669694 0
-0.060947716 2.262728 -0.14350273 0
0.05203183 2.2338672 -0.13870151 0
0.13788812 2.2418103 -0.13275579 0
0.26605687 2.2627578 -0.14180654 0
0.37437084 2.2353923 -0.14071463 0
0.44679311 2.233084 -0.14107056 0
0.54088229 2.2495933 -0.13767357 0
0.64747012 2.2468474 -0.13440444 0
0.74058682 2.2739518 -0.13454245 0
0.85000002 2.227 -0.133 0
0.98669934 2.2636538 -0.1332673 0
1.0451317 2.25437 -0.1335673 0
1.151727 2.2746096 -0.13227135 0
1.3129333 2.2602389 -0.12808013 0
1.4927902 2.2025266 -0.12576228 0
1.5429945 2.279459 -0.1240346 0
2.1403146 2.2619243 -0.11089972 0
-1.9300332 2.3572335 -0.1610928 0
-1.8054354 2.3851264 -0.15932889 0
-1.7534088 2.3362186 -0.16080078 0
-1.613953 2.3314579 -0.15968095 0
-1.5226482 2.3492606 -0.16160475 0
-1.4345131 2.3556373 -0.15597633 0
-1.3477548 2.3589215 -0.15157953 0
-1.2657324 2.3469367 -0.13793354 0
-1.1510413 2.3490288 -0.15479553 0
-1.0426394 2.3461363 -0.15478863 0
-0.92871404 2.3412066 -0.15269631 0
-0.84767914 2.3700342 -0.15126635 0
-0.76750416 2.3642921 -0.15120454 0
-0.66006172 2.3327465 -0.15062159 0
-0.55318165 2.3475833 -0.15027967 0
-0.44830266 2.3641446 -0.14857604 0
-0.36099359 2.3548033 -0.14725997 0
-0.26383901 2.3592215 -0.14619906 0
-0.16377531 2.3476446 -0.14552784 0
-0.063338697 2.3519039 -0.14198901 0
0.053179491 2.3397462 -0.13320068 0
0.14751108 2.3563449 -0.13303925 0
0.27686822 2.3508096 -0.14056785 0
0.36183029 2.3274477 -0.14005342 0
0.43989033 2.3190327 -0.13934946 0
0.5605402 2.3350229 -0.13597204 0
0.65502673 2.3781915 -0.1305176 0
0.74093258 2.3606567 -0.13246423 0
1.0823891 2.336031 -0.13308463 0
1.164 2.368 -0.132 0
1.2277503 2.3589206 -0.13034365 0
1.3653374 2.3535719 -0.12629507 0
2.1598866 2.3368623 -0.10634503 0
-2.0152743 2.46351 -0.159168 0
-1.8565805 2.4485018 -0.15710519 0
-1.7424059 2.454916 -0.15986189 0
-1.6613588 2.4238737 -0.16004284 0
-1.5502084 2.4592113 -0.16311069 0
-1.4459424 2.4477663 -0.14875405 0
-1.3541027 2.4518607 -0.14931311 0
-1.2251828 2.424372 -0.15246965 0
-1.1435556 2.440134 -0.15341084 0
-1.0656171 2.4507747 -0.15230544 0
-0.94080329 2.4480605 -0.15069596 0
-0.85058141 2.4620166 -0.15011168 0
-0.73684126 2.4744842 -0.14887822 0
-0.65804946 2.4448922 -0.14882255 0
-0.53759348 2.4278512 -0.14954537 0
-0.45128486 2.4526739 -0.14725929 0
-0.35085046 2.445055 -0.14563572 0
-0.26163077 2.4567125 -0.14462619 0
-0.17030096 2.4373693 -0.14435875 0
-0.071686082 2.4557772 -0.13984539 0
0.063519344 2.4525275 -0.13399093 0
0.16438466 2.4467216 -0.13024254 0
0.26311654 2.461791 -0.13909894 0
0.34327233 2.4157267 -0.13914418 0
0.45243517 2.4340353 -0.13753861 0
0.52653611 2.4543614 -0.13717523 0
0.65766501 2.4544265 -0.12933642 0
0.76079971 2.4564598 -0.1301149 0
-2.0669999 2.5280001 -0.15800001 0
-1.9178628 2.5244386 -0.15444075 0
-1.7602648 2.5597897 -0.15940474 0
-1.605 2.5439999 -0.163 0
-1.5991205 2.5349014 -0.16301188 0
-1.2671536 2.5713668 -0.15349397 0
-1.1573403 2.5332789 -0.15453014 0
-1.0168815 2.5526967 -0.15166898 0
-0.93150616 2.5348463 -0.15025522 0
-0.85000002 2.5350001 -0.15000001 0
-0.75600004 2.5050001 -0.149 0
-0.66050005 2.5139999 -0.1485 0
-0.54258645 2.5340271 -0.14785706 0
-0.46130151 2.5519981 -0.14564773 0
-0.34120151 2.5443203 -0.14411721 0
-0.23861909 2.5545366 -0.14329019 0
-0.15817781 2.5510089 -0.14255635 0
-0.069259398 2.5726254 -0.13818817 0
0.041999999 2.533 -0.127 0
0.1445 2.5420001 -0.1135 0
0.2721332 2.5497613 -0.13782737 0
0.36208069 2.5478823 -0.13724652 0
0.43958876 2.5859411 -0.13536762 0
0.55852711 2.5539377 -0.13521476 0
0.62900001 2.5020001 -0.13 0
0.82300001 2.516 -0.13 0
-1.8163588 2.6368737 -0.15904284 0
-1.225 2.602 -0.154 0
-1.151 2.5999999 -0.154 0
-1.051 2.6400001 -0.15099999 0
-0.99100828 2.615371 -0.14930239 0
-0.43700001 2.608 -0.145 0
-0.33674669 2.6468782 -0.14253838 0
-0.25058591 2.6245899 -0.14226931 0
-0.18841349 2.6226039 -0.14178927 0
0.278 2.6070001 -0.13699999 0
0.33899999 2.6029999 -0.13699999 0
0.52700001 2.6059999 -0.13600001 0
-1.0382645 2.7423992 -0.14727919 0
-0.25971439 2.7171054 -0.14103851 0
-0.19706304 2.7389467 -0.14032736 0
-1.0855207 2.8694274 -0.14525598 0
1.875 2.8770001 -0.117 0
-1.1170249 2.954113 -0.14390719 0
1.9237617 2.9525957 -0.11469708 0
-1.1485291 3.0387983 -0.14255838 0
1.9725235 3.0281916 -0.11239417 0
-1.1800332 3.1234839 -0.14120959 0
2.0456662 3.1415849 -0.1089398 0
-1.2272894 3.2505121 -0.13918638 0
2.1188087 3.2549787 -0.10548542 0
-1.5305967 3.334702 -0.10831074 0
-1.255 3.325 -0.138 0
1.1290944 3.3629127 -0.10379977 0
2.1675704 3.3305743 -0.1031825 0
-1.6035322 3.4942338 -0.13077025 0
-1.5670645 3.4144678 -0.1195405 0
1.156 3.4449999 -0.118 0
2.2163322 3.4061699 -0.10087959 0
-1.64 3.5739999 -0.142 0
-1.510217 -3.482723 -0.088131994 0
-1.4776226 -3.4042974 -0.076175995 0
-1.4450283 -3.3258717 -0.064219996 0
-1.412434 -3.2474461 -0.052263997 0
-1.3794198 -3.1680102 -0.040153999 0
-0.25999999 -2.928 -0.0040000002 0
-0.92799997 -2.852 -0.017999999 0
-0.25201291 -2.8397326 -0.0008884127 0
-1.8789999 -2.753 -0.064000003 0
-0.89946085 -2.7667723 -0.009720725 0
-1.8287858 -2.6793458 -0.052381039 0
-1.7785717 -2.6056917 -0.040762074 0
-1.051 -2.619 -0.014 0
-0.93799996 -2.6430001 -0.0075000003 0
-0.84954578 -2.6608784 -0.0029935006 0
-0.75800002 -2.6010001 -0.0060000001 0
-0.66649997 -2.6185 -0.0060000001 0
-0.5535 -2.6849999 -0.0049999999 0
-0.456 -2.674 -0.0049999999 0
-0.39700001 -2.6989999 -0.0040000002 0
-1.834 -2.5880001 -0.028999999 0
-1.7567685 -2.5241961 -0.023872489 0
-1.0430089 -2.5608258 -0.0082052015 0
-1.8380001 -2.47 -0.028999999 0
-1.7627637 -2.4234393 -0.013106362 0
-1.6565717 -2.4726918 -0.016262075 0
-1.5805864 -2.4498901 -0.0040339176 0
-1.133 -2.4879999 -0.011 0
-1.0586573 -2.4803174 -0.0018161014 0
-1.7403371 -2.3343396 -0.0070179943 0
-1.6279293 -2.3847294 -0.0059051849 0
-1.4349999 -2.359 -0.023 0
-1.3944741 -2.2911935 -0.0089642424 0
-3.3487663 1.859002 -0.016359057 0
-3.2709577 1.8165025 -0.0059488267 0
-3.1596274 1.8459101 -0.010502011 0
-3.6095116 1.9833791 -0.088849336 0
-3.5432873 1.9652507 -0.042384647 0
-3.4265747 1.9015015 -0.026769293 0
-3.35554 1.9563293 -0.039155085 0
-3.2771749 1.9121616 -0.027693857 0
-2.19454 1.9778197 -0.097209327 0
2.2195022 1.9777967 -0.09707126 0
-3.6413488 2.0417631 -0.072710119 0
-3.5500929 2.0612142 -0.074540369 0
-3.4523039 2.0027497 -0.075247742 0
-2.261744 2.0678909 -0.0839535 0
-2.1524248 2.0740354 -0.094893798 0
2.2511952 2.0473073 -0.091502681 0
2.3510044 2.0965934 -0.073142521 0
3.3583674 2.0371785 -0.090629444 0
-3.6760001 2.1315 -0.076000005 0
-2.201 2.1700001 -0.089000002 0
-2.1915894 2.1606188 -0.090254731 0
2.1576302 2.1088259 -0.093533523 0
2.2493231 2.150439 -0.089549817 0
2.3512287 2.1756995 -0.082497478 0
2.4167557 2.1559916 -0.061178152 0
3.4695249 2.1045406 -0.080613494 0
3.5436296 2.1494489 -0.073936187 0
3.6177347 2.1943569 -0.067258887 0
-2.2179999 2.2909999 -0.096000001 0
-2.1949687 2.2680733 -0.098787434 0
0.9330374 2.255167 -0.090930745 0
1.0600402 2.2503841 -0.090178959 0
2.2847168 2.23471 -0.073889203 0
2.3435266 2.2674689 -0.057334717 0
2.46559 2.2553024 -0.050000496 0
2.5482578 2.2747884 -0.037249416 0
3.665 2.223 -0.063000001 0
-1.4339972 2.3635259 -0.093005046 0
0.98952383 2.3862882 -0.077319562 0
1.0933002 2.3247302 -0.078973696 0
1.114 2.3710001 -0.071999997 0
2.2305157 2.3562112 -0.092644475 0
2.301887 2.375546 -0.077398352 0
2.4284921 2.354984 -0.032343723 0
2.5464358 2.3448935 -0.040329568 0
2.6328404 2.3747017 -0.024079105 0
-1.3254454 2.430584 -0.094226345 0
2.2775784 2.4316769 -0.044740915 0
2.3500566 2.452404 -0.040277608 0
2.481576 2.4173429 -0.038423028 0
2.5437505 2.4715054 -0.035599194 0
2.6524704 2.4414198 -0.047898483 0
2.7090001 2.4200001 -0.0080000013 0
2.3795595 2.5486071 -0.052457754 0
2.4562395 2.5543473 -0.041657556 0
2.6015 2.5280001 -0.036999997 0
2.4593203 2.6511748 -0.048070148 0
2.5341513 2.6451468 -0.035342757 0
2.6050324 2.6897888 -0.011395611 0
0.94037718 2.7871509 -0.0041990615 0
2.5668252 2.7502341 -0.035293844 0
2.6389999 2.7249999 -0.0040000007 0
-1.325 2.885 -0.045000002 0
0.96766007 2.8703887 -0.018598355 0
-1.3482579 2.9358721 -0.052161954 0
0.99456573 2.952476 -0.032798588 0
-1.4211935 3.0954039 -0.074621469 0
-1.3847257 3.0156379 -0.063391708 0
1.0214715 3.0345633 -0.046998821 0
-1.4576612 3.1751699 -0.085851222 0
1.06183 3.1576943 -0.068299174 0
-1.4941289 3.254936 -0.097080983 0
1.1021886 3.2808254 -0.089599535 0
2.2650938 3.4817657 -0.098576672 0
2.3138556 3.5573614 -0.096273758 0
2.362 3.632 -0.093999997 0
-0.24402577 -2.7514653 0.0022231748 0
-0.50562602 -2.6021569 0.0049929619 0
-0.38421914 -2.6115341 0.0053356024 0
-0.23603866 -2.663198 0.0053347624 0
-0.96104658 -2.5223832 0.0015094518 0
-0.85082489 -2.549839 0.0088580782 0
-0.76713824 -2.5234909 0.0048666475 0
-0.64579952 -2.5343561 0.0039030532 0
-0.55769151 -2.5537767 0.009648921 0
-0.45262906 -2.5349433 0.011533643 0
-0.37143824 -2.5240684 0.014671205 0
-0.25719818 -2.5659487 0.0088519342 0
-0.19890489 -2.5839124 0.0080407653 0
-1.5330039 -2.4118512 0.0062924414 0
-1.0631101 -2.4081521 0.0053780717 0
-0.9500801 -2.449496 0.0096022012 0
-0.83307338 -2.4219506 0.020477396 0
-0.75671387 -2.4362445 0.016467337 0
-0.65281236 -2.440105 0.01342165 0
-0.56388432 -2.4429364 0.019244201 0
-0.44275659 -2.4224935 0.024796944 0
-0.35865736 -2.4366028 0.024006806 0
-0.24824774 -2.477936 0.012064917 0
-0.18836921 -2.4511294 0.012556052 0
-1.6631281 -2.3372402 0.0073934756 0
-1.5585303 -2.329818 0.0052890531 0
-1.4920079 -2.3417025 0.015584882 0
-1.0668108 -2.3393397 0.013776692 0
-0.9495216 -2.3410478 0.020825841 0
-0.84222579 -2.3568349 0.026316173 0
-0.75181389 -2.3539991 0.02525972 0
-0.65987694 -2.3537776 0.023283334 0
-0.54487789 -2.3580251 0.029174818 0
-0.45650399 -2.3446274 0.034971848 0
-0.37202835 -2.3385792 0.033914544 0
-0.23482206 -2.3459167 0.016884394 0
-0.17783354 -2.3183465 0.01707134 0
-1.6915057 -2.2665095 0.0039730109 0
-1.5586993 -2.2335963 0.020161709 0
-1.4490592 -2.2406054 0.02464306 0
-1.3539485 -2.223387 0.0050715152 0
-1.0337162 -2.2650099 0.026165035 0
-0.96162945 -2.2472689 0.031735595 0
-0.86459446 -2.2434573 0.035418425 0
-0.74264222 -2.2661488 0.034685109 0
-0.65643311 -2.2486517 0.032618191 0
-0.5478676 -2.2494683 0.039428763 0
-0.46705085 -2.2566867 0.044397272 0
-0.35841042 -2.2515993 0.043518178 0
-0.22139637 -2.2138977 0.021703869 0
-0.17080976 -2.2298245 0.020081531 0
-1.6426742 -2.1986794 0.014964011 0
-1.5674598 -2.1444874 0.029671911 0
-1.4772869 -2.1637669 0.028951705 0
-1.3594354 -2.1425793 0.0324101 0
-1.0006217 -2.1906798 0.038553383 0
-0.94840693 -2.1429679 0.046930611 0
-0.85158092 -2.1499319 0.044653196 0
-0.77342713 -2.1533532 0.050973214 0
-0.65849572 -2.1492426 0.045289889 0
-0.55754167 -2.1385117 0.04979692 0
-0.44976103 -2.1710241 0.054276727 0
-0.34479254 -2.164619 0.053121813 0
-0.215 -2.151 0.024 0
-0.164 -2.1440001 0.023 0
-1.5360056 -2.0505095 0.038973007 0
-1.4561096 -2.0665309 0.045785874 0
-1.3502592 -2.0566707 0.048398249 0
-1.2450893 -2.0412471 0.042773936 0
-0.94599998 -2.0680001 0.059 0
-0.85453331 -2.0588112 0.058948547 0
-0.75233221 -2.0634968 0.062145829 0
-0.68507385 -2.0479746 0.061256733 0
-0.5703795 -2.0194814 0.062327772 0
-0.45443067 -2.0697801 0.064326443 0
-0.35111904 -2.0521777 0.066798188 0
-0.63880426 -1.9883609 0.06589637 0
-0.55400002 -1.9579999 0.069499999 0
-0.45178494 -1.9800476 0.074042529 0
-0.35312018 -1.9650145 0.076991111 0
-0.28837645 -1.9556371 0.075342402 0
-2.448 1.4859999 0.093999997 0
-2.5543702 1.5523698 0.082025394 0
-2.4398689 1.5610921 0.080405377 0
-2.3740001 1.517 0.090000004 0
-3.0375323 1.6890039 0.025281869 0
-2.9473619 1.6397521 0.037346054 0
-2.8566751 1.6751617 0.033806138 0
-2.7461147 1.6720093 0.060439769 0
-2.645498 1.6534407 0.061505467 0
-2.5488951 1.6340737 0.0645243 0
-2.3473468 1.6607623 0.077434197 0
-2.2950001 1.6210001 0.086000003 0
-3.1542449 1.7527533 0.0096665211 0
-3.0420802 1.7796587 0.0066898316 0
-2.9637151 1.735491 0.018151052 0
-2.8611617 1.743793 0.047488391 0
-2.7669475 1.7800369 0.032762144 0
-2.6942632 1.7313825 0.043349527 0
-2.5175979 1.7900845 0.049574882 0
-2.4494975 1.7383556 0.060718607 0
-3.0529063 1.8634325 0.025902759 0
-2.944262 1.8464611 0.023062197 0
-2.8396316 1.8286912 0.022174764 0
-2.6537991 1.8935423 0.027287442 0
-2.5856984 1.8418133 0.03843116 0
1.926 1.883 0.061999999 0
2.1147089 1.8876348 0.064913049 0
-3.2063022 1.9591441 0.0086342534 0
-3.1296041 1.9112884 0.017268507 0
-2.9849999 1.926 0.001 0
-2.7559497 1.9711356 0.01057186 0
1.3543843 1.9937838 0.053080354 0
1.9590814 1.9155914 0.057736166 0
2.0346365 1.9734161 0.054231271 0
2.1481316 1.9536738 0.057227194 0
-3.283 2.007 -1.7068585e-13 0
