# .PCD v0.7 - Point Cloud Data file format
VERSION 0.7
FIELDS x y z intensity
SIZE 4 4 4 4
TYPE F F F F
COUNT 1 1 1 1
WIDTH 100
HEIGHT 1
VIEWPOINT 0 0 0 1 0 0 0
POINTS 100
DATA ascii
-43.835949 -24.274845 14.649935 12
-14.55227 -28.646759 20.862383 21
-10.616172 6.4159141 9.0418262 22
-10.655413 6.1068206 9.4484854 23
-10.494284 -31.261972 21.339443 21
-9.7594404 6.1999564 10.951299 26
-9.2233896 6.1500425 11.163684 27
-7.6329632 6.6858764 9.9105158 27
-7.4531546 6.6907005 6.0176682 20
-7.5379782 6.7126765 9.47262 26
-6.8662133 6.850503 7.3092966 23
-6.5847201 -0.60702276 0.40255663 5
-6.419157 7.1013155 9.05089 26
-6.2687502 6.9847369 5.0708971 18
-6.1917133 6.9965825 5.5159698 19
-6.1940441 6.9961443 9.455966 27
-4.7648163 7.2472067 4.6792607 18
-4.3647056 7.2531242 8.4705372 27
-4.0743952 7.3678417 4.7008252 19
-4.1469474 7.3050385 8.123724 26
-3.1184011 7.5308456 4.5785093 19
-2.9054451 7.5225406 8.5346069 28
-2.8207583 -29.30698 19.084709 21
-2.6913283 -2.0929823 0.078221537 4
-2.5028744 7.5887475 8.2318401 27
-2.1744952 -1.9966837 0.14070685 5
-2.1618671 -1.9834505 0.43871301 8
-1.6424271 -1.8528852 -0.021782752 3
-1.6537211 -1.8747264 0.073219918 4
-1.5505255 -1.8283743 -0.12768963 2
-1.5352192 -1.8521653 0.11234824 5
-1.4736993 -29.599909 4.6318669 8
-1.2777009 -1.7840614 -0.14037536 1.5
-1.3039082 -1.7925861 0.63059801 12
-1.34883 7.8356371 4.2373648 18
-1.3457829 7.8076587 8.3043451 28
-1.3443425 -29.654913 8.5273418 12
-1.178509 -1.7829008 -0.041239392 3
-1.1866146 -1.7827562 0.05274919 4
-1.1869462 -1.7704597 0.31573734 8
-1.0233455 -1.7489458 0.55895334 11
-1.1153096 -29.590023 3.4808729 7
-1.1058093 -29.620928 7.5619678 11
-0.84824657 -1.7773174 0.15626018 6
-0.81753808 -1.7593458 0.26829061 7
-0.8448149 -1.7558489 0.55274206 11.5
-0.89650178 -1.7494684 0.64515078 13
-0.70727062 1.7600284 0.1438579 5.5
-0.72444588 -1.7613014 0.32195517 8.5
-0.62168777 7.963882 4.4865222 19
-0.75734991 7.936842 5.8815002 22
-0.48191693 1.7563804 0.34201783 8.5
-0.5511179 1.7592088 0.40447336 10
-0.33808059 1.7833277 0.15562324 5.5
-0.24883865 7.9845552 8.2385225 27
-0.13879873 1.8383105 0.41674697 10
-0.00057238538 9.467144 3.2303917 13
-0.13902521 9.4146338 3.4533792 14
-0.075970307 8.0265512 7.2105322 25
-0.18472259 8.0035582 8.4675283 28
0.13081931 1.9198754 0.35334307 8.5
0.073832311 1.8760952 0.42281532 10
0.17492959 8.0770245 7.4415236 26
0.22283582 8.1161146 4.2865381 18
0.26733494 -29.281153 25.749565 25
1.4819504 -25.827185 16.738832 20
1.7419561 -25.825357 12.080604 16
1.9633155 -15.10069 4.0587006 11
1.9509573 -14.892055 4.3943419 12
2.1571944 -25.81019 17.195898 21
2.8928611 8.6416969 9.6094389 28
2.9660306 -25.579716 12.406062 17
3.2618744 8.7944241 9.4162169 27
3.7820656 -25.47986 10.551513 15
4.3745623 -25.371773 8.5252638 13
4.3905706 -25.364923 12.146328 16
4.3064332 -25.373018 17.155098 21
4.7779651 9.0486755 9.3387604 26
6.3281517 -15.319453 3.0558796 9
6.4333549 -15.194965 2.7870765 8
6.4408674 -25.038258 18.044725 22
7.0628295 -24.907682 16.676657 20
9.4320364 9.7906933 9.5451708 22
10.549954 -27.750847 26.817165 25
11.066729 -27.627245 14.581754 17
11.333445 -6.7297411 0.6625101 5
11.288551 -6.8114977 1.3494433 6
12.301175 -27.398525 21.143946 22
13.075036 -26.815866 14.022902 16
14.298581 -27.117815 9.9388237 13
15.667863 9.4715395 3.5200856 9
16.087826 6.8915825 3.9053047 10
16.208565 6.9151225 2.8767245 8
16.328985 5.5654559 3.3223283 9
16.691427 -24.480534 14.909282 17
17.341686 -24.081928 21.271282 22
18.089451 -24.096035 9.7820864 13
19.7204 -23.761259 28.254084 25
24.715906 -22.902338 11.416364 13
25.923666 -20.979881 16.910769 17
