# .PCD v0.7 - Point Cloud Data file format
VERSION 0.7
FIELDS x y z intensity
SIZE 4 4 4 4
TYPE F F F F
COUNT 1 1 1 1
WIDTH 525
HEIGHT 1
VIEWPOINT 0 0 0 1 0 0 0
POINTS 525
DATA ascii
-44.769295 -22.88851 14.307693 12
-44.585526 -23.375351 14.720984 12
-44.071728 -23.794786 14.293571 12
-39.166924 -9.7804079 1.4286213 4
-19.872749 -4.9149823 0.088739619 3
-16.748613 5.4348426 3.8601184 10
-15.784698 5.4010124 3.9538119 10
-15.811871 5.4191451 4.4908085 11
-14.420981 -28.597561 20.655579 20
-14.72226 -28.619951 21.82003 21
-14.222483 -4.2343178 -0.39996362 2
-14.285574 5.6184444 4.0781584 11
-14.352887 5.5938425 5.0240822 13
-14.270448 -28.533928 20.876789 21
-13.88768 -28.402285 20.269365 20
-13.227214 -4.1622972 0.17179413 4
-13.341282 -3.7596281 0.15976374 4
-13.230562 -3.9526229 0.50581706 4
-13.389393 -4.1864491 0.81467074 5
-13.468821 -4.3076835 1.2105962 6
-13.122016 -4.13168 0.063877143 3
-13.197323 -3.8836703 0.065851428 3
-13.152045 -4.2559834 0.51484203 4
-12.304811 5.9596014 9.9510288 22
-11.915906 5.9409432 10.506316 23
-11.570494 6.0790257 4.2857265 13
-10.820379 -3.7968688 -0.29933873 2
-10.972286 6.2056293 8.8748283 22
-10.768315 6.1738276 9.0424595 22
-10.666393 -31.215141 21.379993 21
-10.136734 -31.102871 20.458027 20
-10.364551 -31.161949 21.087597 20
-10.189842 -31.191469 21.301037 21
-9.628253 6.369226 10.250576 25
-9.6463127 6.3204021 10.587513 26
-9.3621445 0.89934921 -0.056372512 3
-9.5322905 6.3441267 10.648629 26
-7.6430001 6.7278304 9.0995502 25
-7.3237729 6.821805 5.4629006 18
-7.2692533 6.8321829 5.9729567 19
-7.5260315 6.9372244 9.1588535 25
-7.4615021 6.8462934 9.3493137 26
-7.3704491 6.7064033 9.8352489 27
-7.3789339 6.6475282 10.017682 27
-7.1046715 -2.9234517 -0.34241661 2
-6.9758644 -3.3499269 0.13688482 3.5
-7.0252328 -3.3483548 0.60347736 5.4000001
-7.0873566 6.8589158 5.4401278 18
-7.0443401 6.8593397 5.732162 19
-7.1152282 6.7321339 6.1119809 20
-6.8002372 6.9013166 7.4103985 23
-6.9929552 6.7726827 9.5911188 27
-7.1280074 6.8906808 9.3751249 26
-7.1339283 6.7249784 9.8939571 27
-6.5873027 -0.40792823 -0.31833395 2
-6.6519418 -0.28402138 -0.11030482 3
-6.5559921 -0.46529523 0.25740501 4.25
-6.5323391 -0.54946405 0.54987425 6
-6.779284 6.9222775 7.123435 22
-6.5601492 6.8550038 8.1585417 25
-6.6670995 7.0517263 9.1756496 26
-6.5910211 6.9397931 9.4106007 27
-6.3137107 6.997746 5.283875 18.5
-6.3890333 6.970953 9.4382906 27
-5.1875424 7.01754 -0.050248824 3
-4.5941777 1.6519136 -0.020196849 3
-4.5781932 2.1527927 -0.024655139 3
-4.5596828 1.277014 0.14394781 4.25
-4.5629859 7.2760921 4.6324248 18
-4.6141205 7.2738142 4.8821368 19
-4.523767 7.2612767 8.2244387 26.5
-4.4676404 7.2252135 8.5084448 27
-4.0096602 -2.348033 -0.10091844 3
-4.0265646 -2.3752763 0.095073059 3.5
-4.0933518 7.3638315 4.7648096 19
-4.3548355 7.2711697 8.1745596 26
-4.201304 7.2977433 8.4449339 27
-3.668143 -3.2707043 -0.26317808 2
-3.7823074 -3.0706344 -0.26741955 2
-3.7105176 -2.6040466 -0.25756103 2
-3.9647317 -2.3481648 -0.11787876 2
-3.7257888 2.1324337 -0.11546005 2
-3.9552596 -2.351361 0.27063048 5.5
-3.6154926 1.7240546 0.064681403 4
-3.976567 -2.3395348 0.62410897 7
-3.8702159 7.3679376 4.2504525 17
-3.8622525 7.4029374 4.6103621 18.5
-3.5122092 -3.8584557 -0.19656062 2
-3.5631058 -3.4917877 -0.28690711 2
-3.5323822 -2.8596983 -0.27926713 1
-3.4069781 -2.4985869 -0.26831076 1
-3.3800714 -2.2400641 -0.2653811 1
-3.492383 2.3297415 -0.21153976 2
-3.23403 4.8866658 0.011258948 3
-3.2583437 7.5098705 4.3994198 18
-3.4260931 7.4836292 4.5616412 18.666666
-3.0608253 2.7935755 -0.20265335 2
-3.1713603 7.533823 4.5894847 19
-2.8626025 7.5246406 8.2746325 27
-2.9695637 -29.485981 19.155573 20
-2.5967262 -6.1139865 -0.26352987 2
-2.769383 -5.7622743 -0.26432133 2
-2.4553056 -2.5433156 -0.024253568 3
-2.6304193 -2.1305008 0.13051625 4.2857141
-2.7379591 2.2459483 0.018036874 3
-2.4946442 3.338661 0.040388022 4
-2.564996 3.8013377 0.050770681 4
-2.5874801 -2.0629699 0.47731188 7.5
-2.6287894 7.5707011 8.2392731 27
-2.6261404 7.5752635 8.5189438 28
-2.6662705 -29.861549 18.636988 20
-2.441777 -29.819319 19.038546 20
-2.5526893 -29.340179 19.360502 21
-2.0497372 -2.0244386 -0.21813866 1
-2.1736174 -1.9570837 -0.2243149 1
-2.312619 1.5344279 -0.2043902 1
-2.1546619 2.584362 -0.16274633 2
-2.0133169 2.9838874 -0.17456177 2
-2.2054753 -2.0110795 0.12568185 4.5
-2.1714675 -1.9826539 0.19770207 5
-2.3319457 1.9159544 0.10903583 4
-2.1609154 -1.9894527 0.43271756 7.5
-2.1461535 7.6499448 8.2050219 27
-2.021462 -29.732473 8.56954 12
-2.1771424 7.6496487 8.4683428 28
-2.180438 -29.324888 19.060516 21
-1.9700779 -2.1356297 -0.21696919 1
-1.6513622 -1.8599007 -0.074788369 2
-1.8512769 -1.2380538 -0.12407485 0
-1.8970896 -1.0053388 -0.11369002 0
-1.6815828 1.5378314 -0.1857852 1
-1.6302947 1.6427181 -0.18661307 1
-1.7097186 -3.5577595 0.00889026 3
-1.7586023 -1.9006648 0.063282639 3.6666667
-1.797955 -29.699312 7.6311145 11
-1.9692951 7.6800752 8.1971035 27
-1.8792287 7.7070365 8.4416475 28
-1.8017783 -29.692366 8.9180984 12
-1.9517474 -29.718199 18.449766 20
-1.9164486 -29.241173 19.289131 21
-1.3879642 -1.8109789 -0.10281134 2
-1.5139016 1.763099 -0.1833646 1
-1.4862391 7.6194763 -0.048803184 3
-1.4773499 -3.4799321 0.018227177 3
-1.3967618 -1.8333048 0.12197004 4.625
-1.3177524 -1.7979944 0.65825117 12
-1.3106605 -29.55888 4.0382671 7
-1.2868654 7.8477011 4.3123856 18
-1.3296913 7.8425508 4.4743733 19
-1.550774 -29.674191 8.1127787 11
-1.2950912 7.7953806 8.3333464 27.666666
-1.5005404 7.7744102 8.4372921 28
-1.4891784 -29.567984 9.8478003 13
-1.0515875 -3.3308413 -0.16161437 1.6666666
-0.96226871 -2.172868 -0.19546007 1
-1.1914896 -1.7669488 -0.058606151 2.5
-0.98407191 1.7023109 -0.17260316 1
-0.99943393 2.8006575 -0.16798544 2
-0.8887412 3.609808 -0.14932942 2
-1.0944029 -3.3224504 0.073034637 3.5
-1.0613896 -2.6716661 0.092984073 4
-1.0294042 -1.7734224 0.21469417 6.4285712
-0.93565279 -1.7547452 0.58475113 12
-0.93001449 -29.571482 3.9973812 7
-1.0279448 7.8938551 4.2608666 18
-1.0705366 7.8854895 4.4896894 19
-0.93665129 7.8960447 5.8169603 22
-1.0664945 7.8443699 8.3167467 27.666666
-1.1425632 -29.604691 8.8868456 12
-0.89556795 -29.562757 19.161547 20
-0.85941571 -29.597692 19.359709 21
-0.50004399 -9.3211594 -0.1457011 3
-0.51886934 1.4264511 -0.1700338 0
-0.47868571 1.7205925 -0.15750797 1
-0.66059482 2.175724 -0.080771632 2
-0.63485712 3.676852 -0.14419565 2
-0.73136461 -1.7756888 0.29718387 8
-0.48609012 1.7660272 0.25276282 7.3333335
-0.43171915 -29.460726 3.4256558 7
-0.61762851 7.9670119 4.270772 18
-0.48712513 8.0033112 4.2535453 18
-0.79280239 -29.612734 4.4418449 8
-0.44495678 8.0022678 4.5005431 19
-0.65703267 -29.593065 4.8282104 8
-0.42969209 7.947216 8.1795082 27
-0.47240463 7.9379711 8.4635029 28
-0.78024149 -29.612244 13.394926 16
-0.49183118 -29.510019 13.469609 16
-0.40515053 -29.515642 18.680902 20
-0.67394501 -29.521673 19.491127 21
-0.089979611 -12.697193 -0.19631277 3
-0.067493893 -5.6692133 -0.22612585 2
-0.32561901 -5.5923834 -0.23996134 2
-0.038336214 -3.296314 -0.19371592 1
-0.19457954 1.834612 -0.14727773 1
-0.32555777 2.2849934 -0.0060241474 3
-0.26554537 2.7792041 -0.0066836639 3
-0.28487289 3.6937649 -0.13511105 2
-0.15600747 5.4846354 -0.03600591 3
-0.22375053 1.8143382 0.27235729 7.6923075
-0.26667216 1.8015727 0.4208374 10
-0.088265918 9.4258614 3.3013797 13
-0.25442177 -29.439129 3.957145 7
-0.035996262 9.4387493 3.7233801 15
-0.1237715 -29.417337 4.4064984 8
-0.082333013 8.0334358 7.379786 25.5
-0.30169195 7.9823713 8.3675232 28
-0.064967506 8.012928 8.2935228 27
-0.34348491 7.9422307 8.4595041 28
-0.050351974 8.0203667 8.4530239 28
-0.10315243 -29.458513 19.401703 21
0.20236537 -3.4041972 -0.18937005 2
0.39946967 1.5921168 -0.13437699 1
0.1964663 1.7446213 -0.13909626 1
0.20464183 2.6934392 -0.10896169 2
0.14975603 2.8146665 -0.064628862 3
0.10808293 1.9160068 0.25617358 7
0.12363143 1.8942837 0.44682905 10
0.045044694 9.4728851 3.4496374 13.5
0.07150045 -29.379154 4.0990148 7
0.086964495 8.114419 4.2598944 18
0.092285022 8.0885935 4.5385456 19
0.095978566 8.064352 7.3987794 25.5
0.061888505 -29.537113 25.570349 25
0.57327133 -14.622058 -0.22436835 3
0.51906186 -3.3693197 -0.18198419 2
0.413082 -3.080951 -0.18175767 1
0.45835543 -2.5014508 -0.17453025 1
0.6317488 -2.2661586 -0.17202811 1
0.60287756 1.4443001 -0.13339518 1
0.52482134 2.6263108 -0.049822245 3
0.78485888 -9.1831532 0.083851852 3
0.54644912 10.150071 3.4961855 13
0.65904927 10.163714 3.8196611 14
0.63655967 8.2531719 4.2537169 17.6
0.63833815 10.142514 4.021656 15
0.64451736 8.1741676 4.596468 19
1.0834321 -4.6194782 -0.18926206 2
1.1313477 1.1301578 -0.13288471 1
1.0587384 1.5943269 -0.12387951 1
0.99094611 1.7133096 -0.1185924 1.5
1.006776 2.0983291 -0.11445785 2
1.1512905 2.578732 -0.067758463 2.5
1.035701 3.7014916 -0.10393288 2
0.86076599 4.4304628 -0.10688069 2
1.1913106 4.8238597 -0.096816964 3
1.1996052 -8.8640022 0.34265065 4
1.3114334 -4.1836815 -0.17767407 2
1.4147357 -3.1052873 -0.16545513 2
1.2930743 -2.1285319 -0.16234913 1
1.3876774 -1.8724505 -0.1558966 1
1.2108567 -1.3309885 -0.15235661 1
1.413905 -1.1423738 -0.14590457 1
1.5527906 0.12402204 -0.1332005 1
1.2509435 1.0021272 -0.13140044 1
1.3542293 1.5067325 -0.1210798 2
1.2576654 1.6186241 -0.11594841 2
1.3461196 3.7290697 -0.098637238 2
1.3363618 4.4916654 -0.095125332 3
1.3342751 2.3579383 0.070897073 4
1.2217497 8.2570295 7.5172982 25
1.3507694 8.2841663 7.6992536 25.333334
1.9768838 -14.331749 -0.2054643 3
1.6435257 -4.1318235 -0.16712284 2
1.6098952 -2.9743936 -0.16046426 2
1.7917366 -2.6417153 -0.15529867 2
1.9212258 -2.3306191 -0.15377413 2
1.660805 -0.93797344 -0.14347707 1
1.7020049 -0.76009464 -0.14294295 1
1.6487203 -0.10411289 -0.13733801 1
1.6582466 0.13973953 -0.13257776 1
1.6645436 1.2965739 -0.11944169 2
1.9937541 1.7835853 -0.099969782 2
1.6765562 1.7497517 0.51116735 9.5
1.9265066 -15.334822 3.7999425 10
1.6126157 -15.057751 4.2245264 11.5
1.7233933 -14.912085 4.5386534 12
1.8044342 -25.763332 12.377701 17
1.9485612 -25.730347 13.018102 17
1.6519638 -25.858152 17.191406 21
2.3577838 -12.787875 -0.15960179 3
2.3195088 -2.2337935 -0.14267372 2
2.0931351 0.66318995 -0.11533421 2
2.2032239 0.87768072 -0.11143094 2
2.2994783 2.2859206 -0.086157277 2
2.2592475 2.6078451 -0.084898755 3
2.0539281 2.9160619 -0.085046284 3
2.1855772 3.868269 -0.076394133 3
2.1714208 6.0641131 0.0042678234 3
2.0891018 -25.766247 11.826088 16
2.3885014 -25.698488 12.402422 17
2.2995129 -25.801098 17.260332 21
2.7693999 -1.7108058 -0.13945183 2
2.7047241 -1.4149004 -0.13412686 2
2.4998558 -1.0202109 -0.12500186 2
2.426533 -0.66311485 -0.12985386 2
2.4951813 -0.2270546 -0.12085264 2
2.551471 0.20978509 -0.11082339 2
2.4606786 0.4492662 -0.10935953 2
2.7647514 8.6732044 9.5555706 28
2.6459403 8.530652 9.6620693 28
2.7450404 -25.68532 11.636518 16
2.5990381 -25.637653 12.008986 16
2.7537718 -25.626633 12.727461 17
2.505815 -25.667383 13.001746 17
2.8529503 -9.6547585 -0.20169769 3
2.8674262 2.6940446 0.0091714617 3
2.8340127 8.7437849 9.1855612 27
3.0429626 8.7595863 9.2883911 27
3.035068 8.5887547 9.6820269 28
3.1592345 -25.544306 16.633646 20
3.384419 1.5460154 -0.070289128 3
3.2942066 -25.512491 11.582 16
3.4342053 -25.515425 12.580461 17
3.2278931 -25.527023 17.117842 21
3.4905996 -25.498701 17.280643 21
3.6650872 -9.014432 -0.19481306 3
3.7079115 -2.8677557 -0.11424997 2
3.816366 1.4233621 -0.071720071 3
3.8101199 -25.452383 8.5275488 13
3.8584893 -25.444765 11.578713 16
3.9479449 -25.449673 12.053013 16
3.8875535 -25.44109 12.736808 17
3.7689788 -25.469982 17.149498 21
4.2951775 0.67926425 -0.060646482 3
4.0268455 1.183682 -0.068805009 3
4.2734647 -25.354918 7.956903 12
4.047255 -25.39765 8.2632341 13
4.1729569 8.7753458 9.7852554 27
4.293364 8.8188334 9.8806534 27
4.0126266 8.5042973 10.189222 28
4.1266022 -25.39637 12.459517 17
4.1835999 -25.466942 12.987812 17
4.3063054 -25.475719 16.121246 20
4.0837984 -25.388041 17.332396 21
4.6104374 -9.4146519 -0.1293299 3
4.605001 -7.8822556 -0.11901705 3
4.5027394 -3.8217509 -0.10690968 3
4.4825082 -3.4033914 -0.092542052 3
4.5852947 -1.6951938 -0.10147753 3
4.4819674 0.40204832 -0.056357894 3
4.5424223 -25.339592 7.6157589 12
4.6186399 -25.317099 8.2799797 13
4.4436722 8.9871531 9.1801138 26
4.6106968 9.0292883 9.3839483 26
4.4946537 8.8547993 9.9009457 27
4.4729142 -25.467464 12.80876 17
4.8513865 -13.911337 -0.22344296 3
4.8217063 -4.9232802 -0.12022255 3
5.1120863 -4.7558236 -0.12432388 3
5.0332646 -2.1470175 -0.063103475 3
5.1467962 -1.6687933 -0.05734434 3
4.8612423 -0.65872067 -0.050499864 3
4.8601532 -0.3278428 -0.051557556 3
4.8537536 -25.27844 7.9926949 12
5.5861044 -25.157856 17.795015 21
5.5407414 -25.151104 18.028856 22
5.8258557 -1.2351295 -0.035366327 3
5.7004056 2.9472282 0.010664768 3
5.8946371 -25.11344 17.414986 21
5.8747134 -25.1178 17.993927 22
6.3359141 -15.325071 2.7499139 8
6.1740808 -15.329345 2.8803408 8
6.0939913 -25.07546 18.046606 22
6.4489541 -15.307663 3.0062971 9
6.4567461 -25.033661 17.295773 21
6.7647009 -25.041969 17.99284 21
6.6599293 -25.030947 18.091469 22
6.9410057 -8.7233114 0.044947196 3
7.1680927 5.7964602 0.071006581 3
7.1242323 -24.897867 4.0907722 8
7.028008 -25.060091 17.42577 21
7.0128889 -24.969795 18.112587 22
7.5163136 -11.40939 -0.017256008 3
7.3780107 -24.929604 2.6096861 6
7.3948636 -24.849682 3.2386298 7
7.3925867 -24.819677 3.8105817 8
7.4298606 -24.846045 4.3587532 8
7.9252229 -8.1659231 0.44801292 4
9.4607992 9.6250553 9.7168188 22
9.9691553 -11.288484 -0.06502825 3
9.9743652 -27.922407 14.65228 17
9.9709177 -27.960941 26.784409 25
10.197993 -6.3239284 0.083538428 3
10.179743 -27.870718 13.239925 16
10.063594 -27.835522 13.910468 16
10.379529 -27.762337 14.459486 17
10.597776 -27.674894 14.677142 17
10.707281 -27.69824 20.630611 21
11.062871 -8.4488163 0.24161813 4
10.865751 -27.629021 14.826037 17
11.070579 -27.657492 20.874357 22
11.209707 -9.3776932 0.22136436 4
11.588989 5.3443708 0.31377852 4
11.550003 -7.0848293 0.47080857 4
11.571428 4.5909634 0.45351759 4
11.439285 -6.9378848 0.92519176 5
11.386798 -6.6064363 0.97956508 5.5
11.250011 -6.72541 1.727186 7
11.470205 -22.904594 4.352428 8
11.36311 -23.140402 4.644866 8.5
11.382912 -27.640985 20.744959 21
11.433655 -27.586159 20.905062 22
11.792628 -6.5309191 0.038052566 3
11.676675 3.9893708 0.4513247 4
11.701604 -23.182964 4.7196736 9
11.603104 -27.479246 20.041515 21
11.60847 -27.493622 20.966562 22
12.272333 -5.2968893 0.37433761 4
12.075627 -27.459852 20.937706 21.5
12.591975 -27.346483 20.971931 21.5
12.873851 -27.355616 9.7368965 13
13.075751 -26.862209 14.916979 17
12.956651 12.216619 17.548777 27
12.867895 11.959784 17.784159 27
13.293576 -27.267859 9.5863132 12
13.392575 -27.256788 9.864665 13
13.340729 -26.878618 13.316966 16
13.22366 12.221177 17.548956 26
13.540391 12.193356 17.938452 27
13.927197 -27.172163 9.984519 13
13.773702 -26.718113 15.018856 17
13.860164 12.035904 17.923336 26.5
14.033518 -27.18465 9.7229309 12
14.38123 -26.554989 14.18838 16
14.247018 -26.630442 15.119993 17
14.227633 12.403721 17.424864 26
14.695867 7.5890837 0.35989118 4
14.543171 12.114269 17.487101 26
14.740782 12.176187 18.6248 26
14.9865 12.029389 18.665298 26
15.520931 10.414608 3.5979307 9
15.548223 10.147406 3.7957764 9
15.379141 10.559663 3.8029335 9
15.587632 10.386103 4.0122967 10
15.838506 8.5692978 3.46314 9
15.723377 8.9977884 3.4845583 9
15.802367 9.3721743 3.5339096 9
15.846495 8.3533859 3.698725 9
15.797377 8.6751299 3.8267024 9.5
15.740233 8.9899645 3.943655 10
15.684394 9.3296309 3.8515322 9.5
15.894485 9.185977 4.0417862 10
15.636252 10.55469 4.1820445 10
16.397926 5.6320691 2.8304482 8
16.133167 6.8196855 3.3726525 9
16.361719 5.3803282 3.7703757 9.5
16.271177 5.6934438 3.9008167 10
16.184923 6.6580482 3.744247 9.5
16.406849 5.0563016 2.0447509 7
16.481644 5.2171683 2.820703 8
16.453537 5.0648685 3.6924338 9.5
16.416805 5.46696 3.7749026 10
16.806341 -24.433645 13.911647 16
16.875443 -24.357925 14.673818 17
17.060946 -24.196188 15.048311 17
17.522776 2.393157 0.67353714 4
17.260147 3.2636759 0.69382495 4
17.549995 -24.036764 12.233954 15
17.361906 -24.122465 13.931362 16
17.545769 -24.151659 14.765109 17
17.476866 -24.119793 18.950834 20
17.801054 -23.998646 9.0348454 12
17.735197 -24.150684 9.8697968 13
17.835367 -24.06284 13.154092 16
17.752878 -23.586117 13.827152 16
17.702185 -23.775082 15.020217 17
18.958729 -23.338501 7.4284329 10
18.987902 -23.684235 28.605162 26
19.063549 -23.501904 28.72521 26
19.254251 -23.447105 5.107698 8
19.387281 -23.402891 5.439157 8
19.234344 -23.489752 5.6556802 9
19.375172 -23.336111 8.3030472 11
19.927597 -23.610661 5.776525 9
19.798985 -23.74218 6.7572026 10
19.707306 -23.140472 7.4820757 10
19.670677 -23.382162 28.716408 26
19.615246 -23.120609 28.825861 26
20.291183 -23.64653 5.2399759 8
20.031023 -23.379021 5.7826266 9
20.243301 -23.718975 28.569067 25
20.464947 -23.269281 5.7681718 9
21.134756 -4.4834585 0.56373298 4
23.257198 -23.278576 5.8310757 8
23.323662 -23.227844 6.0862746 9
23.36157 -23.094439 7.0572629 9
23.795946 -3.924242 0.59724301 4
23.618998 -23.080452 5.5142407 8
23.704697 -23.116074 8.0466404 10
24.32929 -23.121689 10.040111 12
24.093 -23.350098 11.337481 13
24.582109 -21.056568 5.3664942 8
24.752125 -23.144432 5.6447654 8
24.572483 -21.385139 5.7258663 8
24.568102 -21.307581 6.0327573 9
24.540602 -23.036489 6.505806 9
24.611313 -21.052704 6.8726153 9
24.761475 -20.999447 7.8161469 10
24.769791 -23.052435 8.1947384 10
24.749187 -22.767801 9.0773087 11
24.52968 -23.206326 11.196012 13
24.518986 -23.097351 13.600852 15
26.316133 -20.884283 15.542183 16
26.457699 -20.825176 14.502661 15
26.446039 -20.98447 16.51383 17
26.95224 -20.807796 11.658564 13
27.592066 -20.958252 16.005308 16
27.843294 -20.925327 14.970246 15
28.310759 -20.845022 12.957974 14
28.261753 -21.034739 14.067024 15
28.32453 -20.879478 17.861111 17
28.477089 -20.984396 12.141794 13
29.028877 -20.855818 12.587816 13
28.886473 -20.84679 17.393282 17
29.492317 -20.666424 7.5243711 9
29.488276 -20.628212 8.5483141 10
29.506208 -20.594273 9.5593538 11
29.439268 -20.693163 12.382234 13
29.426384 -20.593405 13.204064 14
29.772104 -20.323847 5.8860378 8
29.865391 -20.422832 6.7385354 9
29.716965 -20.52943 11.53812 12
29.89819 -20.381601 12.060654 13
46.118256 -2.6196043 1.8766363 4
