# .PCD v0.7 - Point Cloud Data file format
VERSION 0.7
FIELDS x y z intensity
SIZE 4 4 4 4
TYPE F F F F
COUNT 1 1 1 1
WIDTH 854
HEIGHT 1
VIEWPOINT 0 0 0 1 0 0 0
POINTS 854
DATA ascii
-26.691572 56.119362 0.01812535 3
-26.316717 27.071341 14.444711 14
-26.142063 27.155285 15.51337 15
-26.013336 27.280514 15.930702 15
-26.007355 27.254814 16.2708 16
-26.068829 27.211586 16.523607 16
-26.184639 27.119263 22.642344 20
-25.71489 27.454323 23.190834 20
-25.535154 27.499241 14.374472 14
-25.385733 27.545193 15.416096 15
-25.205696 27.696692 15.843613 15
-25.443115 27.514212 16.546904 16
-24.849125 27.794626 13.28006 14
-25.179968 27.641848 16.139866 16
-24.645666 27.941845 15.335718 15
-24.614336 27.90291 16.365974 16
-24.392557 28.066389 16.039648 16
-18.606966 7.4808402 2.3125951 7
-18.595638 7.7579813 2.5250125 7
-18.612347 7.4967647 3.1535437 8
-18.47382 7.651855 2.8768492 8
-18.365383 6.7228751 2.4994755 7
-18.059179 8.0111589 2.4790127 7
-18.334862 6.5561805 3.0765674 8
-18.288956 6.4163895 3.3872061 8
-18.383604 6.8207412 3.4172194 8
-18.348013 6.6980724 3.9389064 9
-18.273836 11.326475 7.4974847 14
-18.157309 11.051831 8.026679 14
-18.323896 10.985811 8.7210331 15
-18.179939 11.118496 9.5524406 16
-17.759605 8.1918182 1.8680346 6
-17.715265 5.0305214 2.2555335 7
-17.939157 5.5727797 2.3049605 7
-17.817032 8.1813917 2.2717869 7
-17.733473 5.1764507 2.4298756 7
-17.930447 5.5418482 2.658884 7
-17.921492 8.0813398 2.5575166 7
-17.70278 4.9717865 2.9483924 8
-17.917168 7.9052553 2.8019454 8
-17.658485 8.0547485 2.9938509 8
-17.686413 4.8860698 3.2821877 8
-17.880522 5.3802838 3.3134756 8
-17.941553 5.6648312 3.2751715 8
-17.693617 5.0599051 3.6985803 9
-17.900887 5.5825973 3.7719486 9
-17.675453 8.0118599 3.7558787 9
-17.541937 4.697443 2.3816271 7
-17.409834 8.1644354 2.7357965 8
-17.509375 4.5947547 3.1503706 8
-17.083529 8.3608589 1.8199087 6
-17.033943 8.325016 2.2012351 7
-16.902273 8.4092503 2.3726814 7
-16.921118 8.4192257 2.6715717 8
-17.143538 8.2879725 2.9118009 8
-17.163143 8.274332 3.6927469 9
-16.493246 7.5671692 5.3496189 12
-16.509602 7.7864413 5.7900448 13
-16.493351 7.6860719 6.2953591 13
-16.459742 7.6000137 6.799726 14
-16.441397 7.5525694 7.3419285 15
-16.225092 7.1706371 5.6188259 13
-16.163862 7.0192533 6.5994802 14
-16.15811 7.0013509 7.1365571 15
-16.217489 6.9302874 7.3334379 15
-16.096884 4.5720224 16.655951 27
-15.604816 10.522519 1.8161508 6
-15.71729 5.9497571 5.0250745 12
-15.665058 6.0221553 5.3001618 13
-15.653197 5.9697456 6.2583528 14
-15.658374 5.9885435 6.7732916 15
-15.700319 5.8384619 6.9564395 15
-15.740156 4.670145 17.020819 27
-15.457524 10.521603 2.2848725 7
-15.317854 10.59495 2.603888 8
-15.444785 5.4788613 5.0459766 12.5
-15.408142 5.4806638 6.1006622 14
-15.427481 5.5198174 6.6124864 15
-15.093298 10.694026 1.7882397 6
-15.068968 10.712496 2.2843225 7
-15.157098 4.8620467 4.5802898 12
-15.159087 4.9923835 5.0279818 13
-15.104348 4.9872141 5.9242678 14
-14.252185 11.119851 1.7533476 6
-14.246344 11.123068 2.2793758 7
-14.096348 11.200913 2.1529238 7
-14.387978 11.049244 2.5428605 8
-14.386091 11.091608 3.0727806 8
-14.113428 5.3611903 4.7867732 12
-14.040464 5.3239055 5.3466177 13
-14.060467 5.3763008 5.7997599 14
-13.845533 11.324568 1.7378517 6
-13.756672 11.370106 2.2701855 7
-13.628607 4.0891399 4.2009139 12
-13.642665 4.1461339 4.585556 13
-13.399154 5.1828179 -0.18233372 3
-13.463441 11.520224 2.2322626 7
-13.592684 11.463262 2.4417701 8
-13.491652 11.497927 3.0171883 8
-13.486305 11.576674 3.516041 9
-13.434805 3.7627201 3.9964955 12
-13.212099 3.129643 4.4283838 13
-13.365347 3.5898488 4.5170455 13
-13.503247 3.8786056 4.5638218 13
-13.579221 4.1522131 5.4535093 14
-12.917537 5.0258899 -0.18639013 3
-13.151885 36.406296 0.15260886 3
-13.021978 11.720323 1.209928 5
-13.038541 11.709879 1.7068788 6
-13.039534 11.723063 2.2381842 7
-12.803518 2.0614243 4.2841911 13
-12.429079 12.002822 0.013130899 3
-12.695139 13.473977 0.012464044 3
-12.400756 29.386745 0.0055202078 3
-12.590173 11.937513 0.69551182 5
-12.681437 11.928111 1.6971058 6
-12.605177 11.946897 2.2489388 7
-12.742333 2.1142602 4.2112398 13
-12.733426 1.9161258 4.5528173 13
-12.359981 4.1003809 -0.2675696 3
-12.106263 -4.980968 0.36987957 4
-12.240528 -4.6139998 0.33643466 4
-12.147428 -4.8453693 0.59107405 4.5
-12.261002 -4.5314116 0.68555337 5
-12.164186 12.16261 0.60055041 4.5
-12.098974 -4.9966311 0.95685548 5
-12.202388 -4.7025504 0.95529324 5
-12.15055 -4.8522897 1.2040694 6
-12.324336 -4.4175649 1.4647532 7
-12.286678 12.102141 1.6836132 6
-12.0934 -4.9910073 2.3568602 9
-12.250545 12.138957 2.2122102 7
-12.016567 -5.2063289 2.5855465 9
-11.702492 -6.1316547 2.2398174 8.5
-11.802655 -5.7273235 2.3778031 9
-11.912449 -5.4272985 2.3672128 9
-11.637777 -6.206028 2.4501929 9
-11.788991 -5.8208437 2.4691994 9
-11.983 -5.367578 2.4123399 9
-11.646621 -6.2172346 2.8401895 10
-11.715117 -5.8866825 2.9098189 10
-11.697193 -0.89712685 5.8093438 17
-11.683038 -0.77265882 5.7935462 17
-11.591997 -6.5319533 2.1048536 8
-11.39985 -6.6088066 2.5626335 9
-11.566446 -6.3192601 2.400028 9
-11.437201 -6.5644579 2.8732042 10
-11.231411 -1.8262627 5.8133135 17.5
-11.216816 -2.0014956 6.0740223 18
-11.442994 -0.95027184 11.007993 26
-11.50753 -0.75880486 11.049395 26
-11.312319 -0.926763 11.296399 27
-11.421216 -0.61386359 11.377563 27
-11.141604 -7.3708906 2.1388118 8
-11.053388 -7.6418848 2.5425477 9
-11.170365 -7.3504667 2.5218484 9
-10.831576 -8.7972374 2.957653 10
-10.961918 -7.627193 2.9019945 10
-11.138575 -7.3500872 2.9053273 10
-10.434257 13.504146 0.27823868 4
-10.432261 13.294443 0.73774636 5
-10.523176 -8.9220848 2.257405 8
-10.494867 -9.3781681 2.6726549 9
-10.517486 -9.1309433 2.6002908 9
-10.471657 -9.3851576 3.0316379 9.5
-10.659636 -8.9517841 2.9867177 9.5
-10.452339 -3.8414183 6.0406942 18
-10.484481 -3.9004149 8.032155 22
-10.696897 -3.4846895 8.0103798 22
-10.417933 -3.3504331 11.053289 27
-10.612164 -2.8969879 11.083092 27
-10.231809 -3.5390084 -0.22114536 3
-10.176982 13.508215 0.44945839 4
-10.127352 -9.9055929 2.3487332 8
-10.03399 -10.051869 2.6736326 9
-10.128281 -9.8551855 3.0187564 9.5
-10.275276 -9.5705156 2.9189498 9
-10.063678 -5.0122862 8.0835371 22
-10.195316 -4.6068726 8.0500765 22
-10.337033 -4.2527313 8.0341024 22
-10.018025 -4.8448939 8.4591675 23
-10.275932 -4.2772198 8.4860172 23
-10.113249 -4.148334 11.084019 27
-10.271266 -3.8161604 11.091558 27
-10.032821 -4.1341367 11.480961 28
-10.108284 -3.893024 11.490315 28
-10.296702 -3.4308739 11.499903 28
-9.9115095 7.8704038 0.011723162 3
-9.952878 -10.204799 2.3735387 8
-9.6999607 -10.936498 2.4571972 8
-9.8134298 -10.552769 2.4113595 8
-9.7846165 -10.521543 2.9083595 9
-9.8990335 -10.290668 2.8404853 9
-9.7192869 -5.8383889 8.1899843 22
-9.995801 -5.030993 8.0739594 22
-9.622344 -6.068212 8.5937176 23
-9.6978931 -5.8146567 8.5539894 23
-9.9268713 -5.0777373 8.4658546 23
-9.7980289 -4.6866989 11.463643 28
-9.9409657 -4.3034201 11.509435 28
-9.3649864 -11.623192 2.5329196 8
-9.5220032 -11.258417 2.4890516 8
-9.218009 -11.716327 2.8478639 9
-9.4574823 -11.395351 2.937665 9
-9.3680182 -10.557177 3.1651993 10
-9.4744396 -11.420058 3.336499 10
-9.2542601 -7.1621957 3.974674 13
-9.5742502 -6.7329402 3.9571743 13
-9.2948151 -7.0264888 4.0397868 13
-9.3537273 -6.5292521 4.156168 14
-9.4421186 -6.361413 4.0963535 14
-9.2982311 -6.7807698 5.1919532 16
-9.2663813 -6.8782468 5.5898652 17
-9.5692015 -6.1007528 5.4656496 17
-9.2418804 -6.7939196 5.7609067 17
-9.5124407 -6.2037678 5.8975263 18
-9.2635689 -6.7615175 6.1999435 18
-9.5513458 -6.0225873 6.1337008 18
-9.598031 -5.9815164 8.1567707 22
-8.872611 -12.846354 3.0631206 9
-9.1827288 -11.779059 2.9598429 9
-8.9633284 -12.688846 3.5106518 10
-9.1705179 -11.829539 3.3728304 10
-9.1046238 -7.3830953 3.9894471 13
-8.8472233 -7.87041 4.0480351 13
-9.0311871 -7.3369455 4.1396317 13.6
-9.1352882 -7.0105915 4.1701946 14
-8.9683504 -7.6122899 5.3452377 16
-8.9352522 -7.6723537 5.7391868 17
-8.9419403 -7.5846376 5.9072375 17
-9.1539707 -6.8880463 5.984786 18
-8.8779602 -7.6893811 6.1281462 18
-8.954608 -7.5191021 6.2882814 18
-8.5674448 -7.6074414 -0.26098213 3
-8.7143326 -13.003014 3.0425882 9
-8.7836447 -13.037109 3.5565898 10
-8.6181355 -8.2210007 4.1997533 13.5
-8.7264614 -7.9511271 4.1724319 13.5
-8.6120691 -8.4773302 5.5336409 16
-8.498477 -8.6724539 5.8311806 16.666666
-8.6227465 -8.1909704 5.9454374 17
-8.4945631 -8.633563 6.3135271 18
-8.6635227 -8.2221174 6.2287755 18
-8.4616671 -8.8167086 6.4034424 18
-8.5340319 -8.5707674 6.6050673 18.5
-8.632432 -8.2941256 6.5407281 18.5
-8.4310932 -9.0733576 8.6143389 22
-8.5477943 -8.9155645 8.865942 22
-8.6029882 -8.6729679 9.2935562 23
-8.4165812 -8.9641304 9.6083727 23
-8.4304266 -8.0595789 11.310736 26
-8.4562883 -8.0281677 11.701763 27
-8.5429077 -7.7884388 11.751919 27
-8.5407286 -10.969081 14.366862 27
-8.3368568 -8.3228102 -0.18442078 3
-8.3897524 -3.390806 -0.12570289 3
-8.1788397 -2.3682451 0.04739752 3
-8.1467619 -9.3383236 4.2151556 13
-8.2929506 -9.1008816 4.2532783 13
-8.1995897 -9.4491873 4.6881394 14
-8.3250294 -9.1811161 4.6382637 14
-8.2243528 -9.3858147 5.7621665 16
-8.3507223 -9.0714245 5.6773095 16
-8.1890192 -9.3658848 6.2558284 17
-8.336937 -8.99121 6.1248322 17
-8.0403271 -9.6033297 6.5920486 18
-8.0824356 -9.3373394 6.559134 18
-8.2344408 -9.0508699 6.4882736 18
-8.2088985 -9.3541231 6.9651709 19
-8.3242254 -9.0841579 6.890295 19
-8.3620567 -9.4182816 8.771203 22
-8.3368139 -9.3479376 8.9962177 22
-8.1609583 -9.422226 9.4976368 23
-8.2792873 -9.1648874 9.4302549 23
-8.3524609 -8.1672125 11.189652 26
-7.8502827 -9.4740143 -0.17897291 3
-7.997097 25.722776 0.039481111 3
-7.9297886 -9.5924768 6.5980196 18
-7.9491048 -10.47546 9.1498318 22
-7.9913788 -10.330309 9.1348696 22
-7.6602292 -10.877189 9.3337193 22
-7.6951046 -10.561427 9.4832735 22
-7.9400897 -9.9992266 9.4429274 22
-7.6874437 -10.654016 9.846755 23
-7.8123045 -10.228413 9.7925186 23
-7.5057912 -11.045814 6.2596798 16
-7.3916578 -11.318084 6.7566414 17
-7.5028453 -10.920355 6.6086946 17
-7.5935278 -10.74473 6.7147284 17
-7.406858 -11.202513 6.9796543 18
-7.4914398 -11.012919 6.9385157 17.666666
-6.7106743 -12.895308 10.293621 22
-6.5309949 -12.599771 11.068635 23
-6.1111293 1.3428925 0.033875469 3
-6.1171117 -14.413514 7.5338559 17
-6.2086134 -14.16098 7.9163032 17.5
-6.0226827 -14.617434 8.0489082 17
-6.1373644 -14.38235 8.104845 18
-6.1696649 -14.343161 10.554834 21
-6.1447864 -13.714451 11.062778 22
-6.1134439 -13.572815 11.089772 23
-5.7915416 2.2728789 -0.17431328 2
-5.6915197 21.835001 -0.022515653 3
-5.8043752 -5.208921 0.11175408 4
-5.9574494 -14.829182 10.838953 21
-5.3873377 1.8552976 -0.2103418 2
-5.2851081 -0.4510912 0.01340936 3
-4.8610096 -11.833682 -0.19706871 3
-5.0462184 -4.4920745 -0.22928783 2
-5.1404634 -3.7520106 -0.23876828 2
-5.0265417 -2.3057678 -0.081546277 3
-5.0246949 -4.9420805 0.086481854 4
-5.1562252 -0.69978774 0.014842623 3
-4.8655734 19.147562 0.33793655 4
-4.5010772 -6.0625467 -0.22804801 2
-4.6480508 -3.7520864 -0.21409622 2
-4.4374952 -2.4473729 0.19611925 4
-4.4256186 -2.3306255 0.24689277 4.5
-4.6994457 -1.0757459 0.35276139 5
-4.4277592 -2.4987159 0.52572787 6
-4.6515794 -1.0299264 0.45578307 6
-4.3014379 -4.7246251 -0.095749758 3
-4.2420878 -1.3728261 -0.2101327 2
-4.1234593 -3.2124238 0.20141429 4.5
-4.1559167 -2.9611428 0.1357213 4
-4.326757 -2.5554295 0.22189438 4.4000001
-3.9678483 -5.8912444 -0.22711234 2
-3.9224129 -2.5830264 -0.18475682 2
-3.845721 -2.1264429 -0.21239854 2
-3.9579892 -1.838613 -0.21399426 2
-3.8423789 -1.5709448 -0.20578468 2
-3.8353508 -0.49848446 -0.20319563 2
-3.7753947 -0.22164011 -0.20275986 2
-3.6325336 0.81681663 -0.20175226 2
-3.3366764 -3.4938452 -0.22318467 2
-3.4449461 1.043879 -0.19741037 2
-3.4331214 1.9611089 -0.22105736 2
-3.3912435 2.5183671 -0.21155515 2
-3.2120357 -6.920733 0.24088065 4
-2.9578111 -8.3725901 -0.093884796 3
-3.1225882 -6.8902564 -0.00010427129 3
-2.8242896 -5.2371931 -0.0031207991 3
-3.042129 -3.6719017 -0.22087047 2
-2.9576633 1.0684569 -0.18880966 1
-3.1866512 2.1219528 -0.21769065 2
-2.9798999 -6.8150072 0.084421068 3.5
-2.9035432 -6.7719007 0.20193453 4
-2.853385 -5.2424765 0.15387794 4
-3.029614 -6.844265 0.56403798 5.5
-2.9417305 -6.7851982 0.44392648 5
-2.8112187 -5.1786265 0.44488063 5.5
-3.1446745 -6.8911424 0.82889146 7
-2.9305902 -5.2032437 1.0468773 8
-2.8568168 -5.1677585 1.1328795 9
-2.8703275 -5.2128372 1.352878 10
-2.5037436 -8.2964144 -0.087702289 3
-2.4596419 -0.31549525 -0.19632159 1
-2.5444937 2.2809372 -0.21119848 2
-2.6643515 -6.8904595 0.13918024 3.6666667
-2.5864367 16.412085 0.24173889 4
-2.6611168 -6.9126921 0.55901718 5.6666665
-2.6602614 -5.2702599 1.0941405 9
-2.0548046 -2.0322731 -0.19765608 1
-2.1062276 -1.8901476 -0.19854359 1
-2.167434 -1.1523815 -0.20186186 1
-2.2164667 -0.11645876 -0.20070072 1
-2.107008 0.97575474 -0.19694114 1
-2.0410831 1.5385811 -0.20177482 1
-2.3118207 2.5047023 -0.21020976 2
-2.3613288 2.8877802 -0.20731311 2
-2.0545468 12.856025 -0.20785348 3
-1.8326429 -3.9107006 -0.19805329 2
-1.9608561 -1.3685678 -0.1900029 1
-1.9973536 1.1902628 -0.19833317 1
-1.8838674 1.8642709 -0.19943728 1
-1.7702411 2.0803545 -0.198598 1
-1.8790748 2.6383278 -0.19989499 2
-1.7867419 3.181654 -0.20422161 2
-1.5964706 -6.4520845 -0.12060054 3
-1.3159888 -3.415596 -0.18099141 2
-1.2574298 -1.7387781 -0.18065605 1
-1.3681473 -1.5156016 -0.18277311 1
-1.4075171 0.68121696 -0.1889707 0
-1.4518685 1.9770663 -0.19679834 1
-1.3636844 3.1765275 -0.20071575 2
-1.2980959 11.5365 -0.17027073 3
-1.067009 -5.3513389 -0.20453101 2
-0.9570123 -3.7788925 -0.18580867 2
-1.0338131 -3.3637955 -0.17691419 2
-1.1565839 -2.5962431 -0.17801487 1
-1.1871413 -1.6703812 -0.18168285 0
-1.0158484 1.7065293 -0.18804231 1
-0.88528782 3.222647 -0.19163801 2
-0.44708914 -2.2839944 -0.16985545 1
-0.64243281 1.7706927 -0.18328051 0.5
-0.63260895 3.1475246 -0.18282422 2
-0.49483556 3.7065432 -0.18666361 2
-0.52820092 -2.665113 0.0041831038 3
-0.51889229 -2.0281014 0.36106646 8
-0.4484266 -1.9453847 0.35132882 8.5
-0.52485299 -2.0120208 0.44506183 9.5
-0.43010697 -1.9418368 0.56133556 11.5
-0.42589137 13.075205 1.4663162 7
-0.52997422 13.001857 1.6710906 7
-0.21731643 -2.9530656 -0.16403899 2
-0.19302596 -2.5154431 -0.16613962 1
-0.20334287 1.9253477 -0.17932515 1
-0.22455153 3.8786552 -0.18047746 2
-0.2232402 -1.7980578 0.33469555 8.7142859
-0.10213756 11.847984 0.062786549 3
-0.21032582 -1.7813724 0.40715814 10
-0.39718905 13.069663 1.153442 6
-0.081991531 13.20437 1.1763488 6
-0.20206381 13.164248 1.4526453 6.6666665
0.10648985 -2.935076 -0.16675769 1.75
0.21337654 -2.5731633 -0.16676071 1
0.3718909 1.4227202 -0.16568044 0
0.28427586 2.0238428 -0.17208771 1
0.066910297 4.1623588 -0.17853162 2
0.27340725 7.2498055 -0.16876346 3
0.17014629 -3.397558 0.13794048 4
0.29951006 -3.1091623 0.11799105 4
0.16923796 -1.6300696 0.31500438 9
0.30940521 -1.5859236 0.33331138 9.5
0.070382491 -1.6586645 0.58407104 13.5
0.66110021 -11.404091 -0.2191655 3
0.6520707 -5.0981631 -0.117009 2.5
0.68756342 -3.3751023 -0.16947018 2
0.64138448 1.1470213 -0.16155104 0
0.62350416 1.400648 -0.16375069 0.5
0.70255327 1.9328418 -0.16233909 1
0.53648049 2.1069951 -0.16403866 1
0.64161265 3.2788785 -0.1685259 2
0.69436651 -4.5488915 0.038880806 3
0.43607455 -3.0505602 0.10812721 4
0.66678947 -1.6024067 0.23597118 7
0.55258876 -1.5685672 0.32363296 9
0.41500413 10.72917 0.38773537 4
0.53180438 -1.5496171 0.55321848 13
0.68201029 10.580679 1.0591598 6.5
0.74322337 10.595461 1.4598601 7.5
0.89264107 -3.4895339 -0.16916901 2
1.1040062 -3.0594659 -0.16499266 2
0.87808299 -2.4355652 -0.15848738 1
0.90166974 -2.0031579 -0.0005764977 3
0.98389006 -1.9832274 -0.014460915 3
0.88497978 -1.4475676 -0.15565372 0.25
0.94351792 1.1702433 -0.1617098 0
0.88929349 1.3441993 -0.1609437 0.66666669
0.81646144 2.5640299 -0.1605617 2
0.87437236 3.2030571 -0.16299713 2
1.0339984 -4.5968618 0.029834019 3
0.95095026 -1.9590909 0.04912788 4
1.0646342 10.720385 0.89491487 6
0.97305351 10.697416 1.216465 7
0.9994666 50.548054 10.454497 9
1.2867408 -1.8621436 -0.16002163 1
1.5932225 -1.5296839 -0.15909711 1
1.4610465 -0.48641995 -0.1502061 0
1.4323435 -0.21245532 -0.14944588 0
1.5856057 0.35565111 -0.15776452 0
1.5007279 0.64156502 -0.15611413 0.60000002
1.4012054 0.82697743 -0.15586749 1
1.3814298 1.5821854 -0.15244593 1
1.3076271 1.6599261 -0.15381974 1
1.461537 2.3981953 -0.15659511 2
1.2304628 2.4078586 -0.15781651 2
1.4590914 6.109549 -0.14139377 3
1.2162744 6.4550295 -0.13714832 3
1.2210088 10.827795 1.6045654 8
1.4564949 50.660618 11.995997 10
1.7985659 -2.0737112 -0.16762315 1.5
1.7975962 -1.8840951 -0.16166541 1.5
1.6765355 -1.2585289 -0.15552834 1
1.7056336 -1.1594862 -0.15450799 1
1.7522056 -0.4282791 -0.14974584 1
1.6666563 -0.21444555 -0.14954165 1
1.8944249 1.3185681 -0.15415904 1
1.701069 2.3754177 -0.15535457 2
1.8629284 4.6930308 -0.13744332 2
1.7363009 5.9613795 -0.15005472 3
1.9096925 10.6807 0.90147024 6
2.3129838 -3.0774057 -0.17104979 2
2.0332034 -1.842002 -0.15577047 2
2.307611 -0.80083871 -0.15360042 1
2.3185999 -0.68166494 -0.15363535 1
2.1072528 0.54036456 -0.15201721 1
2.0235167 2.5216672 -0.15080009 2
2.0781446 4.5636973 -0.14343968 2
2.1497869 5.33005 -0.14909855 3
2.0009379 5.7973466 -0.15774989 3
2.0715363 10.632591 0.24816959 4
2.2082598 10.696797 0.46049419 5
2.0526836 10.645576 0.92207521 6
2.2461538 50.995026 10.63116 9
2.0012379 50.955982 11.644333 10
2.7465162 -4.5312543 -0.1680471 2
2.6194806 -3.9066565 -0.15537599 2
2.4707246 -2.9883273 -0.17179362 2
2.7463534 -0.093121961 -0.1542504 2
2.6720986 0.039218772 -0.15348433 2
2.5884235 2.0920789 -0.14651123 2
2.5307217 2.8222039 -0.1551196 2
2.5021706 5.4302125 -0.14323077 3
2.4299598 8.3002863 0.20638108 4
2.6735682 10.912292 0.26357701 4
2.4307783 51.075405 11.451673 10
3.0835819 -2.2454517 -0.16083968 2
2.9980624 -1.7744848 -0.15575616 2
3.1203635 -0.65556628 -0.14925508 2
2.9389408 -0.31286284 -0.16176444 2
3.0358198 0.37864614 -0.15814015 2
2.9504278 0.58486927 -0.16000478 2
2.9802976 2.0632451 -0.14957651 2
3.4281363 1.8985715 -0.14534697 2
3.5780358 5.9239426 0.18281071 4
3.5519271 6.1201982 0.37127975 5
3.997812 -1.1382469 -0.13251218 2
3.9062774 0.27284876 -0.13349447 2
3.6724241 1.0152957 -0.13865408 2
3.6951079 1.6991974 -0.14250124 2
3.9148164 5.5256715 0.27716231 4.5
3.8065665 5.6481652 0.27558875 4.5
3.8625386 5.5998125 0.5073542 5
3.9150066 5.7020221 0.7606039 6.6666665
3.6552391 6.1498685 0.69251174 6.3333335
4.3805914 3.5045888 -0.12402507 3
4.0468035 4.888061 -0.084594294 3
4.1507883 6.9274516 -0.0088704079 3
4.0277257 5.4107885 0.27872318 4.5
4.1999407 5.463079 0.69265342 6
4.3879128 5.5003104 0.82148814 7
4.71385 5.2892923 -0.085731842 3
4.5951176 5.3196754 0.23057239 4.3333335
4.5278277 8.4347467 0.061700504 3
4.4546638 5.3391685 0.64400554 6
5.0837579 1.4565339 -0.10653381 3
4.8256159 1.8820524 -0.11953984 3
5.0425916 3.6605394 -0.11982542 3
5.1826653 3.5919046 0.38360032 5
5.1837621 3.7004716 0.21591595 4
5.1577945 3.6719749 0.44640937 5
5.4826598 -0.44722229 -0.11123641 3
5.430747 3.5676231 -0.10682715 3
5.4835629 1.7565203 0.31486553 4.75
5.3650608 3.4354916 0.26533219 4.3333335
5.5403132 1.5149885 0.4882479 5.5
5.4567385 1.8768835 0.63567209 6.3333335
5.286037 3.4734199 0.44502202 5
5.7707825 0.15281479 -0.081111841 3
5.6661968 0.53951693 -0.087593637 3
5.9939809 8.9443483 -0.014286232 3
5.8239822 1.3358248 0.17295872 4
5.802784 2.2992458 0.066800252 4
5.8163638 2.6318986 0.064382546 3
5.8489842 3.3656263 0.057373919 3
5.8815374 1.1398394 0.59525985 6
5.8167424 1.2454437 0.65137154 6.3333335
6.2358623 -1.0946383 -0.11459568 3
6.0942626 -0.78067183 -0.1179893 3
6.2805734 -0.19695584 0.17101511 4
6.788259 -6.7023215 -0.11655829 3
6.7705288 -5.4567509 -0.11871907 3
6.4263887 -1.4649332 -0.07711082 3
6.6373444 1.1653202 -0.086403176 3
6.593019 40.209099 15.753425 14
6.4867845 40.055752 17.362455 15
6.8671384 39.898891 15.790212 14
6.9013677 39.458904 16.275473 15
7.5063829 -3.8538876 -0.10258026 3
7.2409463 -3.3020031 -0.097159065 3
7.5993085 10.212495 -0.020743906 3
7.3219466 34.241657 7.6612773 10
7.5936503 33.933014 8.4770269 10
7.5574841 34.092186 8.6104956 11
7.2438021 34.314842 9.2838297 11
7.588099 33.941467 9.9069996 12
7.4128175 34.121784 13.395457 14
7.5097938 34.059238 13.680462 15
7.4442053 33.932312 15.581573 16
7.8189521 -2.582211 0.292714 4.5
7.8644233 -2.5808623 0.46679515 5
7.8617439 11.019913 3.4002085 10.5
7.9051404 11.875176 3.5274234 10.5
7.8457422 12.169436 3.4535949 10
7.7012229 11.927379 3.7587423 11
7.7305322 11.929195 4.1388221 12
7.9094605 33.436344 7.5913877 10
7.8891215 33.53862 9.1220694 11
7.8225741 33.657681 14.788587 15
8.2252321 -9.8179245 -0.11661637 3
8.0602379 10.910976 3.3483131 10.333333
8.1083765 33.329567 8.2313538 10
8.1996355 33.273571 8.4438133 11
8.141922 32.931862 9.6784945 12
8.4317617 4.336812 -0.025837809 3
8.4461479 32.205391 7.3283648 10
8.7358885 32.044243 8.1212692 10.5
8.4115343 32.376228 8.8538275 11
8.6898451 32.023865 9.4796762 12
8.5017967 32.052788 12.684989 14
8.6774826 32.0877 13.118503 15
9.1152077 31.608616 7.2141442 10
9.0411234 31.777973 8.7444811 11
9.1100903 31.454002 14.743583 16
9.5767651 -6.9023356 0.39159027 4
9.3667421 -4.2003503 0.20685257 4
9.6699581 2.1985791 -0.12691417 3
9.6488361 -7.6374593 0.25879249 4
9.8536215 -5.7304692 0.0099695716 3
10.271437 -0.29197288 -0.015924709 3
10.149757 -6.5597973 0.012609913 3
10.907945 -11.864755 0.12148587 3
11.693594 -10.389377 -0.13619183 3
11.754127 -11.4857 0.40501127 4
11.720181 -11.479742 1.1009486 5
11.690512 -11.419193 1.96789 7
12.087008 -11.3028 1.1026121 5
12.3329 -11.01055 1.0950433 5
12.030544 -11.323765 1.5130098 6
12.281544 -11.038458 1.5054511 6
12.061114 -11.223019 1.9705584 7
12.319455 -10.996597 1.7775183 6.5
13.181137 -10.595555 1.4395821 6
13.110929 -10.618097 1.6314543 6
13.354609 -10.515756 1.9078978 6.6666665
13.457395 -10.387566 1.6450782 6
13.289061 -10.487284 2.4787743 8
13.591616 -1.5303844 3.7295423 11
13.595317 -0.51630861 5.9420457 16
13.381631 24.780993 17.370403 20
13.648615 -16.237614 0.40991616 4
13.667196 -10.42577 1.9984704 7
13.854842 -10.25229 1.8508037 6
13.83779 -10.266639 2.0027735 7
13.737712 -1.6156001 3.1488364 10
13.71222 -1.4567189 2.8327191 9
13.710122 -1.4123619 3.4306962 10
13.603653 -1.4896374 3.6865444 11
13.613952 -0.49760357 5.2650657 14
13.600192 -0.17991647 5.259861 14
13.722259 -0.31197834 5.6266522 15
13.706098 24.079174 17.089979 20
14.063711 -10.20196 2.0081868 7
14.137304 -10.121081 2.5233166 8
14.199836 0.96815735 3.5351734 10.5
14.164247 0.64272684 3.9173362 11
14.080208 0.94847077 3.9109778 11
14.058072 0.73854053 4.0960841 12
14.449723 0.79122204 3.5337381 10
15.127668 -4.0917974 3.9111791 11
14.908832 -3.9993329 3.7717631 10
15.157359 -3.3301153 3.8130012 10
15.023944 -4.2810445 4.3330469 11
15.147606 -3.9288278 4.3281703 11
14.862609 -3.3140168 4.0144725 11
15.303651 -3.5245144 2.5293224 8
15.340073 -3.3003452 2.9523149 9
15.261388 -3.5165243 3.2362456 9
15.384323 -4.0482998 3.6046243 10
15.312781 -3.0574863 4.1351848 11
15.625237 -11.14801 0.025158709 3
15.718261 -3.0284607 3.7878933 10
15.678892 -2.90007 4.3777781 11
15.699545 21.063572 15.275248 19
15.880486 20.810598 16.144272 20
16.11507 -28.334852 0.52581424 4
16.205685 -28.218706 2.3249574 5
16.012035 -3.0746756 3.0504293 9
16.054377 20.792727 15.20776 19
16.622353 -28.088982 0.54066676 4
17.015173 -27.905293 0.31733215 3
17.178051 -27.853149 0.50661314 4
17.09634 -27.965256 1.4634851 5
16.907782 -27.926775 2.3231485 5
17.480556 -27.709314 0.56012923 4
17.716948 -27.60289 0.36653572 4
17.630009 -26.007517 0.26918167 3
17.911047 -27.545141 0.47487342 4
17.600481 -27.620569 2.320333 5
18.308165 -27.327774 2.3195577 5
18.405281 -27.2873 0.41372496 4
18.499184 -27.289829 1.4248948 4
18.904079 -27.147467 0.59360456 4
18.927835 18.89159 16.473825 20
19.007463 18.73148 16.861328 20
19.243872 18.0951 16.759108 20
19.346489 18.466286 16.475639 20
19.973595 9.9731474 12.805142 19
19.71707 10.429417 12.803994 19
19.934862 10.024136 13.581999 20
19.725554 10.503908 13.587908 20
19.841434 10.124993 13.668676 20
19.60265 10.560472 13.670581 20
19.896984 17.650059 15.36445 19
19.997849 17.45125 16.344049 20
19.686422 18.01141 16.519293 20
19.897779 9.9971581 20.202982 25
19.874992 10.139347 20.312738 25
19.648455 10.508332 20.216265 25
19.930113 9.9023094 20.413177 25
19.957542 16.628159 22.701481 25
19.614264 17.122801 22.666809 25
20.28327 17.059282 15.299405 19
20.314524 16.944683 16.285686 20
20.141287 9.4212866 20.393238 25
20.77562 8.3469439 8.0618067 14
20.795151 8.4189501 8.9997568 15
20.542854 8.8989172 8.9766703 15
20.655863 8.5030584 9.3943892 15
20.508051 9.1353893 9.9212999 16
20.622959 8.553896 12.785272 19
20.680044 8.3171234 13.645674 20
20.626925 8.6152849 13.661203 20
20.522949 8.9692278 13.694551 20
20.750498 8.2013149 14.608953 21
20.535355 8.6257076 14.594019 21
21.048431 7.6056347 12.801221 19
21.111547 7.4165368 13.68056 20
21.039988 7.6495714 13.71816 20
20.807377 8.1241789 13.669154 20
21.484903 6.6502724 12.850107 19
21.472561 6.6911278 13.815044 20
21.294281 7.0650148 13.735799 20
21.856682 5.5757403 13.0939 19
21.874392 5.5469489 13.755963 20
21.836086 5.6950951 13.899744 20
21.90045 5.5512915 14.70901 21
21.792847 5.715549 14.669648 21
22.776367 -30.813961 2.6750081 5
22.716805 -30.898809 3.5069098 6
23.182495 -30.28606 4.8006945 7
23.20376 -30.299599 3.695734 6
25.87421 3.6738703 16.8988 20
25.816847 2.8175318 24.730377 26
26.195305 3.2171094 7.5757179 12
26.255348 3.0463459 8.1629553 12
26.285887 4.1223345 11.439165 15
26.201769 4.1997852 11.79395 16
26.393755 3.7919226 12.163624 16
26.164913 4.37152 12.072741 16
26.276115 4.0678692 15.468197 19
26.139235 4.2237225 16.236826 20
26.359617 3.4512353 24.438858 26
26.038923 3.4768002 25.887268 27
26.625713 3.4462347 6.5193009 10
26.637407 3.3720305 6.8083801 11
26.552608 2.9879153 7.4335241 11
26.444204 3.5687196 7.4458847 11
26.510653 3.6740229 8.2259207 12
26.657221 1.9892069 11.054435 15
26.556797 2.2508471 11.521076 15
26.564037 3.5277724 11.540135 15
26.650557 1.9707023 12.288437 16
26.417139 3.6636779 15.177773 19
26.604122 1.576275 24.545639 26
26.53686 1.7491546 24.686409 26
26.41865 3.6305821 24.731815 26
26.886646 2.791877 6.8462601 11
26.944736 2.1881154 10.452803 14
26.83408 1.8678125 10.887834 15
26.916952 1.4553468 24.423271 25
27.537855 -43.458355 10.753049 9
27.581142 -43.31992 10.952111 10
27.253269 1.2487601 24.264999 25
27.889046 -43.006363 8.040617 8
27.714243 -43.274498 9.4113398 9
28.038755 -42.872799 11.180872 10
28.132315 -1.453746 26.215097 26
28.313011 -0.79715121 26.34207 26
28.434202 -42.232479 9.2974997 9
28.751335 -41.820545 11.125026 10
28.50687 -42.188511 11.203629 10
28.759796 -9.5691147 12.560971 15
28.722122 -2.5388083 16.944641 19
28.448521 -1.2581811 25.503551 25
28.516809 -1.9009315 25.637991 25
28.407967 -1.5985309 25.702652 25
28.436678 -0.97128546 25.715378 25
28.402077 -1.0220592 26.265345 26
28.415384 -2.1414254 26.53693 26
29.167414 -41.267921 9.2067137 9
29.145788 -10.527404 10.38786 13
29.085108 -41.388638 10.941581 10
28.970135 -10.164887 11.738473 14
29.078199 -2.7157562 16.540346 19
28.960388 -2.0298109 16.452824 19
29.495436 -40.86652 11.092266 10
29.450966 -40.891403 13.724191 11
29.442984 -40.819141 16.41317 13
29.912601 -40.344772 9.125967 9
29.6733 -40.583344 10.483559 9
29.953142 -40.202801 11.055029 10
29.808765 -6.7214017 11.010124 14
29.876049 -6.6428895 12.394219 15
29.824572 -6.7786112 12.58517 15
29.955776 -6.762753 13.596401 16
29.809786 -40.37521 15.01779 12
29.741346 -6.8355665 15.459044 17
29.845242 -40.319141 17.698849 13
29.797588 -40.416599 18.846777 14
29.927 -40.073536 18.814974 14
29.964102 -4.6718397 28.179729 26
30.137064 -40.008011 7.7433391 8
30.174707 -4.6435919 9.1270666 12
30.089878 -4.5292039 9.8888741 13
30.211714 -39.884335 11.060467 10
30.13294 -4.5620561 10.959965 14
30.113117 -4.582809 12.39894 15
30.227533 -39.878986 13.569499 11
30.163597 -39.878063 16.276386 13
30.081261 -39.918064 18.50824 14
30.341578 -5.1640043 28.754578 26
30.635033 -39.396408 9.0391874 9
30.415491 -39.708076 10.415819 9
30.661184 -39.231487 10.990225 10
30.769226 -14.241398 11.490414 13
30.752224 -14.311611 12.297394 14
30.585733 -39.449879 14.894111 12
30.747036 -14.235434 15.265376 16
30.521547 -39.414783 17.576994 13
30.672634 -39.170616 18.800245 14
30.902597 -38.931244 11.026636 10
30.96937 -38.86763 13.428756 11
30.871857 -38.957783 16.150589 13
31.19149 -38.521126 17.460135 13
30.81151 -38.97625 18.377485 14
31.19223 -38.497021 18.621136 14
31.315638 -38.436264 8.9543486 9
31.200342 -38.488171 10.954142 10
31.560411 -38.018291 16.019766 13
31.734663 -37.843678 10.261066 9
31.903339 -37.585552 10.673354 10
31.611261 -37.990314 11.010853 10
31.691561 -37.853065 13.28799 11
31.848879 -37.617199 17.340261 13
31.863209 -37.537472 18.519285 14
32.308361 -37.118473 7.4900613 8
32.003109 -37.506618 8.8785324 9
32.380688 -36.929626 10.193182 9
32.279156 -37.040638 10.985004 10
32.257961 -37.123322 15.91398 13
32.221375 -37.099037 18.138908 14
32.086575 -37.30542 18.765678 14
32.664761 -36.551872 8.8016739 9
32.613529 -36.653946 10.597589 10
32.440887 -36.892628 13.173293 11
32.570377 -36.624889 18.452517 14
33.077061 -36.071384 10.138402 9
32.997372 -36.146732 10.988262 10
33.155277 -35.909248 13.056537 11
32.947041 -36.234089 15.81618 13
32.912128 -36.173515 18.033115 14
33.322552 -35.815948 11.041838 10
