# .PCD v0.7 - Point Cloud Data file format
VERSION 0.7
FIELDS x y z intensity
SIZE 4 4 4 4
TYPE F F F F
COUNT 1 1 1 1
WIDTH 1152
HEIGHT 1
VIEWPOINT 0 0 0 1 0 0 0
POINTS 1152
DATA ascii
-1.5638344 -2.7713065 -0.22837897 0
-1.5046022 -2.6680517 -0.22578214 0
-1.4370017 -2.5502098 -0.22281846 0
-1.5290941 -2.4338789 -0.21284875 0
-1.3694015 -2.4323678 -0.21985477 0
-1.4772785 -2.3526733 -0.21084222 0
-1.3243345 -2.3538065 -0.21787897 0
-1.4293686 -2.2775891 -0.20898694 0
-1.3814588 -2.2025049 -0.20713165 0
-1.2792677 -2.2752452 -0.21590318 0
-1.333549 -2.1274209 -0.20527638 0
-1.2342007 -2.1966839 -0.21392739 0
-1.1891338 -2.1181226 -0.2119516 0
-1.2856392 -2.0523367 -0.2034211 0
-1.1440669 -2.0395613 -0.20997579 0
-1.2377294 -1.9772525 -0.20156583 0
-1.099 -1.961 -0.208 0
1.9567982 0.76136088 -0.2455847 0
1.826 0.81400001 -0.23899999 0
1.9484231 0.87195182 -0.23479849 0
2.0821929 0.81344354 -0.24133883 0
2.1657891 0.84816527 -0.23850825 0
2.2493856 0.88288701 -0.23567769 0
1.61 0.96499997 -0.222 0
2.0708466 0.92990363 -0.23059697 0
2.152462 0.96853822 -0.22779597 0
2.3329821 0.9176088 -0.23284711 0
2.4165783 0.95233053 -0.23001653 0
2.500175 0.98705226 -0.22718595 0
1.4219999 1.075 -0.20750001 0
1.5578299 1.0382303 -0.21601564 0
1.6868501 1.0125142 -0.22430839 0
1.7637 1.0600286 -0.22661677 0
2.2340775 1.0071727 -0.22499497 0
2.3565006 1.0651246 -0.22079346 0
2.5837712 1.0217741 -0.22435537 0
2.6673677 1.0564958 -0.22152479 0
2.7509642 1.0912175 -0.21869421 0
1.3598827 1.1456113 -0.20214905 0
1.4497533 1.1531453 -0.20620951 0
1.5456079 1.1609308 -0.21105187 0
1.6683192 1.1139212 -0.21906251 0
1.7419789 1.1643817 -0.22109376 0
1.8405499 1.1075428 -0.22892515 0
1.9174 1.1550571 -0.23123355 0
2.4789238 1.1230764 -0.21659195 0
2.5605392 1.161711 -0.21379095 0
2.8010001 1.112 -0.21699999 0
1.4543765 1.2600288 -0.20282175 0
1.5641961 1.2773088 -0.20787671 0
1.6314659 1.2366567 -0.2129745 0
1.7251438 1.277 -0.21642484 0
1.8524683 1.2400726 -0.22414064 0
1.9942501 1.2025714 -0.23354194 0
2.0711 1.2500856 -0.23585032 0
2.1479499 1.2975999 -0.2381587 0
2.6565773 1.2071728 -0.21049497 0
1.4794939 1.3306708 -0.20214489 0
1.5422467 1.3532724 -0.20430601 0
1.66934 1.3420038 -0.21126799 0
1.7711097 1.3444278 -0.21662417 0
1.8662157 1.3835 -0.22013725 0
1.9629576 1.3157635 -0.22718751 0
2.0366173 1.3662241 -0.22921877 0
2.2248001 1.3451141 -0.24046709 0
2.30165 1.3926284 -0.24277547 0
1.4971588 1.411729 -0.20008731 0
1.5698479 1.4433335 -0.2019328 0
1.6360899 1.4471468 -0.20569651 0
1.7431412 1.4603103 -0.21121818 0
1.8502016 1.4403875 -0.21765748 0
1.9367516 1.4367499 -0.22199346 0
2.0072875 1.49 -0.22384967 0
2.1471066 1.4419148 -0.23226564 0
2.21 1.485 -0.234 0
2.3785 1.4401426 -0.24508387 0
2.4089999 1.459 -0.24600001 0
1.6554087 1.5374784 -0.20380692 0
1.7526449 1.5602801 -0.20765202 0
1.8293955 1.5336937 -0.21318951 0
1.9446211 1.5400563 -0.2191159 0
2.0510001 1.523 -0.22499999 0
1.8459947 1.6545115 -0.20751294 0
1.9206846 1.7215378 -0.20885104 0
-2.049 -2.0650001 -0.164 0
-1.9917626 -2.0067315 -0.164 0
-1.453691 -2.0861535 -0.19389573 0
-1.3973273 -2.0071201 -0.19296409 0
-2.0469999 -1.9680001 -0.161 0
-1.9573429 -1.9256859 -0.16239187 0
-1.4270363 -1.9486525 -0.18962455 0
-1.3472728 -1.9369334 -0.19213673 0
-1.1898196 -1.9021683 -0.19971055 0
-2.0293634 -1.8626363 -0.1580039 0
-1.9405148 -1.8231273 -0.15933388 0
-1.8362118 -1.8483779 -0.164 0
-1.5667493 -1.8676337 -0.18089095 0
-1.4188614 -1.8446281 -0.18295038 0
-1.3538939 -1.8509209 -0.18837425 0
-1.2972182 -1.8667467 -0.19130939 0
-1.1419098 -1.8270842 -0.19785528 0
-2.197 -1.709 -0.142 0
-2.0179999 -1.768 -0.154 0
-1.9947662 -1.7473855 -0.154 0
-1.8750945 -1.7621274 -0.15927202 0
-1.7683605 -1.7378647 -0.16205741 0
-1.5003113 -1.7874839 -0.18018416 0
-1.430562 -1.7363503 -0.17929322 0
-1.3227664 -1.7508072 -0.18411684 0
-1.2493501 -1.7553563 -0.1885533 0
-1.1971091 -1.7263733 -0.18965469 0
-1.094 -1.752 -0.19599999 0
-2.1328351 -1.6585259 -0.14257732 0
-2.0572257 -1.6071867 -0.1431098 0
-1.9289205 -1.6889622 -0.154 0
-1.8442918 -1.655215 -0.15615273 0
-1.7442539 -1.6401273 -0.15914828 0
-1.6495508 -1.6583536 -0.164 0
-1.5237442 -1.6495838 -0.1719434 0
-1.3565143 -1.6580257 -0.17883497 0
-1.2276094 -1.6406982 -0.18385004 0
-1.1470546 -1.6561867 -0.18882734 0
-2.0131359 -1.5435208 -0.14118928 0
-1.9676532 -1.5377536 -0.14397155 0
-1.7643061 -1.5429044 -0.154 0
-1.653401 -1.5649999 -0.15920623 0
-1.5562203 -1.5633414 -0.164 0
-1.453133 -1.5722865 -0.17161725 0
-1.3755974 -1.5531037 -0.17343467 0
-1.2369516 -1.5379646 -0.17906728 0
-1.1500664 -1.5402968 -0.18309581 0
-1.0975001 -1.5474999 -0.18599999 0
-2.1409802 -1.4396112 -0.13303249 0
-1.9428444 -1.4479562 -0.14018121 0
-1.8425585 -1.443741 -0.14513896 0
-1.644914 -1.4773893 -0.15630156 0
-1.5479929 -1.4571273 -0.15896265 0
-1.4844999 -1.4565001 -0.16150001 0
-1.3297558 -1.4666123 -0.17153908 0
-1.2438459 -1.4385462 -0.17459774 0
-1.1550674 -1.4370178 -0.17816848 0
-1.099 -1.437 -0.18099999 0
-2.0647645 -1.3872001 -0.13425848 0
-1.959113 -1.3454076 -0.13498908 0
-1.8546686 -1.3517278 -0.13970783 0
-1.7446213 -1.3447449 -0.14528728 0
-1.6651021 -1.3142656 -0.14689195 0
-1.5667686 -1.3676348 -0.154 0
-1.4530656 -1.3566949 -0.15968087 0
-1.3508734 -1.3800257 -0.16430496 0
-1.246533 -1.3425736 -0.16970128 0
-1.1327398 -1.3437396 -0.17564943 0
-2.102 -1.277 -0.127 0
-2.0449989 -1.2435502 -0.12810931 0
-1.9163724 -1.2851555 -0.13664548 0
-1.8322457 -1.254792 -0.13669637 0
-1.7344401 -1.2391686 -0.14015159 0
-1.6498691 -1.2420925 -0.14523651 0
-1.5606232 -1.2255236 -0.14786915 0
-1.4440831 -1.2400954 -0.15481293 0
-1.3527472 -1.2621078 -0.1601731 0
-1.2539971 -1.2283438 -0.1641573 0
-1.1326778 -1.2504406 -0.17113477 0
-2.0443625 -1.148245 -0.12257747 0
-1.9469792 -1.1457684 -0.12586522 0
-1.8540617 -1.1315033 -0.13182515 0
-1.750764 -1.1804781 -0.13810843 0
-1.6730918 -1.1509497 -0.14007598 0
-1.5728896 -1.1449093 -0.14423594 0
-1.4726918 -1.1530763 -0.14867887 0
-1.3553994 -1.153829 -0.15635104 0
-1.2611485 -1.1252398 -0.1599682 0
-1.1243123 -1.1735044 -0.16838415 0
-2.0284433 -1.0492811 -0.12045406 0
-1.9485077 -1.0401561 -0.12223934 0
-1.8641894 -1.049901 -0.12321831 0
-1.7394994 -1.064275 -0.13405466 0
-1.6413563 -1.0502615 -0.13848025 0
-1.5441657 -1.0605552 -0.14200979 0
-1.441695 -1.0687793 -0.147237 0
-1.2316997 -1.0469145 -0.15817551 0
-1.1381868 -1.063777 -0.16366827 0
-2.03192 -0.99147481 -0.11803541 0
-1.9631211 -0.92983615 -0.11811017 0
-1.8421572 -0.96046352 -0.12432568 0
-1.5485623 -0.95222813 -0.1377705 0
-1.4418745 -0.95547062 -0.14235103 0
-1.3754334 -0.94574833 -0.14648283 0
-1.138925 -0.96672863 -0.15954387 0
-1.9423081 -0.85736209 -0.11409209 0
-1.8614018 -0.83065224 -0.11752327 0
-1.7450821 -0.80565441 -0.12378278 0
-1.4438677 -0.83589733 -0.14028931 0
-1.353672 -0.8515504 -0.14373744 0
-1.9544719 -0.765885 -0.11112113 0
-1.8601768 -0.75256824 -0.11435091 0
-1.7646989 -0.73742205 -0.11774615 0
-1.6706523 -0.74764574 -0.12426071 0
-1.5487808 -0.71837044 -0.13079354 0
-1.3569151 -0.76917762 -0.14445288 0
-1.9319229 -0.64835173 -0.10846117 0
-1.8496095 -0.65102452 -0.11236969 0
-1.7510014 -0.64341152 -0.11653163 0
-1.6682105 -0.6521157 -0.12046085 0
-1.5576811 -0.65340531 -0.12584744 0
-1.4346991 -0.65300673 -0.13365792 0
-1.3635527 -0.63514173 -0.13544083 0
-2.0527878 -0.57285118 -0.10264729 0
-1.9353637 -0.55304617 -0.10657849 0
-1.8698813 -0.52942979 -0.10845107 0
-1.7527992 -0.54741889 -0.11427163 0
-1.6482669 -0.55233604 -0.11920856 0
-1.5499943 -0.5475148 -0.12306116 0
-1.4347533 -0.55499679 -0.12865072 0
-1.3559389 -0.55577672 -0.13317986 0
-1.283 -0.56066662 -0.13633333 0
-1.9203342 -0.45612654 -0.10396044 0
-1.8517017 -0.43780413 -0.10615177 0
-1.7294805 -0.45820597 -0.11240467 0
-1.6603101 -0.44164982 -0.11455508 0
-1.5535415 -0.44046938 -0.11973454 0
-1.4585282 -0.44655707 -0.12400403 0
-1.3590702 -0.45059496 -0.12828413 0
-1.2626667 -0.44599998 -0.133 0
-1.9316462 -0.39600644 -0.10230654 0
-1.8556539 -0.3672857 -0.10419831 0
-1.7596903 -0.34872255 -0.10776003 0
-1.6711189 -0.36720049 -0.11252961 0
-1.5540469 -0.36061943 -0.11739652 0
-1.4336958 -0.34437159 -0.12194854 0
-1.3326582 -0.35456944 -0.12668443 0
-1.2557499 -0.34600002 -0.12975 0
-1.8149446 -0.25488329 -0.10108078 0
-1.7469755 -0.25913891 -0.10416271 0
-1.6427224 -0.24291 -0.10874949 0
-1.3226283 -0.29379711 -0.12588091 0
-1.2565 -0.28299999 -0.1285 0
-1.7356353 -0.16884418 -0.10232086 0
-1.6638852 -0.15051708 -0.10501526 0
-1.5960001 -0.14 -0.108 0
-1.6296847 -0.073912412 -0.10343416 0
-1.5475 -0.049499996 -0.10550001 0
-1.5383546 0.025893688 -0.10334053 0
-1.488 0.085000001 -0.102 0
-1.4495001 0.15599999 -0.10125001 0
-1.3083575 0.25882417 -0.10348856 0
-1.2351271 0.24477167 -0.10788127 0
-1.154049 0.25504544 -0.11175445 0
-1.0813999 0.23939998 -0.11620001 0
-1.2526044 0.34070322 -0.10335524 0
-1.1522521 0.36117676 -0.10764379 0
-1.0420001 0.34375 -0.11375 0
-1.2471824 0.4415037 -0.10052481 0
-1.1531277 0.47072935 -0.10440107 0
-1.0554216 0.4509702 -0.10957772 0
-0.97466666 0.477 -0.113 0
-1.2066773 0.52737075 -0.10013663 0
-1.133306 0.53838915 -0.10220495 0
-1.0437979 0.54720259 -0.10615279 0
-0.94997293 0.56117642 -0.11110987 0
-0.89999998 0.583 -0.112 0
-1.0387481 0.64338815 -0.10216562 0
-0.95216626 0.64679599 -0.10597723 0
-0.87180007 0.65539998 -0.1102 0
-0.94335276 0.74553633 -0.10233302 0
-0.85601711 0.75514889 -0.10687986 0
-0.78433341 0.75766665 -0.111 0
-0.92253709 0.80862212 -0.10098119 0
-0.84837425 0.84786713 -0.10294396 0
-0.75296855 0.85455823 -0.10816868 0
-0.69099998 0.89399999 -0.11 0
-0.83980733 0.91800547 -0.10065109 0
-0.74487436 0.93909413 -0.10496522 0
-0.66757762 0.96561217 -0.10786206 0
-0.76396894 1.0328526 -0.10007542 0
-0.63757247 1.039852 -0.10538091 0
-0.57179248 1.057883 -0.10910168 0
-0.64396119 1.1403255 -0.10038775 0
-0.57436115 1.1481172 -0.10368631 0
-0.456 1.171 -0.11 0
1.249 1.1766667 -0.19566667 0
1.3150001 1.178 -0.198 0
-0.45500571 1.2424076 -0.10638765 0
-0.375 1.268 -0.1105 0
1.0815001 1.266 -0.185 0
1.1651665 1.2481061 -0.18888824 0
1.2498593 1.2656627 -0.19250387 0
1.3543313 1.2456253 -0.19840905 0
-0.42423123 1.3279775 -0.10415994 0
-0.34858751 1.3506171 -0.10773873 0
-0.26800001 1.372 -0.11 0
0.72500002 1.3940001 -0.163 0
0.84150004 1.3675001 -0.171 0
0.95800006 1.33175 -0.17774999 0
1.0386088 1.3726743 -0.17979316 0
1.1350218 1.3279011 -0.18527007 0
1.2472878 1.3570405 -0.18931268 0
1.3558879 1.3625259 -0.19471246 0
1.435119 1.3530468 -0.19906549 0
-0.33136231 1.4273778 -0.10385498 0
-0.2562162 1.4665148 -0.10629561 0
-0.168 1.4532499 -0.112 0
-0.048250005 1.4477501 -0.11875 0
0.038448829 1.4564629 -0.12265145 0
0.1425 1.4607501 -0.12675001 0
0.25100002 1.4436666 -0.13333334 0
0.36156544 1.4546202 -0.1390326 0
0.44803035 1.4531889 -0.14406294 0
0.54460049 1.438356 -0.15031856 0
0.64855349 1.4394903 -0.15565364 0
0.73628157 1.4678625 -0.15990691 0
0.84332347 1.4434249 -0.16823889 0
0.95043921 1.4366935 -0.17337839 0
1.0379752 1.4425601 -0.17539227 0
1.1529894 1.4495962 -0.18187618 0
1.2420652 1.4517037 -0.18581018 0
1.3317487 1.4486156 -0.19032645 0
1.4279372 1.4461505 -0.19551545 0
1.5112697 1.4950044 -0.19828543 0
-0.24417654 1.5407259 -0.10365339 0
-0.151048 1.5447617 -0.10837028 0
-0.055209566 1.5438733 -0.11376444 0
0.047113702 1.5494465 -0.1184599 0
0.14208053 1.5417078 -0.12373164 0
0.25437754 1.542732 -0.13020273 0
0.36296695 1.5561998 -0.13597327 0
0.45742807 1.5534705 -0.14077732 0
0.54484206 1.5626508 -0.14502396 0
0.63710696 1.5781808 -0.14990731 0
0.77608085 1.5501887 -0.15889019 0
0.85744786 1.5453935 -0.16442022 0
0.92197043 1.5702748 -0.16671669 0
1.0536735 1.5602356 -0.17347367 0
1.1357292 1.5570357 -0.17448963 0
1.2753048 1.5253385 -0.18474576 0
1.3380288 1.550961 -0.18670511 0
1.4399107 1.5291078 -0.19303836 0
1.5444371 1.5766506 -0.19701546 0
1.609 1.592 -0.2 0
-0.2167206 1.6189808 -0.10131073 0
-0.14926381 1.6369597 -0.10398183 0
-0.053766914 1.6432524 -0.10885635 0
0.041071694 1.6484568 -0.11335131 0
0.14615017 1.6433061 -0.11911543 0
0.25035447 1.6452649 -0.124571 0
0.34771368 1.6599621 -0.13203557 0
0.44164243 1.6574199 -0.13603398 0
0.54942292 1.6680641 -0.14062537 0
0.66610652 1.6695143 -0.14728042 0
0.7442252 1.6383555 -0.15398334 0
0.83833331 1.6226667 -0.16000001 0
0.95899999 1.63 -0.16599999 0
1.0441515 1.639268 -0.16656865 0
1.1487797 1.6235875 -0.17081623 0
1.2150872 1.6537263 -0.16878045 0
1.347 1.61 -0.185 0
1.4509993 1.6029707 -0.19066274 0
-0.12396524 1.7063346 -0.10173136 0
-0.03955644 1.7571872 -0.10384524 0
0.056932207 1.7501003 -0.10913767 0
0.15294816 1.7466456 -0.11428653 0
0.25241494 1.7455819 -0.1197718 0
0.35631362 1.7525212 -0.12688756 0
0.45830557 1.7423278 -0.13318129 0
0.55004489 1.7587385 -0.13662194 0
0.65530002 1.7452576 -0.14214562 0
0.75344419 1.7713997 -0.14789566 0
0.85561401 1.7347102 -0.15500645 0
0.93719351 1.7774191 -0.15688986 0
1.1034551 1.7685417 -0.14431573 0
1.2550091 1.7671432 -0.15467305 0
-0.0059999996 1.808 -0.102 0
0.065678254 1.8577709 -0.104374 0
0.15577461 1.8604802 -0.10895793 0
0.25544232 1.850108 -0.11503863 0
0.34823054 1.8577724 -0.12096311 0
0.44808897 1.8405185 -0.12780692 0
0.56001621 1.8338321 -0.13364941 0
0.64352381 1.8519343 -0.13699856 0
0.7354725 1.8534502 -0.14248054 0
0.84287369 1.8457415 -0.14933112 0
0.95586711 1.865036 -0.15391469 0
1.1506827 1.8393126 -0.1324736 0
1.3048439 1.8398337 -0.15078522 0
0.1459761 1.9311438 -0.10497613 0
0.23978961 1.9549773 -0.10882666 0
0.35227931 1.9595269 -0.11538122 0
0.4585093 1.9536089 -0.12273463 0
0.54330337 1.9391378 -0.12902294 0
0.64884007 1.9401544 -0.13407522 0
0.75788265 1.9578884 -0.13912433 0
0.84350127 1.9477044 -0.14435798 0
0.9305402 1.9513376 -0.14934948 0
1.0337884 1.9526658 -0.15337676 0
1.1754551 1.9265416 -0.14131573 0
1.2451378 1.9808543 -0.10878932 0
1.3668394 1.9302621 -0.14594871 0
0.1954125 2.0594411 -0.10126865 0
0.27700001 2.017 -0.108 0
0.35031122 2.0527432 -0.11026762 0
0.45985612 2.0384235 -0.11777399 0
0.55373526 2.0554974 -0.12411895 0
0.65621746 2.0401444 -0.13064766 0
0.75909603 2.0555193 -0.13490137 0
0.85881132 2.0478919 -0.14090693 0
0.95209283 2.0361018 -0.14648017 0
1.0619677 2.0305958 -0.15044931 0
1.1495173 2.0397196 -0.15612903 0
1.2393237 2.0829651 -0.15880282 0
0.36187148 2.1832633 -0.10499518 0
0.44765237 2.1372485 -0.11229354 0
0.54747051 2.1512713 -0.1187275 0
0.65319169 2.1512296 -0.12573756 0
0.76184905 2.1659937 -0.13064101 0
0.84312314 2.1496148 -0.13496511 0
0.94774568 2.1507802 -0.14039995 0
1.0303903 2.1503818 -0.1459053 0
1.1272769 2.1593175 -0.14878477 0
1.2824857 2.1529479 -0.15720424 0
0.37 2.2309999 -0.103 0
0.56240064 2.2491336 -0.11510601 0
0.66286767 2.258137 -0.12170315 0
0.74003959 2.2514272 -0.12636688 0
0.85412884 2.2518821 -0.13146393 0
0.95404416 2.2676406 -0.13537571 0
1.0625671 2.2688484 -0.14015555 0
1.1637596 2.2491226 -0.14681408 0
1.2615 2.276 -0.1495 0
1.3329102 2.2697668 -0.15331678 0
1.863 2.27 -0.184 0
1.949 2.2609999 -0.189 0
0.66458344 2.3341873 -0.11912991 0
0.7469939 2.3381686 -0.1234531 0
0.86465436 2.3371618 -0.12841286 0
0.95609969 2.3283699 -0.1329219 0
1.023746 2.3601425 -0.13382734 0
1.1130118 2.3454921 -0.14100184 0
1.2267418 2.3542724 -0.14200877 0
1.3525 2.3234999 -0.1515 0
1.9547701 2.3488066 -0.18603867 0
2.0469339 2.3835251 -0.18986285 0
0.85189497 2.4413471 -0.12327597 0
0.96779233 2.4386768 -0.1285149 0
1.0461104 2.4577489 -0.13098918 0
1.1529021 2.4271023 -0.13944648 0
1.2679354 2.4351916 -0.13989863 0
2.0496221 2.4494727 -0.18748945 0
1.1900001 2.503 -0.138 0
1.3049999 2.5079999 -0.138 0
2.0590622 2.5272717 -0.1849564 0
2.160434 2.5255251 -0.19086285 0
-3.5497198 -2.1153007 -0.08671616 0
-3.46736 -2.0799003 -0.096108079 0
-3.6470613 -1.8566098 -0.083474457 0
-3.5336578 -1.8546101 -0.088371187 0
-3.4570189 -1.8557404 -0.094411403 0
-3.4000001 -1.837 -0.097999997 0
-3.4677486 -1.7674797 -0.086632609 0
-3.3915615 -1.7296098 -0.087974459 0
-3.6159999 -1.641 -0.079000004 0
-3.5846021 -1.6268615 -0.079764247 0
-3.3153744 -1.6917399 -0.089316301 0
-3.2391872 -1.65387 -0.090658151 0
-3.1630001 -1.6160001 -0.092 0
-3.5076685 -1.5922179 -0.081636876 0
-3.4307346 -1.5575743 -0.083509497 0
-3.353801 -1.5229307 -0.085382126 0
-3.3730516 -1.4411747 -0.074168026 0
-3.2774725 -1.4443997 -0.083128393 0
-3.1614666 -1.4363217 -0.090063691 0
-3.2060518 -1.3696748 -0.082668029 0
-3.1340258 -1.3388374 -0.086334012 0
-3.062 -1.308 -0.090000004 0
-3.4200001 -1.1950001 -0.07 0
-3.36465 -1.1750091 -0.072373927 0
-3.2483549 -1.1330063 -0.077361748 0
-3.1320601 -1.0910037 -0.082349569 0
-3.0545299 -1.0630018 -0.085674785 0
-2.977 -1.035 -0.089000002 0
-3.171731 -0.87902522 -0.076115549 0
-3.0797794 -0.85404408 -0.077577204 0
-2.9527552 -0.81953466 -0.07959637 0
1.75 -0.88800001 -0.001 0
-2.825731 -0.78502524 -0.081615545 0
-2.7410483 -0.76201892 -0.082961656 0
-2.6563656 -0.7390126 -0.084307767 0
-2.5716827 -0.71600634 -0.085653886 0
-3.0202436 -0.61745131 -0.061294392 0
-2.4850907 -0.69247174 -0.087068796 0
-2.3527269 -0.655846 -0.091838658 0
-2.2241817 -0.62027681 -0.09647093 0
-2.9281318 -0.59905934 -0.064790383 0
-2.8437765 -0.58221608 -0.067991987 0
-2.7594211 -0.56537288 -0.071193583 0
-2.675066 -0.54852968 -0.074395187 0
-2.5446885 -0.53784323 -0.07913173 0
-2.4650049 -0.55075926 -0.081762597 0
-2.377449 -0.53100824 -0.08512231 0
-2.2898927 -0.51125717 -0.088482022 0
-2.1384847 -0.59656399 -0.099559106 0
-2.4219999 -0.498 -0.083999999 0
-2.3643899 -0.48601711 -0.086150773 0
-2.2400889 -0.47976059 -0.09061183 0
-2.136939 -0.45125958 -0.094552912 0
-2.0227098 -0.43300635 -0.098818272 0
-2.931 -0.396 -0.059 0
-2.8610585 -0.38642395 -0.061545528 0
-2.7765489 -0.37485328 -0.064621277 0
-2.6497841 -0.3574973 -0.069234893 0
-2.5230196 -0.34014133 -0.073848508 0
-2.4385099 -0.32857066 -0.076924257 0
-2.3561809 -0.34411934 -0.078938127 0
-2.2360997 -0.33856332 -0.083462596 0
-2.1486568 -0.32476854 -0.087110795 0
-2.061214 -0.31097379 -0.090758994 0
-2.7460001 -0.24699999 -0.056000002 0
-2.6823931 -0.24080408 -0.058900222 0
-2.547184 -0.22763346 -0.06506519 0
-2.4304876 -0.23073143 -0.070115075 0
-2.3424447 -0.22683334 -0.074047156 0
-2.2192051 -0.22410135 -0.079506442 0
-2.1301758 -0.21522972 -0.083576947 0
-2.0411465 -0.2063581 -0.08764746 0
-1.9737712 -0.29717904 -0.094407201 0
-1.8863285 -0.28338426 -0.0980554 0
-2.6572304 -0.15816401 -0.056183014 0
-2.5582411 -0.13645752 -0.059534371 0
-2.4498417 -0.14850928 -0.06606061 0
-2.3581085 -0.13095465 -0.068644404 0
-2.2530456 -0.16200778 -0.07604982 0
-2.1582575 -0.16381486 -0.080386557 0
-2.0437374 -0.13989168 -0.084947214 0
-1.9419324 -0.15633756 -0.090935886 0
-1.8619319 -0.16598302 -0.095735572 0
-1.7669076 -0.14835951 -0.099648751 0
-2.5424922 -0.055796899 -0.056700937 0
-2.4163194 -0.051638931 -0.062579438 0
-2.3298273 -0.056842029 -0.066378504 0
-2.2481499 -0.054516505 -0.070351943 0
-2.1415906 -0.039867274 -0.075082585 0
-2.05604 -0.041328803 -0.079349391 0
-1.9522583 -0.042913906 -0.084662661 0
-1.8446326 -0.051039115 -0.090292148 0
-1.7502956 -0.052056529 -0.095033556 0
-1.6906185 -0.036140263 -0.097023606 0
-1.5980381 -0.012489848 -0.09998858 0
-2.5320001 -4.4005307e-17 -0.054000001 0
-2.4759781 0.037219074 -0.056146443 0
-2.3531497 0.026990239 -0.061799668 0
-2.2331131 0.035859544 -0.065852009 0
-2.1419697 0.025308821 -0.072221294 0
-2.0494003 0.067989603 -0.073983662 0
-1.9476509 0.072546132 -0.079214498 0
-1.8464704 0.062250491 -0.084959991 0
-1.7546717 0.069222622 -0.089435875 0
-1.6585857 0.048222054 -0.095452413 0
-1.5838408 0.058410015 -0.098371737 0
-2.43484 0.10899519 -0.054008007 0
-2.3615716 0.14192997 -0.05578931 0
-2.2500558 0.13849688 -0.061595976 0
-2.1503475 0.15100458 -0.06800615 0
-2.0441568 0.15081571 -0.072869986 0
-1.9461306 0.15719789 -0.076077983 0
-1.849488 0.15034565 -0.081328414 0
-1.7472459 0.15719014 -0.086680166 0
-1.647617 0.1471905 -0.091442861 0
-1.5569291 0.15335071 -0.095809415 0
-2.5481358 0.29756099 -0.040364638 0
-2.4582796 0.28796747 -0.045303866 0
-2.3397114 0.2326659 -0.053155351 0
-2.2414808 0.22214809 -0.062573448 0
-2.1659048 0.28400409 -0.059177343 0
-2.0513523 0.25911951 -0.066647626 0
-1.941702 0.26867658 -0.070817024 0
-1.8415051 0.26632869 -0.075043894 0
-1.754555 0.2520287 -0.080543905 0
-1.6597029 0.23319463 -0.086607359 0
-1.5553352 0.25358742 -0.091419645 0
-1.4607573 0.2459538 -0.096731387 0
-1.3814118 0.26706094 -0.099475354 0
-2.9312797 0.33846748 -0.019303864 0
-2.8177032 0.32634148 -0.025546957 0
-2.7278476 0.31674796 -0.030486185 0
-2.6379914 0.30715448 -0.03542541 0
-2.4432693 0.39056268 -0.040971905 0
-2.3581796 0.3760418 -0.045314603 0
-2.2550449 0.33226043 -0.051828653 0
-2.1510644 0.37078005 -0.0548434 0
-2.0372419 0.34994513 -0.061970718 0
-1.9292619 0.34722203 -0.068090066 0
-1.8470098 0.36002839 -0.072063334 0
-1.7584734 0.34103969 -0.077341519 0
-1.6479663 0.34103087 -0.082833812 0
-1.5335617 0.34221601 -0.088695914 0
-1.4462456 0.35068011 -0.09257219 0
-1.3482001 0.33759999 -0.098199993 0
1.3517849 0.38288248 -0.0073755588 0
-2.8150001 0.454 -0.022 0
-2.7491636 0.48021588 -0.022067772 0
-2.6527655 0.45442545 -0.028043278 0
-2.5505121 0.44638276 -0.032852545 0
-2.4513118 0.44586217 -0.037057389 0
-2.3399036 0.4495064 -0.042764369 0
-2.2526126 0.43410984 -0.047860961 0
-2.1676888 0.45321432 -0.051665615 0
-2.0622733 0.46228629 -0.056114506 0
-1.9427391 0.43611288 -0.064363115 0
-1.8529354 0.46633455 -0.067967683 0
-1.7519839 0.43615723 -0.073952124 0
-1.6380472 0.42054927 -0.080763325 0
-1.5484735 0.45633954 -0.083657026 0
-1.4487369 0.46321389 -0.089089178 0
-1.3494443 0.42809635 -0.09582255 0
-1.2865 0.45133331 -0.097499996 0
1.4338925 0.40694124 -0.01618778 0
1.5436759 0.43835011 -0.026519297 0
1.6834522 0.47547174 -0.03419248 0
1.7678769 0.4978931 -0.038827065 0
-3.0239999 0.53899997 -0.004999999 0
-2.9379656 0.52428746 -0.0097742677 0
-2.8494139 0.50914437 -0.014688239 0
-2.6040001 0.54000002 -0.024999999 0
-2.5438802 0.54807866 -0.027812758 0
-2.445684 0.53760511 -0.033398177 0
-2.3483326 0.55930454 -0.036944583 0
-2.249083 0.54377502 -0.042735819 0
-2.1524806 0.54527187 -0.04811161 0
-2.0350001 0.514 -0.056000002 0
-1.9432745 0.58480519 -0.056737263 0
-1.8245747 0.56909317 -0.06712319 0
-1.7475218 0.56113404 -0.070747964 0
-1.6503689 0.53469884 -0.075861089 0
-1.5534797 0.5271312 -0.081043616 0
-1.4480265 0.55950385 -0.084845901 0
-1.3475649 0.54990816 -0.090851888 0
-1.2425027 0.55702907 -0.096139967 0
-1.1743971 0.59003824 -0.096282959 0
1.1997012 0.5296337 -8.7309629e-05 0
1.2825609 0.56610698 -0.0046698488 0
1.8523015 0.52031446 -0.043461651 0
1.9367261 0.54273587 -0.04809624 0
2.0211508 0.56515723 -0.052730825 0
2.1055753 0.58757865 -0.057365414 0
-2.439301 0.6216197 -0.028852679 0
-2.2570109 0.6835587 -0.036398213 0
-2.1389723 0.66331178 -0.043995004 0
-2.0430942 0.6399405 -0.051212188 0
-1.9335726 0.62383193 -0.062720798 0
-1.8527279 0.66260058 -0.060636323 0
-1.7401192 0.65951049 -0.065272726 0
-1.6373113 0.65127248 -0.070793793 0
-1.5443175 0.65445 -0.076303892 0
-1.4557989 0.64938945 -0.081525736 0
-1.3491753 0.6336509 -0.086833373 0
-1.255607 0.65516448 -0.090189308 0
-1.1424598 0.65362185 -0.095864519 0
-1.0516027 0.6579268 -0.09972474 0
1.3597983 0.63937449 -0.0075151129 0
1.4482805 0.63905346 -0.013834924 0
1.5311402 0.67552674 -0.018417463 0
2.1900001 0.61000001 -0.061999999 0
-2.325 0.70499998 -0.032000002 0
-2.2289355 0.72999132 -0.035324823 0
-2.105 0.79699999 -0.035999998 0
-2.040379 0.77134162 -0.0412267 0
-1.9414271 0.74921292 -0.04804422 0
-1.8584547 0.77259713 -0.051955882 0
-1.7580036 0.76721472 -0.060630448 0
-1.6662832 0.7361902 -0.0664213 0
-1.545024 0.74747115 -0.071957551 0
-1.4388597 0.74284959 -0.077665403 0
-1.3440349 0.74625033 -0.081992149 0
-1.254335 0.7529068 -0.086204216 0
-1.1390953 0.73803264 -0.092367187 0
-1.04873 0.74422848 -0.096202902 0
-0.9819684 0.77182698 -0.098676704 0
1.352 0.71399999 -0.0010000011 0
1.4415122 0.74662876 -0.0097422292 0
1.557882 0.7756266 -0.020833381 0
1.6359385 0.72144103 -0.024494272 0
1.7783017 0.78270572 -0.034190834 0
-2.1054955 0.86906946 -0.034558456 0
-2.0295119 0.84132761 -0.039898049 0
-1.9392 0.85297632 -0.043969776 0
-1.8550185 0.84809399 -0.050168335 0
-1.7420375 0.86629671 -0.056184448 0
-1.642256 0.84186417 -0.062400527 0
-1.5405838 0.8555581 -0.067406699 0
-1.4336185 0.84767252 -0.07352186 0
-1.3552128 0.83778161 -0.077628002 0
-1.2586973 0.858648 -0.081524268 0
-1.1471834 0.8357926 -0.087537117 0
-1.0376877 0.84550279 -0.092712574 0
-0.95978594 0.86164701 -0.095882915 0
1.4365499 0.86529291 -0.0007051276 0
1.5404931 0.87324589 -0.0095487526 0
1.6614726 0.85010964 -0.027567465 0
1.761588 0.8750844 -0.035888925 0
1.8585848 0.81725478 -0.039659031 0
1.9388678 0.85180384 -0.04512722 0
2.0191507 0.8863529 -0.050595418 0
-2.4170001 0.991 -0.0099999979 0
-2.3523927 0.96571106 -0.015093528 0
-2.266716 0.96154678 -0.0209492 0
-2.1629148 0.93922085 -0.028720323 0
-2.03456 0.95030832 -0.033816189 0
-1.9268801 0.9596225 -0.039271675 0
-1.8423028 0.943398 -0.045055915 0
-1.7506024 0.96319932 -0.050259929 0
-1.6487983 0.9531213 -0.055385638 0
-1.5506592 0.94472104 -0.062265884 0
-1.4617958 0.96041763 -0.067102395 0
-1.3387791 0.93816954 -0.074341074 0
-1.2407975 0.92884755 -0.078643791 0
-1.1546515 0.96072412 -0.081700988 0
-1.0485914 0.94638199 -0.087674215 0
-0.93461394 0.94021136 -0.093820982 0
-0.85469925 0.96691871 -0.096570671 0
-0.79338878 0.98692322 -0.09897206 0
1.4982619 0.92559719 -0.0040173903 0
1.5780375 0.96281695 -0.0089420006 0
1.6528344 0.97042668 -0.019941173 0
1.7221996 0.90609837 -0.031890187 0
1.8418499 0.95020175 -0.041852463 0
1.9245527 0.95465064 -0.047933355 0
2.0527344 0.95766783 -0.055009589 0
2.1797171 0.95545095 -0.061531808 0
2.26 0.99000001 -0.067000002 0
-2.3584185 1.0498528 -0.011062006 0
-2.2546511 1.020044 -0.018440828 0
-2.1637902 1.0733395 -0.01922543 0
-2.0558074 1.0589046 -0.028115133 0
-1.9491667 1.0516135 -0.034677647 0
-1.8614095 1.0496445 -0.038605351 0
-1.7198435 1.0426513 -0.047122624 0
-1.6441779 1.0396618 -0.053864747 0
-1.5460044 1.0682204 -0.057695668 0
-1.4395609 1.0712426 -0.060161345 0
-1.3534772 1.0320352 -0.067343786 0
-1.2522061 1.0540261 -0.072212324 0
-1.1449698 1.0517095 -0.077983387 0
-1.0427088 1.0528059 -0.083166778 0
-0.94812286 1.0553679 -0.08799687 0
-0.8547219 1.0520499 -0.093347803 0
-0.72810382 1.0641433 -0.09879595 0
1.6587138 1.0249003 -0.015274733 0
1.7532822 1.0470808 -0.029409507 0
1.8719337 1.0985707 -0.04637647 0
1.9602798 1.0296394 -0.051756073 0
2.0635786 1.0525182 -0.059177909 0
2.1689999 1.074 -0.066 0
-2.3410349 1.1601201 -0.0048434683 0
-2.2357907 1.1526558 -0.011412215 0
-2.1452322 1.1387658 -0.018099934 0
-2.0567539 1.1311321 -0.023425711 0
-1.9763402 1.1805804 -0.025977042 0
-1.8594612 1.1490141 -0.034388706 0
-1.7247517 1.1916524 -0.03882464 0
-1.6372429 1.1385189 -0.046348941 0
-1.5650963 1.1629794 -0.047912821 0
-1.4717896 1.1499369 -0.054013424 0
-1.3570608 1.1524606 -0.060583867 0
-1.2629305 1.148629 -0.066417038 0
-1.1551403 1.1388154 -0.072627872 0
-1.0491809 1.1625099 -0.076896094 0
-0.95818537 1.1299968 -0.083898522 0
-0.83270335 1.1383381 -0.090224497 0
-0.75547594 1.1521052 -0.093779914 0
-0.65464342 1.168384 -0.097928382 0
1.8496265 1.1432613 -0.031865086 0
1.9449668 1.1412853 -0.055188239 0
2.0179999 1.184 -0.064000003 0
2.119 1.112 -0.064999998 0
-2.2791805 1.2313988 -0.0058760587 0
-2.1630187 1.2372414 -0.012435451 0
-2.0418844 1.2503386 -0.019118851 0
-1.953899 1.2270213 -0.025345359 0
-1.8737686 1.2928009 -0.025408639 0
-1.7992601 1.2422266 -0.03211664 0
-1.5507039 1.2413737 -0.044228155 0
-1.4483246 1.2589046 -0.04981751 0
-1.3477468 1.2498139 -0.055098444 0
-1.2571765 1.2450354 -0.061331891 0
-1.1520877 1.2517288 -0.067221634 0
-1.0468569 1.2580417 -0.072595447 0
-0.94438106 1.2386068 -0.078981616 0
-0.85596794 1.2449626 -0.083789095 0
-0.7436285 1.263279 -0.089002609 0
-0.63552296 1.2415972 -0.095758162 0
-0.55623859 1.2704773 -0.098476104 0
1.4937754 1.2478079 -0.0077712908 0
1.9641743 1.214278 -0.041819297 0
2.0405395 1.2616223 -0.04845544 0
-2.059299 1.3512928 -0.011927355 0
-1.965518 1.3572501 -0.017467091 0
-1.5233052 1.3429685 -0.040351503 0
-1.4361725 1.359888 -0.044412844 0
-1.3448819 1.3523191 -0.050436419 0
-1.2517143 1.3477014 -0.057107288 0
-1.1440166 1.3521388 -0.062057056 0
-1.0553236 1.3524765 -0.068031803 0
-0.94166982 1.3376335 -0.074375227 0
-0.8562417 1.3212461 -0.079509556 0
-0.75082189 1.355517 -0.083883703 0
-0.6703642 1.362746 -0.088146716 0
-0.54010332 1.3429213 -0.09590406 0
-0.47090545 1.3811623 -0.098349303 0
1.5626785 1.3049569 -0.015674882 0
1.6315815 1.3621058 -0.023578472 0
1.9253819 1.313503 -0.019666687 0
2.0010729 1.3672546 -0.034750029 0
2.155087 1.332639 -0.058409654 0
-2.0997179 1.4393029 -0.0040256456 0
-1.6406317 1.4364432 -0.029880868 0
-1.5453359 1.4838881 -0.031754296 0
-1.4486573 1.4417145 -0.039491892 0
-1.33602 1.4591527 -0.045920204 0
-1.2468381 1.4517791 -0.051789343 0
-1.1517041 1.4389443 -0.057873122 0
-1.0461706 1.4606965 -0.062091321 0
-0.95022374 1.4341035 -0.069101945 0
-0.84677649 1.451704 -0.073473424 0
-0.75627142 1.4508085 -0.079004951 0
-0.63523233 1.4632806 -0.084310368 0
-0.547598 1.4330797 -0.091061786 0
-0.45275936 1.456746 -0.095698051 0
-0.37151828 1.4717987 -0.099461094 0
1.7349362 1.4478295 -0.035433859 0
2.0633819 1.4115031 -0.047166683 0
2.1256909 1.4557515 -0.05958334 0
2.2696347 1.4036555 -0.06836386 0
2.346 1.451 -0.075000003 0
-1.725 1.51 -0.020999998 0
-1.616446 1.5509348 -0.023940008 0
-1.5692585 1.5753582 -0.026426781 0
-1.435511 1.5226408 -0.035606224 0
-1.3664569 1.5709125 -0.036687415 0
-1.2566206 1.5404831 -0.046883579 0
-1.1600053 1.5559787 -0.052213185 0
-1.0538403 1.5361445 -0.058799267 0
-0.954988 1.5563176 -0.062302779 0
-0.83627027 1.5614465 -0.069442496 0
-0.74872196 1.5441043 -0.073825032 0
-0.66747212 1.5655069 -0.076951452 0
-0.5515427 1.5444082 -0.084978461 0
-0.44551611 1.5517079 -0.090889759 0
-0.34918004 1.5446889 -0.096674874 0
-0.28355563 1.5832675 -0.099247396 0
1.8382908 1.533553 -0.047289237 0
1.9071939 1.5907021 -0.055192828 0
2.188 1.5 -0.071999997 0
-1.4573494 1.6302223 -0.027993701 0
-1.3528572 1.657701 -0.032891825 0
-1.2452347 1.6489384 -0.041452572 0
-1.1418656 1.6490828 -0.049141087 0
-1.0503405 1.6198897 -0.055134472 0
-0.9404428 1.6602061 -0.058360856 0
-0.86396235 1.6536617 -0.06223157 0
-0.75946218 1.6362267 -0.068348885 0
-0.64304245 1.6386737 -0.074880838 0
-0.54412073 1.6668421 -0.078953132 0
-0.45027828 1.640156 -0.086018369 0
-0.34679362 1.6425275 -0.091983318 0
-0.26609287 1.6611351 -0.095976263 0
-0.18290162 1.6989071 -0.098215416 0
1.976097 1.647851 -0.063096412 0
-1.5439569 1.7375758 -0.018271104 0
-1.4428732 1.7616386 -0.023487888 0
-1.2431141 1.7416499 -0.035090443 0
-1.1559041 1.7525699 -0.040976353 0
-1.0470998 1.7404686 -0.048809074 0
-0.94042575 1.756175 -0.053874835 0
-0.85242939 1.7716849 -0.0558246 0
-0.75532979 1.7397963 -0.063633092 0
-0.65760916 1.749596 -0.068378463 0
-0.5500384 1.7636709 -0.073127642 0
-0.43810642 1.7366821 -0.08154425 0
-0.35172459 1.7588267 -0.085626975 0
-0.24436629 1.7485976 -0.092867851 0
-0.14980356 1.7756411 -0.097024478 0
2.0450001 1.705 -0.071000002 0
-1.6321311 1.8387213 -0.008233767 0
-1.521 1.858 -0.013999999 0
-1.4497724 1.8580999 -0.018151615 0
-1.3434111 1.8531147 -0.024694657 0
-1.2725555 1.8193363 -0.029476566 0
-1.1886538 1.85853 -0.033870332 0
-1.0092224 1.8503022 -0.044188883 0
-0.94766593 1.8495628 -0.046975099 0
-0.84520876 1.8750265 -0.053003635 0
-0.74104422 1.8430169 -0.058312126 0
-0.64043152 1.855072 -0.063383467 0
-0.55751872 1.8628477 -0.067643449 0
-0.45866737 1.8360729 -0.075330116 0
-0.34520662 1.8433501 -0.081682064 0
-0.24315038 1.8615535 -0.087339818 0
-0.15732165 1.8592645 -0.09244784 0
-0.05568343 1.8597949 -0.098289475 0
-1.6909139 1.9061515 -0.0015422069 0
-1.427 1.9695001 -0.013999999 0
-1.3902376 1.9661517 -0.016433623 0
-1.2364615 1.9346057 -0.02742324 0
-1.0515928 1.9300191 -0.037553698 0
-0.91469884 1.9614937 -0.045937061 0
-0.85887432 1.966079 -0.04738497 0
-0.75587875 1.9384724 -0.050593372 0
-0.65264583 1.9622093 -0.056453072 0
-0.56086099 1.9588203 -0.062451027 0
-0.45908171 1.934736 -0.070354678 0
-0.35399699 1.9410404 -0.076388195 0
-0.25387943 1.9641488 -0.081736475 0
-0.15636154 1.9448164 -0.088269837 0
-0.060103953 1.9618654 -0.092700653 0
0.059854705 1.9574789 -0.099761277 0
-1.3340384 2.0898786 -0.014264524 0
-1.2842691 2.0106814 -0.020976145 0
-1.1363337 2.0894532 -0.024283323 0
-1.0939633 2.0097361 -0.030918509 0
-0.83671272 2.0564227 -0.041039929 0
-0.751827 2.0451064 -0.04898189 0
-0.65550047 2.0432425 -0.052238636 0
-0.54772675 2.0354745 -0.059742272 0
-0.45319697 2.0465243 -0.064815715 0
-0.35192522 2.0580549 -0.070573807 0
-0.23953293 2.0653911 -0.077740014 0
-0.15070903 2.0409701 -0.083591402 0
-0.071797244 2.0647769 -0.086703762 0
0.051979303 2.0337029 -0.095774256 0
0.11630959 2.0352879 -0.098920539 0
1.2923653 2.051625 -0.096947193 0
-1.178704 2.1691704 -0.017648138 0
-0.83375311 2.1489377 -0.037162568 0
-0.73422492 2.1300111 -0.043699093 0
-0.65393519 2.1627631 -0.046928741 0
-0.54566628 2.1521878 -0.054101735 0
-0.45344082 2.1315861 -0.06061101 0
-0.34665519 2.1609976 -0.066455536 0
-0.25814739 2.1347218 -0.073203951 0
-0.16438326 2.1354733 -0.078165419 0
-0.061333433 2.1550772 -0.082683057 0
0.10164431 2.1760926 -0.090518691 0
0.20247144 2.1475043 -0.097449884 0
1.3417964 2.1256981 -0.084552526 0
-1.202 2.2130001 -0.013999999 0
-0.90356076 2.2632251 -0.025291264 0
-0.86661768 2.2333941 -0.027967479 0
-0.74708897 2.2462389 -0.036135804 0
-0.64217657 2.2492015 -0.04318038 0
-0.54711998 2.2571647 -0.04895911 0
-0.44160008 2.2504692 -0.055861976 0
-0.34917396 2.2523031 -0.062060211 0
-0.22557072 2.2469628 -0.069960728 0
-0.13799326 2.2534003 -0.074455261 0
-0.049211234 2.2553525 -0.079092145 0
0.10815826 2.2775357 -0.086599171 0
0.207 2.204 -0.094999999 0
-0.92692649 2.3915911 -0.016451221 0
-0.89677209 2.3124926 -0.02220935 0
-0.74904096 2.3590682 -0.031102013 0
-0.62879491 2.3270752 -0.039404288 0
-0.55071652 2.3592243 -0.044037625 0
-0.44341272 2.3377631 -0.051430579 0
-0.36470565 2.3509986 -0.056249518 0
-0.23542184 2.347542 -0.064436153 0
-0.1478475 2.3890002 -0.067793235 0
-0.049422469 2.3447051 -0.075184286 0
0.11431652 2.3680713 -0.083198339 0
-0.94499999 2.4389999 -0.013 0
-0.81254911 2.4443817 -0.021322412 0
-0.70117259 2.4896095 -0.027174864 0
-0.63900882 2.4271104 -0.035705056 0
-0.54233378 2.4722404 -0.037828315 0
-0.4421019 2.4353604 -0.047992449 0
-0.36284453 2.4620569 -0.051581338 0
-0.23619044 2.4439361 -0.060504004 0
-0.15441701 2.4794002 -0.063351884 0
-0.049633704 2.4340577 -0.071276434 0
0.12047479 2.458607 -0.079797506 0
-0.70999998 2.523 -0.024999999 0
-0.64437962 2.5419931 -0.03079835 0
-0.57348216 2.5686398 -0.03093732 0
-0.43148595 2.5399208 -0.043684378 0
-0.34686321 2.5430155 -0.048821829 0
-0.25385243 2.5514927 -0.05466146 0
-0.16098651 2.5698004 -0.058910534 0
-0.049844939 2.5234101 -0.067368582 0
0.12663305 2.5491426 -0.076396674 0
-0.54500002 2.632 -0.030000001 0
-0.4474217 2.6284111 -0.038519926 0
-0.35703585 2.6294184 -0.044186197 0
-0.26237473 2.6402454 -0.050144274 0
-0.16755602 2.6602004 -0.054469179 0
-0.050056174 2.6127627 -0.06346073 0
0.13279131 2.6396782 -0.072995842 0
-0.46392873 2.7199507 -0.033177741 0
-0.35053918 2.7627048 -0.038674813 0
-0.27089703 2.7289982 -0.045627087 0
-0.17412551 2.7506003 -0.050027829 0
-0.050373025 2.7467914 -0.057598952 0
0.13894957 2.7302139 -0.069595009 0
-0.315 2.8369999 -0.037999999 0
-0.25071481 2.8631043 -0.040872965 0
-0.18069501 2.8410003 -0.045586474 0
-0.05068988 2.8808203 -0.051737174 0
0.14510784 2.8207495 -0.066194177 0
-0.186 2.914 -0.041999999 0
-0.050901115 2.9701729 -0.047829319 0
0.1512661 2.9112852 -0.062793344 0
-0.050999999 3.0120001 -0.046 0
0.16050349 3.0470886 -0.057692099 0
0.169 3.1719999 -0.052999999 0
-7.6439857 -3.5197904 0.039700791 0
-7.5239425 -3.4741611 0.047803167 0
-7.4439139 -3.4437418 0.053204753 0
-7.3638849 -3.4133224 0.058606334 0
-7.2438421 -3.3676932 0.066708714 0
-7.1223993 -3.321532 0.074905545 0
1.6387548 -0.83163905 0.012044239 0
1.3791826 -0.70013011 0.042480797 0
1.4533461 -0.7377041 0.033784639 0
1.5389439 -0.7484439 0.015603125 0
1.648 -0.78899997 -5.1894066e-14 0
1.298 -0.65899998 0.052000001 0
1.3371496 -0.64420927 0.037712719 0
1.4413223 -0.6810537 0.021720897 0
0.84600002 0.29800001 0.033 0
0.95933294 0.27400765 0.023244275 0
1.0241776 0.29232371 0.016436661 0
0.74270397 0.35379884 0.027028101 0
0.84232837 0.34411669 0.023179783 0
0.94755727 0.35672903 0.014006516 0
1.1465162 0.32273558 0.014654992 0
1.2696775 0.35882372 0.0014366619 0
0.76797855 0.44882894 0.03111944 0
0.84780288 0.45693362 0.024216658 0
0.95878607 0.45417628 0.014472768 0
1.0424337 0.45036542 0.0072013326 0
1.1168414 0.49316043 0.0044952277 0
0.7769857 0.53130519 0.032936752 0
0.84757453 0.54694909 0.029764164 0
0.95099711 0.55231047 0.020992877 0
1.0461527 0.55010062 0.012450759 0
1.1341703 0.56822968 0.0069184401 0
0.87338412 0.63926387 0.032001376 0
0.93377656 0.6450398 0.024688214 0
1.0427843 0.64433467 0.017945075 0
1.1459789 0.6511668 0.0097492477 0
1.275619 0.64966083 0.00096283824 0
0.94349962 0.73985481 0.03490993 0
1.0462174 0.7398833 0.02046234 0
1.1585286 0.73669195 0.011354075 0
1.2458431 0.76546067 0.0079960525 0
0.96979493 0.83400798 0.040827278 0
1.0593834 0.84372473 0.027945435 0
1.1518234 0.85050899 0.016490391 0
1.266 0.852 0.0065000001 0
1.3594691 0.81878722 0.0030984399 0
-2.9779999 0.99299997 -4.4564917e-14 0
1.0465592 0.95112866 0.040441539 0
1.1506938 0.94621116 0.023560904 0
1.2578642 0.95636553 0.011323772 0
1.3329999 0.96600002 0.0070000002 0
-3.2354417 1.080092 0.021362187 0
-3.1496277 1.0510613 0.014241458 0
-3.0638139 1.0220306 0.007120729 0
1.0555096 1.0342666 0.053565964 0
1.1455036 1.0494995 0.030788759 0
1.2297308 1.0511706 0.017913641 0
1.3296523 1.0770026 0.010253725 0
-3.5786972 1.1962147 0.049845103 0
-3.4499764 1.1526687 0.03916401 0
-3.3212557 1.1091226 0.028482916 0
-3.0386786 1.1760073 0.014804398 0
-2.9558392 1.1440036 0.0074021989 0
-2.8729999 1.112 -1.0617767e-13 0
1.1578974 1.1390307 0.037220426 0
1.2511127 1.128992 0.019441685 0
1.36 1.1543334 0.0069999998 0
1.4248723 1.1906588 0.00013229996 0
-3.8361392 1.2833066 0.0712073 0
-3.7503252 1.254276 0.064086564 0
-3.6645112 1.2252452 0.056965832 0
-3.2457769 1.2560163 0.033309896 0
-3.1215179 1.2080109 0.022206597 0
-2.7606635 1.2985321 0.015143237 0
-2.6431661 1.2448831 0.0045358092 0
-2.541122 1.2604203 0.010547861 0
-2.4384048 1.2451283 0.0038349521 0
-2.3573608 1.2737975 0.00024788268 0
1.2516017 1.2363243 0.021279931 0
1.3409147 1.2485161 0.01149373 0
-3.918 1.311 0.078000002 0
-3.5357144 1.368029 0.059217587 0
-3.4528751 1.3360254 0.051815387 0
-3.3700359 1.3040217 0.04441319 0
-2.9173272 1.3700643 0.029286474 0
-2.8389955 1.3342983 0.022214856 0
-2.7412093 1.3607204 0.025939189 0
-2.6373706 1.3469806 0.019188695 0
-2.5346534 1.3316885 0.012475789 0
-2.4540663 1.363939 0.0094512748 0
1.2537632 1.3760281 0.055779416 0
1.352 1.3285 0.0065000001 0
-3.626277 1.4030163 0.067309894 0
-3.1661613 1.4836812 0.05175066 0
-3.0739908 1.4415964 0.043429706 0
-2.9594173 1.4426237 0.039673042 0
-2.8357754 1.4496088 0.034523651 0
-2.7713933 1.4567049 0.030832628 0
-2.6700823 1.4433928 0.024743648 0
-2.5702374 1.4286271 0.018644679 0
-2.1748376 1.49002 0.0028034151 0
1.0808667 1.4794235 0.072839297 0
1.1041642 1.461956 0.067577288 0
1.3314512 1.4626198 0.047050428 0
-3.0409999 1.511 0.048999999 0
-2.9481101 1.5500245 0.044535261 0
-2.8025796 1.5580034 0.037031487 0
-2.7251322 1.514878 0.030902548 0
-2.3250768 1.5914544 0.016461536 0
-2.2499571 1.5407372 0.0096324757 0
1.1575032 1.5601851 0.052674174 0
1.3571688 1.527124 0.065548442 0
1.4473008 1.5917464 0.034033623 0
-2.878 1.6 0.042999998 0
-2.4370983 1.6670858 0.026645299 0
1.1675601 1.6273625 0.046110727 0
1.2296529 1.6738454 0.031519033 0
1.4293479 1.6351421 0.059077483 0
1.5052255 1.6563098 0.027525216 0
1.2760764 1.7384226 0.018509518 0
1.341 1.785 0.0060000001 0
1.5443641 1.7498993 0.031256523 0
1.6210752 1.7854366 0.014508406 0
-2.0680001 1.882 0.016000001 0
1.304 1.821 0.0049999999 0
1.6465943 1.8556825 0.013675276 0
-2.1645775 1.9638259 0.025680806 0
-1.876 1.964 0.0099999998 0
-1.7496966 1.9735819 0.0051493496 0
1.6670001 1.926 0.0080000004 0
-2.2611551 2.0456517 0.035361614 0
-1.9629149 2.0443492 0.019379295 0
-1.8084794 2.0410123 0.01184091 0
-2.3577328 2.1274776 0.045042425 0
-2.1077728 2.1782649 0.035011455 0
-2.0498297 2.1246986 0.028758589 0
-1.9260449 2.1758728 0.025224026 0
-1.8672621 2.1084425 0.018532466 0
-2.4706552 2.2231517 0.056361616 0
-2.154 2.221 0.039999999 0
-1.9680001 2.224 0.029999997 0
