# .PCD v0.7 - Point Cloud Data file format
VERSION 0.7
FIELDS x y z intensity
SIZE 4 4 4 4
TYPE F F F F
COUNT 1 1 1 1
WIDTH 1359
HEIGHT 1
VIEWPOINT 0 0 0 1 0 0 0
POINTS 1359
DATA ascii
-0.382 -4.3060002 -0.23199999 0
-0.57350945 -4.2309799 -0.22782043 0
-0.37812716 -4.2473793 -0.23094377 0
-0.068284787 -4.2111049 -0.23482913 0
0.014999999 -4.2319999 -0.23199999 0
0.112 -4.2020001 -0.23100001 0
-0.56201655 -4.1305904 -0.22643572 0
-0.37239471 -4.1606112 -0.22938037 0
-0.07245566 -4.1247678 -0.23232661 0
0.013009641 -4.1677923 -0.23059937 0
0.11297774 -4.1294026 -0.23002227 0
1.095 -4.1409998 -0.23199999 0
-0.84148866 -4.0694938 -0.22070007 0
-0.55201417 -4.04322 -0.22523062 0
-0.36666226 -4.0738425 -0.22781697 0
-0.076341741 -4.0443258 -0.22999495 0
0.010230793 -4.0781488 -0.22864389 0
0.11398516 -4.0546017 -0.22901484 0
0.38017437 -4.0350833 -0.2267303 0
1.0728917 -4.0589371 -0.22993904 0
-0.81425071 -3.9236689 -0.21921773 0
-0.5420118 -3.9558501 -0.22402552 0
-0.35806358 -3.9436898 -0.22547188 0
-0.08022783 -3.9638839 -0.22766331 0
0.048225973 -3.9537525 -0.2258442 0
0.15800771 -3.9521835 -0.22702534 0
0.27417609 -3.9669466 -0.22543766 0
0.34745559 -3.944443 -0.22579996 0
0.47386044 -3.9548755 -0.22460756 0
0.56465888 -3.934593 -0.2246377 0
0.65462726 -3.9218526 -0.22585887 0
1.0409278 -3.9402912 -0.22695936 0
-1.5636073 -3.8281126 -0.21299355 0
-0.79792917 -3.8362875 -0.21832947 0
-0.53200948 -3.8684802 -0.22282042 0
-0.34946489 -3.8135371 -0.22312678 0
-0.086056955 -3.8432209 -0.22416583 0
0.031157451 -3.8613455 -0.22388445 0
0.1950092 -3.8396235 -0.22562385 0
0.28312147 -3.8528254 -0.22492182 0
0.36201796 -3.8646626 -0.22393931 0
0.46243405 -3.8379593 -0.22317925 0
0.55041522 -3.8220165 -0.22309321 0
0.64022267 -3.8258667 -0.22437802 0
0.82800001 -3.8540001 -0.22499999 0
1.0196185 -3.8611941 -0.22497292 0
-1.5267932 -3.7449024 -0.21238838 0
-0.78160763 -3.7489061 -0.21744123 0
-0.52200711 -3.78111 -0.22161531 0
-0.34373245 -3.7267685 -0.2215634 0
-0.00088460464 -3.7195745 -0.22082195 0
0.080933511 -3.7532701 -0.22170007 0
0.24543583 -3.7526183 -0.22308204 0
0.35385257 -3.7871604 -0.22267866 0
0.45414725 -3.7531674 -0.2221434 0
0.53951269 -3.735847 -0.22191101 0
0.62719089 -3.7390287 -0.22303832 0
0.8138265 -3.7832966 -0.22368915 0
0.94726574 -3.7652779 -0.2229517 0
1.2824569 -3.7687016 -0.22328348 0
-1.4903717 -3.66258 -0.21178967 0
-0.76528609 -3.661525 -0.21655299 0
-0.50700355 -3.6500549 -0.21980765 0
-0.338 -3.6400001 -0.22 0
-0.0036634533 -3.6299307 -0.21886645 0
0.074962005 -3.630583 -0.21925719 0
0.27900001 -3.664 -0.223 0
0.36035258 -3.6546602 -0.22167867 0
0.44586045 -3.6683755 -0.22110754 0
0.52861017 -3.6496778 -0.22072881 0
0.61415905 -3.6521907 -0.2216986 0
0.78735542 -3.651247 -0.22124097 0
0.87609053 -3.6511621 -0.22144724 0
1.2398202 -3.6461728 -0.22038583 0
-1.4539503 -3.5802574 -0.21119097 0
-1.2166073 -3.5777707 -0.21289688 0
-0.74896455 -3.5741436 -0.21566474 0
-0.49200001 -3.5190001 -0.21799999 0
-0.0064423024 -3.5402873 -0.21691097 0
0.070981003 -3.5487914 -0.2176286 0
0.35100001 -3.529 -0.22 0
0.43757361 -3.5835838 -0.2200717 0
0.51770759 -3.5635083 -0.2195466 0
0.60112727 -3.5653524 -0.22035888 0
0.76088434 -3.5191977 -0.21879277 0
0.84642744 -3.51931 -0.2190742 0
1.1900001 -3.503 -0.21699999 0
1.2149101 -3.5745864 -0.21869291 0
1.3915768 -3.5432639 -0.21793327 0
1.4405 -3.546 -0.21849999 0
-1.4175287 -3.4979348 -0.21059225 0
-1.3811073 -3.4156125 -0.20999354 0
-1.1684545 -3.4437113 -0.21176654 0
-0.73264307 -3.4867625 -0.21477649 0
-0.0092211515 -3.4506435 -0.21495548 0
0.067000002 -3.467 -0.21600001 0
0.42514342 -3.4563961 -0.21851793 0
0.54745024 -3.4779265 -0.21869178 0
0.74323696 -3.4311647 -0.21716064 0
0.82665211 -3.4314086 -0.21749218 0
1.3512883 -3.442132 -0.21546663 0
1.4547573 -3.4649904 -0.21699557 0
-1.3446858 -3.3332899 -0.20939484 0
-1.1246942 -3.3218811 -0.2107393 0
-0.71632153 -3.3993812 -0.21388824 0
-0.69999999 -3.312 -0.213 0
-0.012 -3.3610001 -0.213 0
0.49045128 -3.3480849 -0.2165911 0
0.56854773 -3.3482571 -0.21700957 0
0.72558957 -3.3431318 -0.21552852 0
0.80687678 -3.3435073 -0.21591015 0
1.3542929 -3.3366652 -0.21333259 0
1.4261715 -3.3986602 -0.21533038 0
-1.3082644 -3.2509675 -0.20879613 0
-1.0955206 -3.2406607 -0.21005447 0
0.54900002 -3.2179999 -0.215 0
0.74752176 -3.2553523 -0.21411225 0
1.369 -3.266 -0.212 0
-1.271843 -3.1686449 -0.20819741 0
-1.0663471 -3.1594405 -0.20936966 0
0.69029474 -3.1670659 -0.21226425 0
0.76732606 -3.1677043 -0.21274608 0
-1.2354214 -3.0863225 -0.20759872 0
-1.199 -3.0039999 -0.207 0
-1.0371735 -3.0782201 -0.20868483 0
0.67264736 -3.0790329 -0.21063213 0
0.74755073 -3.079803 -0.21116406 0
-1.008 -2.997 -0.208 0
0.65499997 -2.9909999 -0.20900001 0
0.71788764 -2.9479508 -0.20879102 0
2.9170001 -2.401 -0.215 0
2.8529203 -2.3466952 -0.21415526 0
2.7528658 -2.2619033 -0.21283628 0
2.5861087 -2.1205835 -0.21063797 0
2.6528115 -2.1771114 -0.21151729 0
2.4527028 -2.0075278 -0.20887932 0
2.5194056 -2.0640557 -0.20975865 0
2.3859999 -1.951 -0.208 0
2.4979999 -0.86400002 -0.20100001 0
2.799 -0.24699999 -0.20100001 0
2.885776 -0.25336531 -0.2007402 0
2.9725521 -0.25973061 -0.20048039 0
3.0593281 -0.26609594 -0.20022058 0
1.375 -2.8039999 -0.119 0
1.3492609 -2.75418 -0.12500051 0
1.49 -2.707 -0.126 0
1.563 -2.71 -0.109 0
1.2892088 -2.637944 -0.13900042 0
1.4487071 -2.6353908 -0.13279504 0
1.5259092 -2.646904 -0.11575136 0
1.249174 -2.5604532 -0.14833367 0
1.4425398 -2.5642602 -0.13203594 0
1.1691043 -2.405472 -0.1670002 0
1.2091392 -2.4829626 -0.15766694 0
1.3554288 -2.4343383 -0.14748968 0
1.4352627 -2.492703 -0.13225105 0
-1.3536687 -2.3587179 -0.19494425 0
-1.2506013 -2.3603177 -0.18785186 0
1.1290696 -2.3279815 -0.17633347 0
1.2718536 -2.3286955 -0.16189751 0
1.3446162 -2.3385022 -0.14875075 0
-1.3075222 -2.2796094 -0.193012 0
-1.2341297 -2.2369823 -0.18887565 0
1.0890348 -2.2504907 -0.18566673 0
1.2634666 -2.2567115 -0.16308686 0
-1.324 -2.1860001 -0.186 0
-1.2530906 -2.127039 -0.18717811 0
-1.1460767 -2.1534994 -0.1849838 0
1.049 -2.1730001 -0.19499999 0
1.1834269 -2.1753478 -0.17644876 0
1.2313082 -2.145751 -0.16937537 0
-1.4092751 -2.042778 -0.18184868 0
-1.3213584 -2.0682607 -0.18282279 0
-1.2425339 -2.053961 -0.18394047 0
-1.1730764 -2.0491309 -0.1873825 0
-1.0866013 -2.0358176 -0.18335186 0
1.095 -2.0220001 -0.191 0
1.1512684 -2.0643871 -0.18273726 0
-1.515 -1.961 -0.17900001 0
-1.4778831 -1.9124382 -0.17836417 0
-1.3446157 -1.9715558 -0.18030509 0
-1.2589854 -1.9385835 -0.18040781 0
-1.1586874 -1.952582 -0.18330556 0
-1.0469509 -1.9573634 -0.1822639 0
1.118 -1.9529999 -0.19 0
-1.4241477 -1.8421333 -0.17744365 0
-1.3357115 -1.8392066 -0.17772563 0
-1.2499759 -1.8307731 -0.1783883 0
-1.1388383 -1.8354607 -0.17991957 0
-1.0431257 -1.8643465 -0.18218614 0
-0.96765029 -1.8004544 -0.18008797 0
-1.5505513 -1.7342387 -0.17595832 0
-1.3435447 -1.7366762 -0.17606288 0
-1.2487302 -1.7362026 -0.17661345 0
-1.1548694 -1.7514445 -0.17745125 0
-1.0595113 -1.7573203 -0.1793135 0
-0.96090764 -1.7319131 -0.17943826 0
-2.812 -1.681 -0.169 0
-2.7601361 -1.6521585 -0.17077097 0
-2.6682544 -1.6010635 -0.17390838 0
-1.460896 -1.6331379 -0.17443228 0
-1.3690228 -1.6425492 -0.17350125 0
-1.2500448 -1.6487603 -0.17489232 0
-1.1609563 -1.6653336 -0.17626151 0
-1.0550016 -1.6595426 -0.17679243 0
-0.95850003 -1.637 -0.17750001 0
-3.0351534 -1.5410683 -0.17795783 0
-2.9565892 -1.5016139 -0.17709637 0
-2.819 -1.5140001 -0.16599999 0
-2.6070001 -1.567 -0.176 0
-1.3614783 -1.5514382 -0.17276295 0
-1.2601582 -1.5418316 -0.17294233 0
-1.1446075 -1.574172 -0.17435086 0
-1.0563952 -1.5429547 -0.17447767 0
-0.98400003 -1.55 -0.175 0
-2.8445125 -1.4453297 -0.17586747 0
-2.7537112 -1.4798985 -0.16833174 0
-2.6584845 -1.4301593 -0.17173269 0
-1.4220001 -1.499 -0.17200001 0
-1.3420986 -1.4434309 -0.17143942 0
-1.240205 -1.4473715 -0.1716726 0
-1.1423445 -1.4472579 -0.17225437 0
-1.0500185 -1.4546628 -0.17288782 0
-1 -1.497 -0.17399999 0
-2.9355001 -1.3645 -0.16949999 0
-2.8799143 -1.3397882 -0.1690454 0
-2.7480946 -1.3480754 -0.17117362 0
-2.6577177 -1.3515228 -0.17381927 0
-2.589 -1.3555 -0.1735 0
-1.4348133 -1.3766273 -0.17083719 0
-1.3621012 -1.3084037 -0.16993952 0
-1.2692481 -1.342018 -0.17011997 0
-1.1579124 -1.351424 -0.17075667 0
-1.048 -1.35 -0.17133333 0
-2.8131859 -1.2684443 -0.16845529 0
-2.7351487 -1.2331555 -0.16716422 0
-2.6432424 -1.2793374 -0.17053778 0
-2.5681212 -1.2471687 -0.1712689 0
-2.493 -1.215 -0.17200001 0
-1.4527011 -1.2651966 -0.16797891 0
-1.3453488 -1.2314336 -0.16838545 0
-1.211832 -1.283012 -0.16941331 0
-1.147777 -1.2482828 -0.16884813 0
-1.0795 -1.232 -0.169 0
-2.9633925 -1.1761391 -0.16892686 0
-2.8791015 -1.1420957 -0.16758892 0
-2.799418 -1.1099131 -0.16632409 0
-2.6571116 -1.1978667 -0.16587317 0
-2.5400558 -1.1449332 -0.16393659 0
-1.6284504 -1.1535472 -0.16453561 0
-1.5756992 -1.1343923 -0.16677004 0
-1.4544894 -1.1495233 -0.16763461 0
-1.3268414 -1.1582358 -0.1671747 0
-1.2543057 -1.1514295 -0.16762644 0
-1.1835253 -1.1408509 -0.16773488 0
-1.097 -1.165 -0.168 0
-2.7197344 -1.0777304 -0.16505927 0
-2.6400509 -1.0455478 -0.16379446 0
-2.5603671 -1.0133653 -0.16252963 0
-2.4230001 -1.092 -0.162 0
-1.6425436 -1.0510986 -0.16331044 0
-1.5543747 -1.0570992 -0.16604532 0
-1.4377648 -1.0394199 -0.16551633 0
-1.3431561 -1.0638566 -0.16630127 0
-1.2416923 -1.0343249 -0.16596287 0
-1.1335 -1.0434999 -0.1665 0
-2.950103 -0.9413799 -0.16659507 0
-2.8448911 -0.90636563 -0.16473441 0
-2.4408417 -0.96509135 -0.1606324 0
-1.719 -0.98799998 -0.16599999 0
-1.6409712 -0.94613087 -0.16742736 0
-1.5494276 -0.97120744 -0.16530235 0
-1.4556141 -0.94942534 -0.16463464 0
-1.3525556 -0.94419795 -0.1643738 0
-1.215052 -0.96528554 -0.16476709 0
-1.151 -0.91600001 -0.164 0
-2.7625759 -0.87897134 -0.16327867 0
-2.6802607 -0.85157704 -0.16182293 0
-2.5979455 -0.82418281 -0.16036721 0
-2.3469999 -0.88099998 -0.15899999 0
-2.2669516 -0.85153109 -0.15932147 0
-2.1835828 -0.8208397 -0.15965629 0
-1.5549999 -0.89999998 -0.169 0
-1.3163071 -0.85721266 -0.16331732 0
-1.2402973 -0.85048068 -0.16314387 0
-1.166 -0.83999997 -0.163 0
2.3402643 -0.81029189 -0.19862804 0
2.4261825 -0.83954656 -0.19992004 0
-2.5156302 -0.79678851 -0.15891147 0
-2.4333153 -0.76939428 -0.15745574 0
-2.334173 -0.73674661 -0.15608209 0
-2.1002138 -0.79014832 -0.1599911 0
-2.0168447 -0.75945693 -0.16032591 0
-1.9334759 -0.72876555 -0.16066074 0
-1.7094866 -0.76363343 -0.16097766 0
-1.64856 -0.72884071 -0.16089207 0
-1.58082 -0.72130013 -0.16131099 0
-1.177 -0.76499999 -0.162 0
2.0825095 -0.72252798 -0.19475202 0
2.1684277 -0.7517826 -0.19604403 0
2.2533209 -0.75149667 -0.19590391 0
2.3384578 -0.74920064 -0.19553077 0
2.4447289 -0.75127864 -0.19683634 0
-2.3280001 -0.61699998 -0.155 0
-2.2150166 -0.69954658 -0.15666334 0
-2.1295145 -0.67285323 -0.15708041 0
-2.0440123 -0.64615995 -0.1574975 0
-1.9585103 -0.6194666 -0.15791458 0
-1.850107 -0.69807416 -0.16099556 0
-1.7259127 -0.66212755 -0.15944345 0
-1.6628731 -0.63794011 -0.1601529 0
-1.5621477 -0.64783973 -0.16169348 0
1.7388365 -0.60550928 -0.18958402 0
1.8247547 -0.63476396 -0.19087602 0
1.9521805 -0.65262318 -0.19178969 0
2.0853746 -0.64203441 -0.19260359 0
2.1717706 -0.66829014 -0.19362086 0
2.259584 -0.63701242 -0.19453585 0
2.3465319 -0.66132647 -0.19560283 0
2.4453321 -0.65780574 -0.19679201 0
-2.3080001 -0.56800002 -0.155 0
-2.2557626 -0.57648313 -0.1555374 0
-2.1699796 -0.55461025 -0.15622023 0
-2.0841968 -0.53273737 -0.15690306 0
-1.9483366 -0.51687986 -0.15896516 0
-1.8730083 -0.59277332 -0.15833166 0
-1.7253021 -0.55049336 -0.15818292 0
-1.6518817 -0.53973943 -0.15898526 0
-1.5675182 -0.55118334 -0.16045384 0
1.5650001 -0.5255 -0.18650001 0
1.6510401 -0.55374956 -0.18767551 0
1.7397915 -0.5370115 -0.18853453 0
1.8261874 -0.56326723 -0.1895518 0
1.938972 -0.5387727 -0.19044262 0
2.0533226 -0.55246896 -0.19147359 0
2.1653948 -0.55537534 -0.1924834 0
2.2506285 -0.54854006 -0.19312339 0
2.3381567 -0.54098815 -0.19478856 0
2.4395595 -0.56441009 -0.1962992 0
-2.0055652 -0.49352902 -0.15665491 0
-1.9198521 -0.47242323 -0.15712392 0
-1.8268484 -0.46711868 -0.15895152 0
-1.7290329 -0.44287291 -0.15856718 0
-1.6623222 -0.44015861 -0.15902543 0
-1.5629041 -0.44995993 -0.16071716 0
1.564 -0.4425 -0.186 0
1.650948 -0.46681404 -0.18706699 0
1.72797 -0.44367865 -0.18642382 0
1.8569012 -0.45267302 -0.18793753 0
1.9863093 -0.45966005 -0.18954919 0
2.0656543 -0.42736709 -0.18958977 0
2.1534629 -0.44540584 -0.19087228 0
2.241272 -0.46344459 -0.19215482 0
2.34409 -0.42692402 -0.19084319 0
2.4112887 -0.46828952 -0.19294858 0
3.2110033 -0.40525293 -0.15300094 0
3.3448792 -0.42311284 -0.14606361 0
3.404 -0.43099999 -0.14300001 0
-2.829 -0.35499999 -0.15800001 0
-2.7544491 -0.34528154 -0.15710488 0
-2.6697078 -0.3342346 -0.1560874 0
-2.5425954 -0.31766421 -0.15456118 0
-2.415483 -0.30109385 -0.15303496 0
-1.745958 -0.33104816 -0.16144338 0
-1.6542753 -0.3617816 -0.16116108 0
-1.5693334 -0.36899999 -0.16 0
1.5465 -0.35799998 -0.183 0
1.6299747 -0.35788801 -0.18353988 0
1.7415442 -0.35362872 -0.18444698 0
1.8509226 -0.34828165 -0.18598808 0
1.979237 -0.36078131 -0.18679914 0
2.075861 -0.35276634 -0.18750612 0
2.1476383 -0.34000099 -0.18726683 0
2.2353299 -0.35407382 -0.1881654 0
2.3350143 -0.36076447 -0.18904263 0
2.497 -0.31 -0.19 0
2.5862503 -0.32190663 -0.18537511 0
2.6755009 -0.33381322 -0.18075024 0
2.7788756 -0.33035994 -0.18806267 0
2.8657179 -0.34026161 -0.18506686 0
2.9525604 -0.35016328 -0.18207106 0
3.039403 -0.36006498 -0.17907524 0
3.1262455 -0.36996666 -0.17607942 0
3.2573895 -0.35843211 -0.1924829 0
3.349 -0.36700001 -0.191 0
-2.6345687 -0.23814347 -0.14801686 0
-2.5558605 -0.26019248 -0.14843589 0
-2.4758954 -0.25139436 -0.14882693 0
-2.3475459 -0.25548044 -0.15028147 0
-2.2393334 -0.24299999 -0.15033333 0
-2.1419725 -0.21462031 -0.1526458 0
-2.019315 -0.2010802 -0.1560972 0
-1.751304 -0.24356268 -0.16423459 0
-1.6716666 -0.24333334 -0.17 0
1.548 -0.26199999 -0.183 0
1.6457944 -0.25271523 -0.18159904 0
1.7393957 -0.25295654 -0.18330745 0
1.8528972 -0.240026 -0.18392891 0
1.9668386 -0.26325884 -0.18475235 0
2.054647 -0.27541241 -0.18560743 0
2.137043 -0.23536561 -0.18604666 0
2.2485726 -0.23886037 -0.18714155 0
2.330631 -0.26686743 -0.1879922 0
3.1461041 -0.27246124 -0.19996077 0
3.2328801 -0.27882653 -0.19970097 0
3.3196564 -0.28519186 -0.19944115 0
3.4367161 -0.2937786 -0.19909067 0
4.4708066 -0.21181548 -0.11307898 0
4.5602455 -0.21385238 -0.12826318 0
4.649684 -0.21588929 -0.14344738 0
4.7391229 -0.21792619 -0.15863159 0
4.8285613 -0.2199631 -0.17381579 0
4.9180002 -0.222 -0.189 0
-2.5465598 -0.19926661 -0.14841802 0
-2.4666698 -0.19194996 -0.14881352 0
-2.3468349 -0.18097499 -0.14940676 0
-2.2233334 -0.14766668 -0.15033333 0
-2.177721 -0.13385272 -0.15165761 0
-2.0527329 -0.15563524 -0.15453625 0
-1.9336953 -0.16877966 -0.15806657 0
-1.8518476 -0.16088983 -0.16028328 0
-1.77 -0.153 -0.16249999 0
1.5655 -0.169 -0.1805 0
1.6534064 -0.17912018 -0.1813691 0
1.7702048 -0.17190239 -0.18114829 0
1.8578072 -0.18085359 -0.18222243 0
1.9454095 -0.18980479 -0.18329658 0
2.0317366 -0.15043804 -0.18406937 0
2.1177535 -0.10714409 -0.18452162 0
2.2470229 -0.11458405 -0.18563762 0
-5.338614 -0.082125694 -0.11531423 0
-5.2176056 -0.082626246 -0.11656561 0
-5.1269827 -0.083001107 -0.11750276 0
-5.0363598 -0.083375968 -0.11843992 0
-4.9457369 -0.083750829 -0.11937708 0
-4.855114 -0.08412569 -0.12031423 0
-4.7644911 -0.084500559 -0.12125138 0
-4.6738687 -0.08487542 -0.12218854 0
-4.5832458 -0.085250281 -0.12312569 0
-4.4473114 -0.085812569 -0.12453142 0
-2.608 -0.085000001 -0.148 0
-2.5449343 -0.042945091 -0.14762306 0
-2.447051 -0.048438229 -0.14845094 0
-2.3677006 -0.044958822 -0.1489673 0
-2.2413402 -0.044591766 -0.14979346 0
-2.1540661 -0.041043907 -0.15241419 0
-2.0503106 -0.051545132 -0.15578246 0
-1.9366431 -0.05082212 -0.15895182 0
-1.8553215 -0.049411062 -0.16130924 0
-1.774 -0.048000004 -0.16366668 0
1.594 -0.077 -0.18000001 0
1.6717713 -0.041648868 -0.18025893 0
1.7590424 -0.044797741 -0.18101785 0
1.8463136 -0.047946606 -0.18177676 0
1.9335847 -0.051095478 -0.18253568 0
2.0548759 -0.0070054843 -0.18320328 0
2.185751 -0.0089160707 -0.18434964 0
2.26 -0.0099999998 -0.185 0
-2.51 0.090999998 -0.14399999 0
-2.4485803 0.090813875 -0.1449306 0
-2.3334744 0.090465076 -0.14667463 0
-2.2308686 0.045116268 -0.14991865 0
-2.172034 0.074218437 -0.14958155 0
-2.0428097 0.065682262 -0.15416771 0
-1.9220341 0.061318435 -0.15838155 0
-1.8415171 0.058409214 -0.16119078 0
-1.7609999 0.055500001 -0.164 0
1.5445001 0.0185 -0.18000001 0
1.64601 0.037899248 -0.18171939 0
1.77802 0.0387985 -0.18243879 0
1.8660266 0.039398003 -0.1829184 0
1.9540333 0.039997503 -0.18339801 0
2.0420399 0.040597003 -0.1838776 0
2.1300466 0.041196503 -0.1843572 0
2.2330265 0.041898001 -0.1849184 0
-2.1485 0.1715 -0.149 0
-2.0560615 0.15728396 -0.1533559 0
-1.947287 0.16126148 -0.15765062 0
-1.8435581 0.14609089 -0.16250108 0
-1.7644999 0.13949999 -0.16599999 0
1.479 0.1445 -0.178 0
1.5661325 0.15088946 -0.17837834 0
1.653265 0.15727891 -0.1787567 0
1.7542423 0.1234675 -0.1801223 0
1.8416563 0.12795667 -0.18049639 0
1.9290705 0.13244584 -0.18087049 0
2.0164845 0.13693501 -0.18124458 0
2.1627371 0.14444585 -0.18187048 0
-2.1240001 0.25299999 -0.15000001 0
-2.0719593 0.27041543 -0.1520782 0
-1.956287 0.25282216 -0.15767388 0
-1.8382978 0.25595227 -0.1632818 0
-1.7613333 0.24433334 -0.16733332 0
-1.487 0.29300001 -0.161 0
1.726553 0.20386922 -0.17814781 0
1.813404 0.21215896 -0.17853042 0
1.9436805 0.22459358 -0.17910433 0
2.073957 0.2370282 -0.17967823 0
2.1470001 0.244 -0.18000001 0
-2.108 0.301 -0.15000001 0
-2.0653272 0.36328197 -0.14869609 0
-1.9448216 0.34631979 -0.15386042 0
-1.8526031 0.36996493 -0.15223587 0
-1.7567196 0.35854086 -0.15413201 0
-1.6408134 0.35993707 -0.15585624 0
-1.5490863 0.35048655 -0.15761513 0
-1.4403334 0.35733333 -0.15766667 0
1.443 0.354 -0.17200001 0
1.5298907 0.3775433 -0.17219952 0
-4.9089999 0.477 -0.115 0
-4.8282442 0.47155273 -0.11731509 0
-4.7428703 0.46579394 -0.11976258 0
-4.657496 0.46003515 -0.12221006 0
-4.5721221 0.45427638 -0.12465754 0
-4.4440613 0.44563818 -0.12832877 0
-4.316 0.43700001 -0.132 0
-2.3329999 0.46700001 -0.14300001 0
-2.2769194 0.45546567 -0.14419322 0
-2.1452661 0.42838806 -0.14699435 0
-2.0238826 0.44670534 -0.14739418 0
-1.9426451 0.44999406 -0.14882834 0
-1.8516922 0.45661142 -0.15034752 0
-1.746797 0.45395026 -0.15237388 0
-1.6609432 0.45647505 -0.15316023 0
-1.5601093 0.44273791 -0.15506271 0
-1.4631751 0.45051154 -0.15660672 0
-1.391 0.454 -0.156 0
1.6167815 0.4010866 -0.17239904 0
1.7471175 0.43640155 -0.17269832 0
1.8774536 0.47171649 -0.17299759 0
1.9643444 0.49525979 -0.17319712 0
4.6220002 0.477 -0.2 0
4.7523656 0.48478299 -0.17877361 0
4.882731 0.49256602 -0.15754721 0
4.9696417 0.49775472 -0.14339627 0
-2.3640509 0.5888133 -0.14119953 0
-2.2546113 0.56042248 -0.14236833 0
-2.1227407 0.52757114 -0.14453776 0
-2.0170434 0.55036336 -0.14591369 0
-1.9605285 0.54873842 -0.1480902 0
-1.8462337 0.55328017 -0.1496466 0
-1.7621962 0.55183196 -0.15080459 0
-1.6524153 0.53688258 -0.1528924 0
-1.5332465 0.54705685 -0.15419312 0
-1.4269266 0.56103402 -0.15420641 0
-1.3445001 0.53149998 -0.154 0
1.29 0.56300002 -0.168 0
1.3678999 0.59865642 -0.16685441 0
2.0512352 0.51880312 -0.17339663 0
2.1381259 0.54234636 -0.17359616 0
2.2250166 0.56588972 -0.17379567 0
2.3129535 0.58971643 -0.1739976 0
5.0565519 0.5029434 -0.12924534 0
5.1434622 0.5081321 -0.1150944 0
5.2303724 0.51332074 -0.10094347 0
-2.7122545 0.6800667 -0.13799766 0
-2.6252036 0.65725332 -0.13879813 0
-2.5381527 0.63444 -0.13959861 0
-2.4511018 0.61162668 -0.14039907 0
-2.3024139 0.68857318 -0.14126186 0
-2.217 0.662 -0.142 0
-2.1654413 0.67400956 -0.14265108 0
-2.0800033 0.64773071 -0.1441343 0
-1.9497666 0.63616222 -0.14767705 0
-1.8554696 0.62406248 -0.14964105 0
-1.7615279 0.67586368 -0.14900467 0
-1.654364 0.6457749 -0.15026417 0
-1.5656112 0.65235251 -0.15213175 0
-1.4683748 0.65010697 -0.15157314 0
-1.3787709 0.65134472 -0.15363118 0
-1.2715 0.65149999 -0.15149999 0
1.2335 0.64700001 -0.16600001 0
1.3628587 0.67764688 -0.16565937 0
1.4457998 0.63431281 -0.16570882 0
1.5236998 0.6699692 -0.16456324 0
-3.1470001 0.79400003 -0.134 0
-3.0604579 0.77132004 -0.13479578 0
-2.9734073 0.74850672 -0.13559626 0
-2.8863564 0.72569335 -0.13639674 0
-2.7993054 0.70288002 -0.1371972 0
-2.6440694 0.79486603 -0.13830929 0
-2.5586555 0.76829284 -0.13904743 0
-2.457417 0.76795977 -0.13955632 0
-2.3726115 0.74047315 -0.14037088 0
-2.2731974 0.7374 -0.14110902 0
-2.1472933 0.76125085 -0.14202578 0
-2.030859 0.76378155 -0.14355899 0
-1.9308196 0.76287574 -0.14675614 0
-1.8421025 0.73736858 -0.14712781 0
-1.7228624 0.7161473 -0.14824693 0
-1.6504732 0.76156592 -0.14896917 0
-1.5201911 0.74361503 -0.15044519 0
-1.4329495 0.76744729 -0.15140013 0
-1.346354 0.74829304 -0.15089455 0
-1.2545 0.76700002 -0.15000001 0
1.161 0.75800002 -0.15899999 0
1.2583128 0.72574902 -0.16232009 0
1.3534384 0.77674723 -0.16146028 0
1.4475937 0.76695704 -0.16327471 0
1.5442897 0.77372485 -0.163425 0
1.6405497 0.72345376 -0.16284487 0
1.7573996 0.77693838 -0.16112648 0
-2.900311 0.87458563 -0.13609485 0
-2.8148971 0.84801245 -0.136833 0
-2.7294831 0.82143927 -0.13757114 0
-2.6520867 0.86519992 -0.13709962 0
-2.5257902 0.82259995 -0.13843608 0
-2.3699019 0.89365125 -0.13962612 0
-2.2438185 0.86308318 -0.14195241 0
-2.155915 0.86319876 -0.14542337 0
-2.0722768 0.8277992 -0.14661558 0
-1.8396227 0.86004031 -0.14625122 0
-1.7540842 0.83983064 -0.14751779 0
-1.6442922 0.85826266 -0.1481975 0
-1.5583503 0.84754789 -0.14869401 0
-1.4532741 0.85681891 -0.14832151 0
-1.3520699 0.85319471 -0.1487058 0
-1.255126 0.85180938 -0.14887881 0
-1.14625 0.85874999 -0.149 0
1.2307169 0.80479854 -0.15803838 0
1.3352925 0.8749963 -0.15659596 0
1.4720329 0.85470325 -0.15916377 0
1.5783918 0.89035034 -0.16019222 0
1.6384311 0.823578 -0.16226563 0
1.834 0.81199998 -0.16 0
-3.027 0.91399997 -0.13500001 0
-2.9653625 0.9325794 -0.13467836 0
-2.8625808 0.93619984 -0.13487217 0
-2.778383 0.90779984 -0.13576314 0
-2.6178038 0.99030244 -0.13725223 0
-2.5351698 0.95808536 -0.13804352 0
-2.4296832 0.94763291 -0.14034078 0
-2.3231919 0.93399793 -0.14303894 0
-2.1028974 0.96267426 -0.14141682 0
-2.0401306 0.96090949 -0.1430144 0
-1.9768407 0.9562127 -0.1450192 0
-1.847551 0.95951599 -0.14536186 0
-1.7525207 0.95937812 -0.1455998 0
-1.6535685 0.95112216 -0.1461823 0
-1.5399108 0.94748229 -0.1462139 0
-1.4340818 0.95915973 -0.14775753 0
-1.3559488 0.95949316 -0.14655261 0
-1.2582371 0.94385511 -0.14790559 0
-1.1584928 0.96187043 -0.14779258 0
-1.0625 0.96949995 -0.14750001 0
1.439868 0.94519413 -0.15515354 0
1.5392466 0.95976388 -0.15530446 0
1.6503448 0.97712111 -0.15515019 0
1.98 0.99800003 -0.15800001 0
-2.8529999 1.082 -0.13500001 0
-2.7417545 1.0386281 -0.13606527 0
-2.6577454 1.0755963 -0.13827008 0
-2.5741072 1.0401967 -0.13946229 0
-2.4904687 1.0047971 -0.1406545 0
-2.3425894 1.0756969 -0.13966723 0
-2.240397 1.0580273 -0.14114922 0
-2.1602383 1.0188869 -0.141936 0
-1.9585814 1.0648541 -0.14468998 0
-1.8504438 1.0622169 -0.14472789 0
-1.7303333 1.0370001 -0.14366667 0
-1.6405464 1.0588049 -0.14486976 0
-1.5322315 1.0468221 -0.14527997 0
-1.4418331 1.0600518 -0.1450845 0
-1.3306854 1.043768 -0.14622802 0
-1.2346478 1.041899 -0.14648797 0
-1.1497012 1.0394626 -0.14622322 0
-1.0371968 1.034806 -0.14544599 0
-0.97000003 1.074 -0.145 0
0.89999998 1.0599999 -0.152 0
1.5876509 1.0443956 -0.15311515 0
2.0581419 1.0396452 -0.15948734 0
2.1362839 1.0812904 -0.16097467 0
2.552 1.072 -0.171 0
-2.8169999 1.143 -0.13600001 0
-2.7413838 1.1109959 -0.13707787 0
-2.5423329 1.1698825 -0.13820925 0
-2.4409249 1.156611 -0.13908042 0
-2.3789425 1.1592444 -0.1400672 0
-2.2985222 1.118638 -0.14105761 0
-2.1541629 1.1747082 -0.14237997 0
-2.0593905 1.1533391 -0.14295584 0
-1.9658878 1.1304337 -0.14345577 0
-1.8230436 1.1641543 -0.14445436 0
-1.7317464 1.1337494 -0.14470819 0
-1.6447111 1.1472403 -0.14356358 0
-1.5690802 1.1592892 -0.14408158 0
-1.4602107 1.1473826 -0.14466119 0
-1.352525 1.1546484 -0.14447536 0
-1.2644106 1.1325483 -0.14520568 0
-1.1481397 1.1423342 -0.14489141 0
-1.0531778 1.1390256 -0.14445843 0
-0.95042706 1.1490301 -0.14268382 0
-0.87049997 1.1730001 -0.142 0
0.85127193 1.142386 -0.15049884 0
0.97362494 1.1466815 -0.15127462 0
1.271 1.183 -0.153 0
1.321 1.1440001 -0.154 0
1.4080801 1.1901011 -0.15215398 0
2.2534966 1.1437583 -0.16320565 0
2.6581681 1.12332 -0.17196225 0
2.7643361 1.1746398 -0.17292449 0
-2.7079999 1.248 -0.13699999 0
-2.6367943 1.2641524 -0.13714348 0
-2.5397832 1.2404571 -0.13808641 0
-2.3106279 1.2625916 -0.14053196 0
-2.2323954 1.2186499 -0.14145596 0
-2.1582942 1.2441285 -0.14133561 0
-1.9720871 1.2613087 -0.14290872 0
-1.8617605 1.2522736 -0.14213127 0
-1.7549057 1.2405363 -0.14238857 0
-1.6511199 1.2259414 -0.14351209 0
-1.5349 1.2428879 -0.1430261 0
-1.4630053 1.2649454 -0.14357398 0
-1.3617748 1.26574 -0.14256006 0
-1.2517838 1.2497025 -0.14329764 0
-1.1543432 1.2357546 -0.14356266 0
-1.035547 1.2387888 -0.14181955 0
-0.93870401 1.2379255 -0.14141758 0
-0.83918238 1.2430381 -0.14153355 0
-0.77950001 1.2880001 -0.1415 0
0.76973313 1.2297428 -0.15028504 0
0.86881733 1.245331 -0.1491842 0
0.96553969 1.2538946 -0.14974132 0
1.0717916 1.2622571 -0.15030748 0
1.1285001 1.28225 -0.1505 0
1.2347493 1.2619476 -0.15125704 0
1.3428469 1.2466326 -0.15061708 0
1.4579624 1.2618796 -0.1505332 0
2.135 1.217 -0.15099999 0
2.2127924 1.2606027 -0.15154096 0
2.3707099 1.206226 -0.16543664 0
2.4488518 1.2478712 -0.16692397 0
2.5269938 1.2895163 -0.1684113 0
2.8590574 1.2204266 -0.173783 0
-2.5250001 1.383 -0.138 0
-2.467093 1.3504748 -0.13868394 0
-2.3697805 1.3321781 -0.13941169 0
-2.2737381 1.3123453 -0.14006349 0
-2.1211307 1.358463 -0.14136308 0
-2.0267324 1.3307469 -0.14154097 0
-1.9506111 1.3474469 -0.13933229 0
-1.877775 1.3622658 -0.1387873 0
-1.7893598 1.3298242 -0.14053628 0
-1.6312103 1.3677447 -0.14042899 0
-1.5416174 1.3610996 -0.14068389 0
-1.4561449 1.3331803 -0.14152785 0
-1.3467741 1.367532 -0.14115314 0
-1.2399392 1.3454827 -0.14169668 0
-1.1428232 1.3596293 -0.14006513 0
-1.037367 1.3554337 -0.13997638 0
-0.92580104 1.34895 -0.14019977 0
-0.86229694 1.3430016 -0.14040278 0
-0.74862272 1.3593956 -0.14106891 0
-0.65700001 1.395 -0.14300001 0
-0.45101234 1.3434143 -0.14644742 0
-0.34900001 1.397 -0.146 0
0.55000001 1.3596667 -0.14633334 0
0.84866565 1.3487134 -0.14742514 0
0.93954486 1.3688874 -0.1481228 0
1.033 1.341 -0.149 0
1.1806004 1.3560207 -0.14905871 0
1.2619019 1.3497437 -0.1487304 0
1.3569014 1.3498561 -0.14784944 0
1.4376456 1.3357983 -0.14918004 0
1.5424722 1.345584 -0.14837214 0
1.6153204 1.3644046 -0.14661591 0
1.7395 1.348 -0.14950001 0
1.8393334 1.3557051 -0.14970274 0
2.0439999 1.3 -0.148 0
2.1576948 1.3718724 -0.14892939 0
2.2905848 1.3042054 -0.15208195 0
2.3683774 1.3478081 -0.15262292 0
2.4461699 1.3914108 -0.15316391 0
2.634068 1.3465807 -0.17044932 0
-2.4443316 1.4131505 -0.13818367 0
-2.2701743 1.4556173 -0.13981745 0
-2.1521077 1.4508606 -0.13786186 0
-2.0587161 1.4225893 -0.1377123 0
-1.9621595 1.4596777 -0.13681653 0
-1.7446197 1.4518557 -0.13740243 0
-1.648129 1.4553052 -0.13798974 0
-1.5538251 1.4316986 -0.13979563 0
-1.4568585 1.4599191 -0.13899137 0
-1.3566284 1.4308332 -0.14020529 0
-1.2755153 1.4676417 -0.13856234 0
-1.1801088 1.4683844 -0.13804579 0
-1.0563375 1.4465742 -0.1388994 0
-0.93975693 1.4493041 -0.13858591 0
-0.83004534 1.4385914 -0.13953781 0
-0.76234448 1.4482815 -0.14000165 0
-0.68968886 1.4583704 -0.14127953 0
-0.55435801 1.4398285 -0.14256153 0
-0.45925251 1.4575325 -0.14415501 0
-0.36687425 1.468497 -0.14442286 0
-0.25550002 1.4575 -0.145 0
0.34200001 1.4859999 -0.14300001 0
0.45662904 1.4446779 -0.14427206 0
0.56717628 1.4600445 -0.14473777 0
0.63688076 1.4479942 -0.14479643 0
0.74799997 1.4783334 -0.145 0
0.85399997 1.4275 -0.146 0
0.9773441 1.4696807 -0.14649546 0
1.0803118 1.4318724 -0.14579931 0
1.1466234 1.4467447 -0.14559864 0
1.2285916 1.4412037 -0.14636342 0
1.3561426 1.4491377 -0.14690168 0
1.4523029 1.4447124 -0.14569885 0
1.5245245 1.4466219 -0.14545012 0
1.653276 1.4514985 -0.14600652 0
1.7598835 1.4748087 -0.14536691 0
1.9478335 1.4362627 -0.14925686 0
2.2713895 1.4437448 -0.14985877 0
2.3471859 1.4916598 -0.15047836 0
2.5239623 1.4350135 -0.15370488 0
2.6017547 1.4786162 -0.15424585 0
-2.346848 1.5055972 -0.13902232 0
-2.2488847 1.5171862 -0.13825683 0
-2.1370001 1.515 -0.133 0
-2.0794196 1.5477948 -0.13429233 0
-1.9265175 1.5785882 -0.13249132 0
-1.8250259 1.5308617 -0.1350725 0
-1.7618676 1.5785515 -0.13437319 0
-1.6662986 1.5494478 -0.1362696 0
-1.5424441 1.5394063 -0.13731159 0
-1.4482387 1.548481 -0.13761792 0
-1.3624873 1.5637593 -0.13657472 0
-1.2608614 1.5478976 -0.13635494 0
-1.109086 1.5158589 -0.13806212 0
-1.0363091 1.5636979 -0.13658559 0
-0.96743107 1.5345511 -0.13673134 0
-0.85522729 1.5562855 -0.13729961 0
-0.75411105 1.541213 -0.13909942 0
-0.62966698 1.5516819 -0.1399367 0
-0.54831976 1.5314687 -0.14136307 0
-0.465 1.508 -0.14300001 0
-0.33392301 1.5416459 -0.14274545 0
-0.23493084 1.5551325 -0.14291793 0
-0.16365218 1.5486364 -0.14348617 0
-0.091577053 1.570616 -0.14173076 0
0.153 1.585 -0.14 0
0.26333395 1.5294679 -0.13981651 0
0.35752717 1.5584601 -0.14144729 0
0.4485366 1.5690972 -0.14213274 0
0.54013658 1.5426964 -0.14255394 0
0.63158715 1.5473295 -0.14353095 0
0.76954764 1.5661584 -0.14281768 0
0.84585375 1.5331835 -0.14433745 0
0.90992332 1.5969559 -0.14273463 0
1.0276881 1.5423613 -0.14499094 0
1.167298 1.5551833 -0.14325958 0
1.2706101 1.52197 -0.14418051 0
1.3594015 1.5570827 -0.14473489 0
1.4477057 1.5452311 -0.14419124 0
1.5478578 1.5385821 -0.14362662 0
1.6490761 1.5587928 -0.14384803 0
1.744235 1.5445595 -0.14346489 0
1.8431355 1.5472889 -0.14241585 0
1.9140308 1.5586904 -0.14428332 0
2.0563335 1.5168203 -0.14881097 0
2.1286669 1.5705254 -0.1485137 0
2.4608808 1.5635322 -0.15140775 0
2.6795471 1.5222189 -0.15478684 0
2.7573395 1.5658216 -0.15532781 0
-1.8601608 1.643782 -0.13253969 0
-1.7623852 1.6619605 -0.1345479 0
-1.6434716 1.6702362 -0.13430539 0
-1.5556778 1.6317142 -0.13528901 0
-1.4208574 1.6595697 -0.13450527 0
-1.3333538 1.6546805 -0.13397031 0
-1.255469 1.6303344 -0.1337041 0
-1.1337128 1.6509711 -0.13481659 0
-1.0684046 1.6396163 -0.13462597 0
-0.9774186 1.6326052 -0.13449633 0
-0.85321265 1.6412916 -0.13646123 0
-0.78185999 1.6208372 -0.13765319 0
-0.65930063 1.6495042 -0.13819456 0
-0.55826735 1.6431794 -0.13965181 0
-0.40981138 1.6402456 -0.1406343 0
-0.33002046 1.6519436 -0.14039066 0
-0.24586168 1.628265 -0.14083587 0
-0.148 1.6476666 -0.14100002 0
-0.036333334 1.6676666 -0.13933332 0
0.055750001 1.6575 -0.13999999 0
0.15442339 1.6654329 -0.13907471 0
0.25782305 1.643352 -0.13858704 0
0.34812689 1.6541654 -0.13988084 0
0.44804415 1.6664299 -0.14038545 0
0.55035681 1.6608623 -0.13931452 0
0.63334084 1.6435906 -0.14138612 0
0.75965905 1.6380841 -0.14063181 0
0.83754349 1.6508589 -0.14113325 0
0.93694246 1.6849669 -0.14105096 0
1.0755161 1.6520209 -0.1427432 0
1.1283764 1.6877227 -0.14198186 0
1.2427586 1.6411474 -0.1421887 0
1.3502128 1.6511406 -0.1416828 0
1.45494 1.6435339 -0.14291838 0
1.5394402 1.6443242 -0.1426371 0
1.6258092 1.6689363 -0.14191794 0
1.7440205 1.6473975 -0.14134008 0
1.8422679 1.6369828 -0.14101903 0
1.9493353 1.655548 -0.13962655 0
2.048718 1.668484 -0.14113888 0
2.2371671 1.651083 -0.1480678 0
2.5745754 1.6354046 -0.15233713 0
2.650372 1.6833196 -0.15295672 0
2.8445661 1.6147122 -0.15593439 0
-1.962191 1.7538602 -0.12729961 0
-1.7387677 1.7397915 -0.13294278 0
-1.6553134 1.7346083 -0.13278335 0
-1.5371249 1.7409754 -0.13281146 0
-1.4583552 1.7482133 -0.13255695 0
-1.3609381 1.7636689 -0.13040818 0
-1.214818 1.736559 -0.13252543 0
-1.1382707 1.7449254 -0.13231187 0
-1.0425465 1.7355129 -0.13224082 0
-0.95279288 1.7497007 -0.13451457 0
-0.86165649 1.7456309 -0.13518946 0
-0.72013283 1.7529082 -0.1365086 0
-0.34299999 1.7180001 -0.139 0
-0.2404999 1.7434365 -0.13822976 0
-0.15331163 1.7584721 -0.13819012 0
-0.057741039 1.7532815 -0.13778326 0
0.047237512 1.7478269 -0.13799515 0
0.15441529 1.7568213 -0.13707778 0
0.25430301 1.7430352 -0.13733618 0
0.35472658 1.7599884 -0.13746515 0
0.44606972 1.7626144 -0.13802418 0
0.5512296 1.744355 -0.13862708 0
0.66680896 1.7500654 -0.13851765 0
0.7351467 1.7597029 -0.13880032 0
0.85036868 1.7419387 -0.13915901 0
0.94775057 1.7598375 -0.13939428 0
1.1479427 1.7582669 -0.14045352 0
1.2826985 1.7320874 -0.13997711 0
1.3702468 1.7674898 -0.13919728 0
1.4503562 1.7328074 -0.1398512 0
1.5338006 1.7556026 -0.14016417 0
1.6374604 1.739722 -0.139901 0
1.7333359 1.7448125 -0.13917328 0
1.8542271 1.752943 -0.13847981 0
1.9597027 1.7739884 -0.13775615 0
2.0343783 1.7420313 -0.13575594 0
2.1497333 1.7508292 -0.13878055 0
2.3456674 1.7316406 -0.14762191 0
2.4180007 1.7853458 -0.14732465 0
2.7520843 1.7476172 -0.15378815 0
-2.119 1.896 -0.123 0
-2.0614462 1.8438303 -0.12457809 0
-1.8145161 1.8627546 -0.12929007 0
-1.5468483 1.8655803 -0.12872514 0
-1.4506572 1.8485574 -0.12872237 0
-1.3126967 1.8715984 -0.12887572 0
-1.234521 1.84938 -0.12999806 0
-1.1320739 1.8260019 -0.13033499 0
-1.0131328 1.8652867 -0.13216366 0
-0.93155515 1.8292803 -0.13255464 0
-0.89987946 1.855698 -0.13322555 0
-0.25134259 1.8659523 -0.1362569 0
-0.16119412 1.8482987 -0.13662511 0
-0.061482076 1.8410629 -0.13606653 0
0.050075024 1.835254 -0.1361903 0
0.15173 1.8442496 -0.13536125 0
0.25043282 1.8454162 -0.13544384 0
0.35534337 1.8734478 -0.1357615 0
0.44857886 1.8544637 -0.13676247 0
0.52818012 1.8438426 -0.13661076 0
0.63100606 1.8614414 -0.13600314 0
0.73436141 1.8633362 -0.13654898 0
0.85814363 1.8532687 -0.13737214 0
0.97615039 1.8704301 -0.13689283 0
1.0453449 1.8507996 -0.1372474 0
1.1613297 1.8232613 -0.13885939 0
1.2371863 1.8631587 -0.13742062 0
1.3713957 1.8396879 -0.13796221 0
1.4520526 1.8487283 -0.13767189 0
1.5602053 1.8419155 -0.13776386 0
1.6605819 1.8351287 -0.13862748 0
1.7601089 1.8520839 -0.13712175 0
1.8625739 1.8638573 -0.13627286 0
1.9595379 1.8324295 -0.13642338 0
2.1140001 1.806 -0.133 0
2.2260001 1.813 -0.13699999 0
2.4936671 1.8415253 -0.14701369 0
-1.9069999 1.957 -0.127 0
-1.8763041 1.9257195 -0.1277601 0
-1.6397154 1.9309368 -0.12651807 0
-1.5574831 1.9509553 -0.12673749 0
-1.362318 1.9400589 -0.12702543 0
-1.2674999 1.9435 -0.12800001 0
-1.1410217 1.9405798 -0.12843058 0
-1.0316422 1.9595723 -0.13009372 0
-0.9531697 1.9177065 -0.13130239 0
-0.26333171 1.9555122 -0.1348163 0
-0.16907659 1.9381253 -0.1350601 0
-0.055559237 1.9479026 -0.13368537 0
0.057112545 1.934124 -0.13443384 0
0.15314485 1.9432837 -0.13324928 0
0.25219148 1.953531 -0.13290338 0
0.35217699 1.9626805 -0.13403994 0
0.44868487 1.9518366 -0.134838 0
0.55337876 1.9406973 -0.13509695 0
0.65254486 1.9633086 -0.13397932 0
0.76350689 1.9555397 -0.13410559 0
0.85811281 1.9474792 -0.13518661 0
0.92381024 1.9397341 -0.1357953 0
1.0381517 1.9508352 -0.13515978 0
1.1622438 1.9656153 -0.1341904 0
1.2532318 1.9459536 -0.1352268 0
1.326809 1.9585176 -0.1345396 0
1.4498613 1.9432015 -0.13597998 0
1.5383281 1.937609 -0.13617805 0
1.6506233 1.9416436 -0.13608676 0
1.7609615 1.9342959 -0.13603127 0
1.8997588 1.9586431 -0.13342454 0
1.914 1.973 -0.133 0
2.029 1.906 -0.134 0
-1.1589962 2.0645292 -0.12749378 0
-1.0648987 2.0419874 -0.12837946 0
-0.98015958 2.0280235 -0.12941915 0
-0.30281389 2.0310051 -0.13317135 0
-0.24782777 2.0591388 -0.13358006 0
-0.15429543 2.0487432 -0.1329647 0
-0.038289357 2.0712733 -0.1304456 0
0.049714174 2.0474007 -0.1314809 0
0.15352567 2.0474176 -0.1309531 0
0.25641245 2.060863 -0.13109133 0
0.35924911 2.0554361 -0.13256514 0
0.45112553 2.0422249 -0.13288318 0
0.5515734 2.0408111 -0.13337576 0
0.65846211 2.0475032 -0.13269125 0
0.75511444 2.051199 -0.13191871 0
0.8544997 2.0412672 -0.13163817 0
0.95685583 2.0371947 -0.13333194 0
1.0461166 2.0435147 -0.13356479 0
1.1485 2.0355 -0.133 0
1.2526834 2.0354621 -0.13350886 0
1.3531157 2.0275505 -0.13362209 0
1.4910001 2.0079999 -0.13600001 0
1.7295295 2.0585508 -0.13356838 0
1.8593538 2.010855 -0.13323754 0
-0.3150852 2.1203403 -0.13189514 0
-0.23382552 2.1463223 -0.13193816 0
-0.13741474 2.159543 -0.13091791 0
-0.04034723 2.156528 -0.12853472 0
0.049221803 2.1649723 -0.1295791 0
0.15802126 2.1572797 -0.12845571 0
0.24375053 2.1657043 -0.12896565 0
0.34998187 2.1388288 -0.13097143 0
0.44781294 2.14382 -0.13107401 0
0.55460858 2.1305051 -0.13182542 0
0.65258783 2.148562 -0.13147338 0
0.76476562 2.1492848 -0.13015707 0
0.84609896 2.1476703 -0.12895149 0
0.95684004 2.1363575 -0.12885973 0
1.0503776 2.1448548 -0.13236038 0
1.1355692 2.1620867 -0.130825 0
1.2648966 2.1518741 -0.13242024 0
1.3780208 2.1059768 -0.13329935 0
1.4246943 2.1723022 -0.13273247 0
-0.33349216 2.2543428 -0.1299808 0
-0.24449061 2.2361865 -0.13032578 0
-0.14319769 2.2495518 -0.1294015 0
-0.041999999 2.2249999 -0.127 0
0.051192757 2.2426829 -0.12800793 0
0.15187959 2.263459 -0.12631017 0
0.25070637 2.2739072 -0.12674487 0
0.33785906 2.2452149 -0.1288 0
0.44702968 2.2228124 -0.13007466 0
0.55183983 2.2484365 -0.12930796 0
0.64086223 2.2391372 -0.12989923 0
0.73951995 2.2494769 -0.12855271 0
0.86102647 2.2445614 -0.12742022 0
1.0720546 2.2423329 -0.13187814 0
1.1569999 2.2479999 -0.12800001 0
1.2024584 2.2678895 -0.12907602 0
1.3290347 2.2513988 -0.13147239 0
1.478184 2.2483139 -0.13208279 0
-0.35189909 2.3883455 -0.1280665 0
-0.25515571 2.3260512 -0.12871341 0
-0.14898065 2.3395605 -0.12788507 0
0.061261754 2.3525913 -0.12786645 0
0.26489398 2.3317051 -0.12606543 0
0.35692969 2.3496993 -0.12689108 0
0.4620944 2.346674 -0.12840019 0
0.54809207 2.3375847 -0.12853663 0
0.64655167 2.3509953 -0.12774085 0
0.73976576 2.3499708 -0.12791851 0
0.82741284 2.3264403 -0.12617172 0
0.92360127 2.383296 -0.12508279 0
1.0908093 2.3133378 -0.1278581 0
1.1350636 2.3629649 -0.13118982 0
1.229 2.319 -0.12800001 0
1.3609999 2.3010001 -0.131 0
-0.3641704 2.4776807 -0.12679027 0
-0.26582083 2.4159155 -0.12710103 0
-0.14611502 2.4526374 -0.12601136 0
0.072619669 2.4658604 -0.1259596 0
0.4395943 2.4152858 -0.12728217 0
0.54366666 2.4443333 -0.12666668 0
0.65316844 2.4658449 -0.12532873 0
0.74024761 2.4608767 -0.12633793 0
0.83278245 2.4254277 -0.12587951 0
-0.33362451 2.5576417 -0.12500645 0
-0.25142103 2.5484695 -0.1246123 0
-0.16325864 2.5647316 -0.12409095 0
0.046706766 2.5777292 -0.1234985 0
0.10378139 2.5348494 -0.12518948 0
0.64300001 2.5090001 -0.125 0
-0.36823764 2.6601169 -0.12374596 0
-0.26100001 2.638 -0.123 0
-0.16749999 2.6294999 -0.123 0
0.046999998 2.605 -0.123 0
0.107 2.6029999 -0.124 0
4.849 2.6440001 -0.15099999 0
4.9289179 2.6872852 -0.15118225 0
5.0487947 2.7522128 -0.15145563 0
5.1686716 2.8171403 -0.151729 0
5.2485895 2.8604255 -0.15191126 0
5.3285074 2.9037106 -0.15209351 0
5.4483843 2.9686382 -0.15236691 0
5.5682616 3.0335658 -0.15264027 0
5.6481795 3.0768509 -0.15282252 0
5.7259998 3.119 -0.153 0
-2.471 3.2839999 -0.107 0
-2.4690001 3.4530001 -0.108 0
-2.5187337 3.526659 -0.1051201 0
-2.5684674 3.6003182 -0.1022402 0
-0.25799999 3.7409999 -0.104 0
-1.804 -8.1780005 -0.003 0
3.0584998 -0.83700001 -0.0020000001 0
3.619 -0.85799998 -0.0049999999 0
3.7279999 -0.81699997 -0.034000002 0
3.5653334 -0.73983866 -0.016973864 0
3.6522651 -0.75729835 -0.028237963 0
3.4480147 -0.68170977 -0.0064896988 0
3.6559999 -0.69300002 -0.0099999998 0
4.023613 -0.20163095 -0.037157938 0
4.1130519 -0.20366785 -0.052342147 0
4.24721 -0.20672321 -0.07511846 0
4.3813682 -0.20977858 -0.097894773 0
3.9519999 -0.2 -0.025000006 0
5.3381414 0.51975477 -0.083396263 0
-2.5268946 3.3541534 -0.095022574 0
-2.638684 3.4944603 -0.071067721 0
-2.5827892 3.4243069 -0.083045147 0
-2.6945786 3.5646138 -0.059090298 0
-2.7504733 3.6347673 -0.047112875 0
-2.618201 3.6739771 -0.099360302 0
-2.8343153 3.7399974 -0.029146738 0
-2.6679349 3.7476361 -0.096480399 0
-2.9181571 3.8452277 -0.011180602 0
-2.7425354 3.8581247 -0.092160545 0
-0.26340279 3.8294978 -0.09427496 0
-2.8171358 3.9686131 -0.087840691 0
-0.26880559 3.9179957 -0.084549919 0
-2.8668694 4.0422721 -0.084960788 0
-0.2769098 4.0507426 -0.069962353 0
-2.9173017 4.1169653 -0.082040444 0
-0.285014 4.1834893 -0.05537479 0
-0.29041681 4.271987 -0.045649748 0
-0.29581961 4.3604851 -0.03592471 0
-0.30122241 4.4489832 -0.026199669 0
-0.30731261 4.5487404 -0.015237313 0
1 5.2379999 -0.0049999999 0
-1.2408172 7.6498089 -0.021678559 0
0.63312137 -10.544742 0.0067337826 0
0.62448573 -10.411968 0.02693513 0
0.61872858 -10.323452 0.040402696 0
0.61297148 -10.234937 0.053870261 0
0.60721433 -10.14642 0.067337826 0
0.60145724 -10.057905 0.080805391 0
0.59570009 -9.969389 0.094272956 0
-1.775013 -8.046422 0.01390912 0
-1.7460259 -7.9148431 0.030818241 0
-1.7267011 -7.8271241 0.04209099 0
-1.7073765 -7.7394052 0.053363737 0
-1.6880518 -7.6516857 0.064636484 0
-1.668727 -7.5639668 0.075909227 0
-1.6494024 -7.4762478 0.08718197 0
-1.4598427 -7.4584022 0.05813491 0
-1.6300776 -7.3885288 0.098454714 0
-1.4383705 -7.3396077 0.076539636 0
-1.4240556 -7.2604117 0.088809446 0
2.0501237 -1.5375825 0.019895907 0
1.881 -1.418 0.030999999 0
1.9346193 -1.4559126 0.027479544 0
2.0600209 -1.4072846 0.025843348 0
2.1688368 -1.4525474 0.017307224 0
1.9528576 -1.3391652 0.034150571 0
2.061764 -1.3398492 0.024316065 0
2.1288819 -1.3809247 0.019658033 0
2.2622476 -1.3259716 0.018897444 0
2.3645 -1.3464999 0.0125 0
2.858 -1.3150001 -2.0191645e-13 0
1.8789999 -1.228 0.037 0
1.961087 -1.2782362 0.031303115 0
2.05299 -1.2118866 0.036589775 0
2.1642253 -1.251834 0.030899996 0
2.2506258 -1.2547624 0.028808514 0
2.3457651 -1.2666565 0.020170366 0
2.4454999 -1.2490001 0.0099999998 0
2.595 -1.215 0.0089999996 0
2.6531816 -1.2217689 0.019080982 0
2.7620363 -1.2443538 0.0078161964 0
2.9865212 -1.2075092 0.013572932 0
3.0687606 -1.2427546 0.0072864662 0
3.151 -1.278 0.001 0
1.984 -1.1470001 0.050999999 0
2.0310645 -1.1434059 0.054021284 0
2.1230597 -1.1486261 0.04618147 0
2.2460587 -1.1571239 0.03446373 0
2.3483889 -1.1473013 0.026678665 0
2.4462066 -1.1379993 0.032023378 0
2.5364625 -1.1467347 0.026387405 0
2.6680069 -1.1745756 0.016315531 0
2.7294016 -1.1138864 0.019216163 0
2.8220427 -1.1370182 0.026145864 0
2.9042821 -1.1722637 0.019859398 0
1.9913018 -1.033591 0.064618856 0
2.0696347 -1.0518378 0.056287903 0
2.1517277 -1.0471417 0.052472539 0
2.2494533 -1.0491718 0.052116863 0
2.357235 -1.0600617 0.047686003 0
2.4547801 -1.044425 0.038323857 0
2.5680065 -1.0444901 0.035297822 0
2.6535249 -1.0452935 0.019108672 0
2.7582631 -1.0481417 0.011703922 0
2.8429999 -1.0420001 0.0024999999 0
2.9946613 -1.0043942 0.024535259 0
3.0801077 -1.0335962 0.017023508 0
3.1655538 -1.062798 0.0095117539 0
3.2509999 -1.092 0.0020000001 0
1.887 -0.97600001 0.077 0
1.9160187 -0.99202293 0.073555328 0
2.0243626 -0.93553776 0.077661969 0
2.1389191 -0.95166749 0.069808163 0
2.2560534 -0.95677447 0.061332174 0
2.3542435 -0.93136847 0.056365527 0
2.4407377 -0.96587086 0.048686974 0
2.5487394 -0.9765355 0.033056837 0
2.6431623 -0.93815792 0.029861338 0
2.7565219 -0.93389469 0.031543758 0
2.834729 -0.93950331 0.029233439 0
2.9217384 -0.9483974 0.012015671 0
3.5650001 -0.90499997 0.0080000004 0
2.0650001 -0.89999998 0.079000004 0
2.1637535 -0.85801959 0.07854943 0
2.2676322 -0.8313449 0.076379739 0
2.3543844 -0.87101483 0.063845374 0
2.4611545 -0.84974921 0.063164227 0
2.5391114 -0.86030626 0.062204242 0
2.6502006 -0.8523525 0.051188868 0
2.7713726 -0.85944623 0.025430081 0
2.85601 -0.85118979 0.019600781 0
2.9404168 -0.84082824 0.012743261 0
3.2174652 -0.81648463 0.028395243 0
3.3477907 -0.84967792 0.020747028 0
3.4611621 -0.84990633 0.013043176 0
3.545686 -0.82368737 0.0091501996 0
2.3687692 -0.79049033 0.079558775 0
2.4370835 -0.76714545 0.0842463 0
2.5321445 -0.74252826 0.076678254 0
2.6598701 -0.72652531 0.068331458 0
2.7608724 -0.74939144 0.050662354 0
2.8636618 -0.73745751 0.044479229 0
2.9470382 -0.75903094 0.034735158 0
3.0478818 -0.74297541 0.03972844 0
3.1586246 -0.75822228 0.036582351 0
3.2699623 -0.74541074 0.028474262 0
3.3570988 -0.76585788 0.019816035 0
3.4442501 -0.77098656 0.010242945 0
2.6103935 -0.68194568 0.084667966 0
2.72768 -0.66290241 0.076645903 0
2.8215661 -0.63410538 0.072459236 0
2.9454548 -0.65537596 0.058110453 0
3.0437422 -0.63508058 0.050610732 0
3.1306741 -0.65254027 0.039346635 0
3.2209427 -0.65152121 0.035500243 0
3.338172 -0.63528121 0.021121603 0
3.4846466 -0.6616255 0.014134265 0
3.5703232 -0.67731273 0.0020671329 0
2.9475291 -0.57483393 0.078845687 0
3.0316498 -0.55231494 0.063929088 0
3.139349 -0.57535702 0.047183156 0
3.2484214 -0.58843893 0.021829337 0
7.2856941 0.19722866 0.070759237 0
7.3741298 0.19381911 0.058506157 0
7.4625649 0.19040956 0.046253078 0
7.5510001 0.18700001 0.034000002 0
7.1530414 0.20234299 0.089138851 0
9.3136654 1.7450085 0.090098843 0
9.4465408 1.7671303 0.075061776 0
9.5794163 1.7892522 0.060024712 0
9.6680002 1.804 0.050000001 0
-4.4983792 3.7620506 0.094112575 0
-4.6305566 3.8817506 0.080366127 0
-4.5644679 3.8219006 0.087239355 0
-4.6966453 3.9416003 0.0734929 0
-3.0299466 3.9855347 0.012774244 0
-2.974052 3.9153812 0.00079682469 0
-4.8288226 4.0613003 0.059746452 0
-4.7627339 4.0014505 0.066619679 0
-3.059 4.0219998 0.019000001 0
-4.961 4.1810002 0.046 0
-4.8949113 4.1211505 0.052873224 0
0.035224587 4.2725286 0.070742145 0
0.042086877 4.349793 0.062863216 0
0.052043438 4.4618964 0.051431607 0
0.61183661 4.4401364 0.094163381 0
0.061999999 4.5739999 0.039999999 0
0.62662745 4.5221024 0.07937254 0
0.64881372 4.645051 0.057186268 0
0.87512094 4.6391706 0.045148298 0
0.671 4.7680001 0.035 0
0.89477873 4.7334352 0.037254225 0
0.91231561 4.8175292 0.030211855 0
0.93862092 4.9436703 0.019648295 0
0.96492624 5.0698118 0.0090847407 0
0.98246312 5.1539059 0.0020423704 0
2.8911242 6.0973172 0.092921481 0
2.9309368 6.1777644 0.078767903 0
2.9707494 6.2582116 0.064614318 0
3.0105622 6.3386583 0.050460741 0
3.070281 6.4593291 0.029230371 0
3.1300001 6.5799999 0.0080000004 0
-1.1025374 7.0144691 0.088571504 0
-1.1306233 7.1435127 0.066178709 0
-1.1581718 7.2700868 0.04421439 0
-1.1765374 7.3544693 0.029571511 0
-1.194903 7.4388518 0.014928635 0
-1.2132688 7.5232344 0.00028575584 0
0.58994293 -9.8808727 0.10774052 0
0.58209288 -9.7601786 0.12610404 0
-1.6107529 -7.3008099 0.10972746 0
-1.6 -7.2519999 0.116 0
-1.4097408 -7.1812158 0.10107927 0
-1.395426 -7.1020198 0.11334908 0
-1.39 -7.072 0.118 0
2.3929999 -0.77899998 0.104 0
6.7380419 0.21834299 0.14663884 0
6.8435183 0.21427642 0.13202462 0
6.9319534 0.21086687 0.11977154 0
7.0203886 0.2074573 0.10751846 0
8.7655811 1.6537606 0.15212356 0
8.8707457 1.6712689 0.1402224 0
8.9593296 1.6860169 0.13019769 0
9.0479136 1.7007648 0.12017298 0
9.1364975 1.7155126 0.11014827 0
9.2250814 1.7302606 0.10012355 0
-4.3511009 3.6286755 0.10942951 0
-4.4322901 3.7022007 0.1009858 0
0.57862747 4.2561026 0.12737253 0
0.59704578 4.3581705 0.10895422 0
2.694 5.6989999 0.163 0
2.7318735 5.7755289 0.1495358 0
2.7716861 5.8559756 0.13538222 0
2.8114989 5.9364228 0.12122864 0
2.8513114 6.01687 0.10707507 0
