# .PCD v0.7 - Point Cloud Data file format
VERSION 0.7
FIELDS x y z intensity
SIZE 4 4 4 4
TYPE F F F F
COUNT 1 1 1 1
WIDTH 83
HEIGHT 1
VIEWPOINT 0 0 0 1 0 0 0
POINTS 83
DATA ascii
-14.223073 8.2480783 2.8945553 9
-14.214772 8.2406969 4.3576255 11
-11.225742 22.708281 5.2267976 9
-11.38363 19.253622 11.907899 18
-11.328229 19.313026 12.579017 19
-11.093583 22.500998 5.4348416 10
-3.6406198 23.931244 12.359831 18
-2.9103479 23.720646 25.073359 28
-2.4325144 -1.062284 0.30935764 7
-2.3775024 -1.127441 0.018237159 3
-2.1381812 -1.6953083 0.33656004 7
-2.12499 -1.6643062 0.40957206 8
-1.6579943 -1.5510838 -0.034654625 3
-1.6541899 -1.5791806 0.13732801 5
-1.6995176 3.782578 0.34981748 6
-1.758552 24.310762 24.906446 27
-1.5291601 -1.5924957 0.17325217 6
-1.4648477 23.733566 25.179958 28
-1.2125512 3.8010011 0.28290248 5
-1.2823472 -13.596036 14.645741 28
-1.1206146 -1.4672321 0.27910885 8
-0.97412014 -1.4645211 0.13905658 6
-0.8515799 -1.4097241 0.44303182 11.5
-0.79806221 -1.4548582 0.088013172 5
-0.63169575 -1.3750885 0.28399464 9
-0.67419875 3.9898024 0.2597338 5
-0.60587126 -1.3430972 0.66199321 16
-0.44378871 -1.3433709 0.20199114 7.5
-0.47378209 -1.3272834 0.60398847 15
-0.35194728 -1.406544 0.052012369 4
-0.37926218 -1.3294463 0.25999671 9
-0.39767751 4.1676002 0.43243867 6
-0.07554426 -1.2489784 0.49374411 14.666667
0.030399637 -1.2316519 0.58212912 17
0.15586694 -1.1976488 0.54220718 16
0.13102248 -1.1734713 1.0231794 25
0.29442236 -1.1907631 0.12332728 6
0.27956617 -1.1871845 0.31081203 11
0.31363964 -1.1660538 0.5303368 16
0.29587519 9.9081202 3.7224302 14
0.48035938 -1.1234784 0.31150141 11
0.58784217 -1.0751989 0.47761452 14
0.51716858 9.9692287 3.501102 13
0.63490629 -1.1218444 0.11219361 6
0.66024339 -1.0844938 0.31671292 10.333333
0.79040331 4.2815332 0.31663144 5
0.88139045 -1.0768214 0.079021417 5
0.8874591 -1.0629841 0.26902613 9
0.98537117 -1.0221527 0.537157 14
0.93090069 -1.0231948 0.68207514 17
1.1045737 -1.0271516 0.11934203 5.5
1.1070246 4.2607546 0.31576857 5
1.1054991 -1.0153316 0.47783959 12.5
1.4278191 -0.93953842 0.63182878 14
2.7376697 5.1745052 0.40175214 5
2.7443252 5.2749195 0.56355202 6
2.9486032 5.2384496 0.24421598 4
2.9150059 4.4634924 1.0337843 9
3.1987514 3.8945978 0.48069188 6
3.0879323 21.710897 11.122397 17
3.0444839 -12.225295 11.394198 25
3.2011142 3.8973117 0.32569173 5
3.4269435 4.0197992 1.9830278 14
3.4209287 21.577349 11.219875 18
3.8916092 1.2644261 0.44740745 6.5
3.8660901 1.2923634 0.77032954 9
3.8927677 1.4295379 0.66722023 8
3.8830032 1.2836032 0.88437128 10
3.9888349 21.580328 7.803793 14
4.0094919 1.7107741 0.8380987 9
4.0049539 1.715139 1.0710852 10
4.135251 21.731663 7.0749297 13
4.0423322 -12.04056 11.558579 25
6.9386134 -12.255948 14.34521 27
7.1853108 -12.017475 14.956581 28
9.0822725 -11.783416 16.012806 28
20.886099 0.24388625 2.8427894 7
23.092875 12.173218 2.4646399 6
32.030811 19.345882 13.432648 14
32.727844 18.489548 12.904194 13
34.079021 16.716305 11.755101 12
34.694519 15.928416 12.924234 13
34.665485 15.974085 15.180131 15
