# .PCD v0.7 - Point Cloud Data file format
VERSION 0.7
FIELDS x y z intensity
SIZE 4 4 4 4
TYPE F F F F
COUNT 1 1 1 1
WIDTH 1135
HEIGHT 1
VIEWPOINT 0 0 0 1 0 0 0
POINTS 1135
DATA ascii
-3.335 -2.2320001 -0.207 0
-3.2996795 -2.2090728 -0.20592968 0
-3.2257197 -2.1610637 -0.20368847 0
-3.1517596 -2.1130548 -0.20144726 0
-3.908 -2.0090001 -0.229 0
-3.86976 -1.9895176 -0.22804853 0
-3.7488959 -1.9279399 -0.22504124 0
-3.8738546 -1.8798509 -0.226695 0
-3.7711203 -1.830364 -0.22534126 0
-3.628032 -1.8663623 -0.22203398 0
-3.5474558 -1.8253106 -0.22002912 0
-3.6517375 -1.7728574 -0.22376813 0
-3.5323544 -1.7153509 -0.222195 0
-3.4668798 -1.7842588 -0.21802427 0
-3.3460159 -1.722681 -0.21501699 0
-3.4527659 -1.6770132 -0.22114626 0
-3.3731773 -1.6386755 -0.2200975 0
-3.2593703 -1.6307206 -0.21552923 0
-3.1445758 -1.6200517 -0.21000485 0
-3.214 -1.562 -0.21799999 0
-3.0639999 -1.579 -0.208 0
-2.1459999 -0.99299997 -0.20200001 0
-2.085161 -0.96493387 -0.20043109 0
-2.6797624 -0.7821846 -0.21074431 0
-2.5764666 -0.75332808 -0.20921211 0
-2.4473791 -0.71726656 -0.20729734 0
-2.1679945 -0.7079004 -0.2017234 0
-2.3182917 -0.68120509 -0.20538257 0
-2.2326167 -0.63558203 -0.20455302 0
-2.1461749 -0.63312304 -0.20282954 0
-2.0610535 -0.6413914 -0.20097199 0
-2.219111 -0.55501938 -0.20488212 0
-2.1379979 -0.56153089 -0.20373601 0
-2.0525434 -0.5391283 -0.20252866 0
-1.9784236 -0.56529665 -0.20034575 0
-1.9513886 -0.48789915 -0.20222765 0
-1.8661108 -0.46651933 -0.20138212 0
-1.7808331 -0.4451395 -0.20053659 0
-3.2452769 -0.24521539 -0.2230154 0
-3.1434922 -0.23893847 -0.22313847 0
-3.0544305 -0.23344615 -0.22324616 0
-2.9653692 -0.22795385 -0.22335385 0
-2.8763075 -0.22246154 -0.22346154 0
-2.787246 -0.21696922 -0.22356924 0
-2.6536536 -0.20873076 -0.22373077 0
-2.5200615 -0.20049231 -0.22389232 0
-2.431 -0.19499999 -0.22400001 0
-3.2079999 -0.090000004 -0.222 0
-3.1500301 -0.089146458 -0.22192886 0
-3.0164366 -0.087179437 -0.22176495 0
-2.9273741 -0.08586809 -0.22165568 0
-2.8383117 -0.084556744 -0.2215464 0
-2.7492495 -0.083245397 -0.22143711 0
-2.660187 -0.08193405 -0.22132784 0
-2.5711246 -0.080622695 -0.22121856 0
-2.4820623 -0.079311348 -0.22110929 0
-2.3929999 -0.078000002 -0.221 0
-2.6547277 0.019435391 -0.22008972 0
-2.5212097 0.06202051 -0.21968549 0
-2.439105 0.061510257 -0.21959275 0
-2.3569999 0.061000001 -0.21950001 0
-3.1481841 0.13339546 -0.22194743 0
-3.0483272 0.12781416 -0.2214621 0
-2.9592862 0.12283739 -0.22102934 0
-2.8702455 0.11786062 -0.22059658 0
-2.7812045 0.11288385 -0.22016381 0
-2.6387565 0.12520561 -0.21875733 0
-2.5535548 0.14448881 -0.21799999 0
-2.4407773 0.14374441 -0.21799999 0
-2.3150001 0.16949999 -0.2175 0
-4.803 0.229 -0.233 0
-4.7454867 0.22786838 -0.23266716 0
-4.6558771 0.22610523 -0.23214859 0
-4.5662675 0.22434208 -0.23163001 0
-4.4766579 0.22257891 -0.23111144 0
-4.3870482 0.22081576 -0.23059288 0
-4.252634 0.21817103 -0.22981501 0
-4.1182194 0.2155263 -0.22903715 0
-4.0286098 0.21376315 -0.22851858 0
-3.9389999 0.212 -0.228 0
-3.01 0.27000001 -0.214 0
-2.9560513 0.26436132 -0.2142286 0
-2.8252411 0.25068903 -0.21478288 0
-2.7380342 0.2415742 -0.2151524 0
-2.6508274 0.23245937 -0.21552192 0
-2.5495794 0.2516208 -0.21596383 0
-2.4550796 0.23645416 -0.21613048 0
-2.3742898 0.22947708 -0.21631524 0
-2.2850001 0.249 -0.21600001 0
-2.5580001 0.329 -0.21600001 0
-2.4552584 0.34279773 -0.21604125 0
-2.355448 0.34152269 -0.21653095 0
-2.276 0.33050001 -0.21700001 0
-2.1549659 0.3904494 -0.204 0
-2.9130001 0.472 -0.211 0
-2.8736436 0.46494555 -0.21143316 0
-2.7457914 0.44202864 -0.21284035 0
-2.6179392 0.41911173 -0.21424752 0
-2.5327044 0.40383381 -0.21518564 0
-2.3567326 0.45337796 -0.20326853 0
-2.2587166 0.45079762 -0.20189936 0
-2.1492844 0.43348658 -0.20022832 0
-2.8233025 0.59408468 -0.21291679 0
-2.7352688 0.57463086 -0.21114826 0
-2.6472352 0.55517697 -0.20937973 0
-2.5592017 0.53572309 -0.20761119 0
-2.471168 0.51626927 -0.20584266 0
-2.2782094 0.58195776 -0.2014569 0
-2.1648724 0.5563339 -0.20032015 0
-2.919168 0.61526924 -0.21484266 0
-2.6457713 0.68650198 -0.21220058 0
-2.514617 0.65100157 -0.20896046 0
-2.4271808 0.62733465 -0.20680039 0
-2.3397448 0.60366774 -0.2046403 0
-2.2660286 0.65580422 -0.20092969 0
-2.921 0.76099998 -0.219 0
-2.8643618 0.74566936 -0.21760076 0
-2.7769256 0.72200239 -0.21544069 0
-1.4349999 2.3540001 -0.205 0
-1.4820292 2.4300113 -0.20478767 0
-1.5525731 2.5440278 -0.2044692 0
-1.623117 2.6580446 -0.20415071 0
-1.6701462 2.7340558 -0.20393839 0
-1.7406901 2.8480723 -0.2036199 0
-1.811234 2.9620891 -0.20330141 0
-1.8681316 3.05405 -0.20304455 0
-2.4530001 3.7639999 -0.20900001 0
1.102 -4.71 -0.104 0
0.75097978 -4.6360369 -0.11251388 0
1.0888143 -4.6553974 -0.10476072 0
0.73133969 -4.518815 -0.11452428 0
1.0684122 -4.5709119 -0.10593776 0
0.71671975 -4.4315557 -0.11602081 0
1.0378091 -4.4441843 -0.10770332 0
0.7020998 -4.3442965 -0.11751734 0
1.0072061 -4.3174562 -0.10946888 0
0.68747985 -4.2570372 -0.11901388 0
0.98680407 -4.2329707 -0.11064592 0
0.67285991 -4.1697779 -0.12051041 0
0.96640199 -4.1484857 -0.11182296 0
0.6582399 -4.0825186 -0.12200694 0
0.94599998 -4.0640001 -0.113 0
0.63630998 -3.9516296 -0.12425174 0
-1.421 -3.105 -0.176 0
-1.346 -3.1289999 -0.176 0
-1.1900001 -3.161 -0.175 0
-0.78200001 -3.1270001 -0.169 0
-0.69999999 -3.1040001 -0.168 0
-0.44100001 -3.115 -0.15899999 0
-0.37392765 -3.1695504 -0.15800001 0
-1.3535472 -3.0504413 -0.17522238 0
-1.1610265 -3.0801237 -0.17413655 0
-0.76574153 -3.056793 -0.16836655 0
-0.68816614 -3.0461669 -0.16752282 0
-0.53600001 -3.017 -0.163 0
-0.43198469 -3.0543637 -0.15899999 0
-0.35956979 -3.0552907 -0.15800001 0
-1.3607535 -2.9677377 -0.17475781 0
-1.2724879 -2.9683769 -0.17383209 0
-1.1155221 -2.9531031 -0.17278045 0
-0.90700001 -2.9519999 -0.167 0
-0.74606419 -2.9718225 -0.1675999 0
-0.64164078 -2.9148335 -0.16473955 0
-0.54629403 -2.9469273 -0.16092269 0
-0.44150209 -2.9501266 -0.15966164 0
-0.32515895 -2.93765 -0.15802242 0
-1.3243365 -2.8847666 -0.17400694 0
-1.2614857 -2.8441877 -0.17299208 0
-1.1976159 -2.8047826 -0.17162406 0
-1.0390089 -2.8160412 -0.16971219 0
-0.87543231 -2.85237 -0.16645259 0
-0.71654809 -2.844367 -0.16644993 0
-0.65499526 -2.8576767 -0.16466644 0
-0.54941136 -2.8402708 -0.16179965 0
-0.44392353 -2.8704982 -0.15987545 0
-0.34774134 -2.8499653 -0.15851682 0
-0.10703272 -2.8447704 -0.155 0
-1.2515024 -2.7188251 -0.1725052 0
-1.1601799 -2.7229855 -0.17052005 0
-1.0453408 -2.7327011 -0.16926014 0
-0.98146111 -2.7305906 -0.16783817 0
-0.83685988 -2.7306328 -0.1657837 0
-0.72714448 -2.761678 -0.16581492 0
-0.65637642 -2.7397559 -0.16498938 0
-0.53308332 -2.7548316 -0.16168356 0
-0.46037638 -2.7457747 -0.16072986 0
-0.33762625 -2.7650907 -0.15867788 0
-0.10737696 -2.7686937 -0.155 0
0.094999999 -2.7160001 -0.15099999 0
-1.8875959 -2.6646571 -0.16213469 0
-1.2150853 -2.6358542 -0.17175433 0
-1.1227438 -2.6411884 -0.16941604 0
-1.0166929 -2.6474609 -0.16847761 0
-0.95131499 -2.6449316 -0.16765435 0
-0.81114495 -2.6494746 -0.16533777 0
-0.64953548 -2.644474 -0.16456214 0
-0.53097314 -2.6494069 -0.16150434 0
-0.43535158 -2.6423721 -0.16018353 0
-0.32995915 -2.651757 -0.15833335 0
-0.29289907 -2.6538086 -0.15975842 0
-0.10784424 -2.6654234 -0.155 0
0.094229415 -2.6605182 -0.15061471 0
0.15867592 -2.625628 -0.14944598 0
0.45699999 -2.6300001 -0.139 0
1.3329999 -2.6429999 -0.115 0
-2.1719999 -2.5139999 -0.182 0
-1.8548723 -2.5316772 -0.15984876 0
-1.7791533 -2.5064514 -0.16441551 0
-1.1786683 -2.5528834 -0.17100346 0
-1.085308 -2.5593913 -0.16831203 0
-0.95754814 -2.5490749 -0.16798253 0
-0.78542995 -2.5683165 -0.16489185 0
-0.6411137 -2.5512154 -0.16410993 0
-0.56699944 -2.5637631 -0.16311991 0
-0.47393972 -2.5624924 -0.16073161 0
-0.37850398 -2.5405169 -0.15921886 0
-0.29185659 -2.5164301 -0.15800001 0
0.093000002 -2.572 -0.15000001 0
0.15042707 -2.5627959 -0.14934799 0
0.25187758 -2.5695589 -0.14646624 0
0.33197173 -2.5363879 -0.14480111 0
0.44606513 -2.5612257 -0.1397194 0
0.55992937 -2.5201199 -0.13723007 0
0.60944396 -2.5429041 -0.139 0
1.2991993 -2.5737331 -0.11676352 0
-2.1143961 -2.4454286 -0.16922036 0
-1.905 -2.4349999 -0.16 0
-1.8086004 -2.4306335 -0.15968345 0
-1.7281343 -2.4320199 -0.16548857 0
-1.1422511 -2.4699125 -0.17025261 0
-1.0478719 -2.4775941 -0.16720803 0
-0.93584746 -2.4404459 -0.16746049 0
-0.89102274 -2.4736133 -0.16728672 0
-0.74685752 -2.446579 -0.16422296 0
-0.63429904 -2.4523578 -0.16359481 0
-0.56430328 -2.4630451 -0.16308463 0
-0.45911556 -2.4475894 -0.16062428 0
-0.36612797 -2.4517627 -0.15916415 0
-0.28057104 -2.42662 -0.15800001 0
0.15463912 -2.4890854 -0.149 0
0.2 -2.4300001 -0.148 0
0.32721892 -2.4489596 -0.14019519 0
0.45376301 -2.456845 -0.14189388 0
0.56625336 -2.4419174 -0.13544337 0
0.63191384 -2.4436572 -0.13602839 0
1.2301847 -2.4391441 -0.11759771 0
1.3322359 -2.4441578 -0.10108953 0
1.4432192 -2.4316115 -0.10142045 0
-2.0567925 -2.3768573 -0.15644071 0
-1.9414212 -2.3329587 -0.15600494 0
-1.8375771 -2.3461571 -0.16186886 0
-1.7537559 -2.3591187 -0.16116306 0
-1.6771151 -2.3575885 -0.16656163 0
-1.1058341 -2.3869417 -0.16950174 0
-1.0399265 -2.349884 -0.16742745 0
-0.94079995 -2.3303413 -0.16628683 0
-0.85986906 -2.3360832 -0.16667397 0
-0.61727846 -2.3567729 -0.16375171 0
-0.5251593 -2.3445623 -0.16264708 0
-0.43335176 -2.3161941 -0.1607853 0
-0.35375199 -2.3630085 -0.15910943 0
-0.26928553 -2.3368101 -0.15800001 0
0.29778948 -2.3839488 -0.11673207 0
0.32881588 -2.3631041 -0.14511737 0
0.43801293 -2.3603013 -0.13741331 0
0.56086749 -2.3578033 -0.13164844 0
0.65429026 -2.3413908 -0.13166791 0
0.72476065 -2.3305542 -0.13442078 0
0.88107902 -2.358815 -0.10299633 0
0.92188859 -2.3010643 -0.10286798 0
1.0453116 -2.3409646 -0.12939169 0
1.1787498 -2.3362918 -0.12492611 0
1.2401501 -2.333864 -0.12182534 0
1.3537883 -2.3518777 -0.11347277 0
1.4512769 -2.3649909 -0.10735937 0
-1.9232924 -2.2248573 -0.14394072 0
-1.8488359 -2.2509668 -0.14727217 0
-1.7572618 -2.2403257 -0.16409509 0
-1.6563581 -2.2622833 -0.1647999 0
-1.5750767 -2.2087257 -0.16870776 0
-1.26472 -2.2616603 -0.16910094 0
-1.033 -2.221 -0.168 0
-0.83862555 -2.2393525 -0.16710666 0
-0.56027043 -2.2510843 -0.16297948 0
-0.44973642 -2.2563372 -0.16155513 0
-0.329584 -2.2518361 -0.15903647 0
-0.25799999 -2.247 -0.15800001 0
0.29084212 -2.2904615 -0.12429905 0
0.37132016 -2.2504306 -0.12964642 0
0.44467378 -2.2518544 -0.12771207 0
0.55751991 -2.2565985 -0.12448025 0
0.64746797 -2.2661817 -0.12831411 0
0.75657731 -2.2447865 -0.13080725 0
0.87049186 -2.2499697 -0.11721608 0
0.96437293 -2.256623 -0.10312056 0
1.0004674 -2.2309468 -0.13058753 0
1.1435996 -2.2548666 -0.12488176 0
1.2457716 -2.2783155 -0.12634161 0
1.3406039 -2.2571607 -0.11961374 0
1.404 -2.2550001 -0.125 0
-1.9220001 -2.1259999 -0.15700001 0
-1.83951 -2.1488986 -0.14120123 0
-1.7382838 -2.1464283 -0.1502687 0
-1.55664 -2.1394343 -0.16769135 0
-1.2098849 -2.1619058 -0.16955163 0
-1.128 -2.1040001 -0.169 0
-0.84473336 -2.1774549 -0.16738243 0
-0.77043831 -2.1309772 -0.16655144 0
-0.53796512 -2.164778 -0.16259922 0
-0.45457423 -2.1535192 -0.16205439 0
-0.37549999 -2.1525002 -0.16 0
0.38100001 -2.152 -0.14399999 0
0.43275356 -2.1639612 -0.14278011 0
0.56160593 -2.1548619 -0.13953899 0
0.67643636 -2.1607437 -0.11624646 0
0.76753443 -2.159771 -0.12911607 0
0.83309239 -2.1693988 -0.13186203 0
0.95024908 -2.167388 -0.12397598 0
1.1347533 -2.1597445 -0.12782259 0
1.2768178 -2.1475627 -0.12231573 0
-3.0408196 -2.0410409 -0.19808546 0
-1.8584349 -2.053354 -0.16025536 0
-1.7292128 -2.0580864 -0.13453111 0
-1.6729612 -2.0779958 -0.16712137 0
-1.5655043 -2.0508611 -0.16781454 0
-1.4762859 -2.0307035 -0.16970751 0
-1.1387299 -2.0628078 -0.16972817 0
-1.0839043 -2.0235479 -0.16935997 0
-0.81279999 -2.0928411 -0.16728683 0
-0.76057947 -2.026773 -0.16677943 0
-0.53565979 -2.0559716 -0.16221896 0
-0.484 -2.0580001 -0.162 0
0.41999999 -2.0869999 -0.14300001 0
0.54472744 -2.0521586 -0.14069028 0
0.66690159 -2.0628855 -0.13755195 0
0.72053909 -2.0684674 -0.12520863 0
0.87582433 -2.079052 -0.13132253 0
0.92507792 -2.0459912 -0.13259792 0
1.0625724 -2.0508673 -0.12992819 0
1.1779391 -2.0003252 -0.13097793 0
1.2304473 -2.0697904 -0.12516341 0
-2.9298799 -1.9690273 -0.19472362 0
-2.8559198 -1.9210182 -0.19248241 0
-2.549 -1.992 -0.18000001 0
-2.4943633 -1.9501941 -0.1800705 0
-1.7745889 -1.9575301 -0.16454935 0
-1.6567675 -1.9564167 -0.16699082 0
-1.5647306 -1.9387479 -0.17031068 0
-1.4239299 -1.9597851 -0.17157739 0
-1.3710001 -1.911 -0.17299999 0
-1.2590472 -1.9575014 -0.17173594 0
-1.1769586 -1.9672475 -0.171078 0
-1.0629716 -1.9399493 -0.17014445 0
-0.72953975 -1.9416363 -0.16663972 0
0.493 -1.976 -0.142 0
0.52999997 -1.928 -0.142 0
0.64609808 -1.9402336 -0.13897744 0
0.77303225 -1.9203025 -0.1358832 0
0.80270964 -1.9977367 -0.13417761 0
0.98799998 -1.936 -0.133 0
1.0585086 -1.9677262 -0.13093664 0
1.1552087 -1.9374008 -0.12892057 0
-2.7449799 -1.8490046 -0.18912059 0
-2.422327 -1.8950748 -0.18016346 0
-2.3502908 -1.8399553 -0.1802564 0
-1.7186917 -1.8936477 -0.16741201 0
-1.6627945 -1.8297651 -0.17027467 0
-1.5540504 -1.8462085 -0.17082873 0
-1.4627718 -1.8522772 -0.17225792 0
-1.3637129 -1.8631914 -0.17219242 0
-1.2538122 -1.8346561 -0.17224413 0
-1.1508836 -1.8577224 -0.1713918 0
-1.0216038 -1.8645871 -0.17048334 0
-0.96336174 -1.8036191 -0.170344 0
-0.71700001 -1.839 -0.167 0
-0.68000001 -1.874 -0.16599999 0
0.59399998 -1.823 -0.141 0
0.6511963 -1.8554076 -0.13969019 0
0.74335486 -1.8428683 -0.1375888 0
1.0682236 -1.855649 -0.1331376 0
-2.2422364 -1.7572763 -0.18039583 0
-1.6263794 -1.7392268 -0.14929862 0
-1.5343046 -1.7389078 -0.17378755 0
-1.4679023 -1.7459538 -0.17389378 0
-1.3244507 -1.7610134 -0.17363706 0
-1.2359213 -1.7320421 -0.17334515 0
-1.1342902 -1.7569817 -0.17261977 0
-1.0484586 -1.7572474 -0.17157799 0
-0.96014547 -1.7525699 -0.17098624 0
0.625 -1.776 -0.141 0
0.71367741 -1.7654341 -0.1392944 0
1.0365366 -1.7687573 -0.13613024 0
1.202 -1.715 -0.132 0
2.349 -1.7180001 -0.127 0
-2.1341817 -1.6745971 -0.18053526 0
-2.0621455 -1.6194777 -0.1806282 0
-1.973 -1.61 -0.1205 0
-1.5416315 -1.6500965 -0.1676133 0
-1.3732754 -1.651534 -0.17516617 0
-1.2432059 -1.6565158 -0.1745806 0
-1.143826 -1.6385243 -0.17361292 0
-1.051362 -1.6483418 -0.17278427 0
-0.94997948 -1.6561047 -0.17182715 0
-0.88300002 -1.6569999 -0.171 0
0.68400002 -1.688 -0.141 0
0.96583533 -1.6529734 -0.13870642 0
1.1531 -1.6466905 -0.11936122 0
2.248013 -1.644325 -0.12833229 0
2.3480759 -1.6605986 -0.1278791 0
-1.9423187 -1.5597832 -0.14574927 0
-1.8661274 -1.536818 -0.15904549 0
-1.622 -1.5930001 -0.177 0
-1.5760789 -1.5469662 -0.17745131 0
-1.4480447 -1.5493735 -0.17765962 0
-1.3518405 -1.5514091 -0.17694886 0
-1.2587464 -1.5545521 -0.17592703 0
-1.1467837 -1.5430776 -0.17543225 0
-1.0559437 -1.5588969 -0.17407323 0
-0.96766663 -1.5430001 -0.17299999 0
0.89513415 -1.5371894 -0.14128257 0
1.1041999 -1.5783808 -0.10672244 0
2.1385109 -1.5644374 -0.1297769 0
2.2388809 -1.5570809 -0.12957788 0
2.4224141 -1.5186882 -0.13210353 0
-1.8335601 -1.4794146 -0.16017574 0
-1.7672801 -1.4430808 -0.16197403 0
-1.5219495 -1.4493191 -0.17902139 0
-1.4402192 -1.4382242 -0.17902642 0
-1.3278422 -1.458765 -0.17783931 0
-1.2332646 -1.4529319 -0.17729235 0
-1.1440034 -1.4510465 -0.17682317 0
-1.0526667 -1.4400001 -0.176 0
0.84799999 -1.46 -0.14300001 0
1.9560072 -1.4312916 -0.13218459 0
2.0411682 -1.4565388 -0.13149118 0
2.1275489 -1.479949 -0.13088766 0
2.2522626 -1.4129012 -0.13316564 0
2.3290453 -1.4606388 -0.13268636 0
2.4353652 -1.447108 -0.13204193 0
-1.7475202 -1.3910539 -0.16864935 0
-1.6585201 -1.3290539 -0.16964935 0
-1.562 -1.3425 -0.18099999 0
-1.4587559 -1.3280143 -0.18079329 0
-1.352387 -1.3505776 -0.17976651 0
-1.2393299 -1.3515687 -0.17881925 0
-1.1370243 -1.3639308 -0.17787135 0
1.0345712 -1.3144329 -0.14200692 0
1.8465052 -1.3514042 -0.13362922 0
1.9419957 -1.3513958 -0.13307065 0
2.0986969 -1.317426 -0.13412423 0
2.1854458 -1.3357575 -0.13360181 0
2.2731845 -1.3519729 -0.1330671 0
2.3605103 -1.3651507 -0.13249698 0
2.4230001 -1.362 -0.132 0
-1.8579049 -1.2650448 -0.1850552 0
-1.7872065 -1.2207265 -0.18540694 0
-1.559992 -1.2619805 -0.18254688 0
-1.4427311 -1.2428951 -0.18139362 0
-1.3625697 -1.2333877 -0.18139663 0
-1.2645547 -1.2629311 -0.1805066 0
-1.1723334 -1.2576667 -0.18000001 0
0.97299999 -1.233 -0.14300001 0
1.0035712 -1.2734329 -0.14250693 0
1.6640015 -1.2182583 -0.13603692 0
1.7467227 -1.2471796 -0.13516372 0
1.8306638 -1.2742639 -0.13438043 0
1.9451313 -1.2219507 -0.13508283 0
2.0308895 -1.2423983 -0.13457273 0
2.1261735 -1.2316005 -0.13416466 0
2.2523861 -1.267589 -0.13334873 0
2.3506286 -1.2495923 -0.13353817 0
2.4319999 -1.2920001 -0.133 0
-1.9449787 -1.1575477 -0.19085827 0
-1.844491 -1.1362227 -0.18885124 0
-1.7551744 -1.1419873 -0.18756455 0
-1.668 -1.146 -0.186 0
-1.4404862 -1.1537688 -0.183 0
-1.3433275 -1.1503364 -0.18172984 0
-1.2480824 -1.1601243 -0.18164943 0
1.591 -1.165 -0.13699999 0
1.6451106 -1.1457107 -0.13656339 0
1.7915657 -1.1264753 -0.1360414 0
1.8763338 -1.1490389 -0.13554364 0
1.969949 -1.1425669 -0.13527644 0
2.064549 -1.1319392 -0.13513727 0
2.1522086 -1.1461828 -0.13485047 0
2.2315764 -1.1875466 -0.13432555 0
2.4130719 -1.1368296 -0.13302797 0
-2.54637 -1.0262781 -0.15097621 0
-1.8587314 -1.0865808 -0.19540291 0
-1.76 -1.0595 -0.1935 0
-1.3459945 -1.0801076 -0.183 0
-1.2745 -1.05 -0.1825 0
1.638 -1.031 -0.13699999 0
1.7217779 -1.0556796 -0.13651454 0
1.8422679 -1.0597676 -0.13630532 0
1.9537883 -1.0427732 -0.13616277 0
2.1630957 -1.0224395 -0.1340373 0
2.2441118 -1.0595127 -0.13371019 0
2.3251276 -1.096586 -0.13338307 0
-2.4335921 -0.98284507 -0.16356194 0
-2.3564441 -0.95313382 -0.17217144 0
-2.2792959 -0.92342257 -0.18078096 0
-2.1065795 -0.91438395 -0.1969898 0
-2.0131207 -0.93170041 -0.19857332 0
1.6590354 -0.95192462 -0.13751259 0
1.7489097 -0.9623878 -0.13742745 0
1.8347361 -0.98072761 -0.13695015 0
1.9200479 -0.91121972 -0.13501866 0
2.0415719 -0.9668296 -0.13452798 0
2.3649049 -0.91395921 -0.13321769 0
2.4030001 -0.92799997 -0.133 0
3.1689999 -0.92299998 -0.13600001 0
3.2544363 -0.94766307 -0.12507331 0
3.3653164 -0.93624485 -0.11454485 0
3.4504745 -0.95986724 -0.10306729 0
-2.4457068 -0.84299815 -0.19210261 0
-2.3513548 -0.8122825 -0.1928902 0
-2.202148 -0.89371127 -0.18939048 0
-2.1286364 -0.85078013 -0.19847554 0
-2.0407641 -0.85758305 -0.19683068 0
-1.9611443 -0.85163707 -0.1963855 0
-1.8835399 -0.84458774 -0.19517633 0
-1.7970001 -0.83200002 -0.193 0
1.4589577 -0.83416992 -0.1406081 0
1.5326102 -0.87422657 -0.13947748 0
1.6561943 -0.85517502 -0.13762356 0
1.758016 -0.83707327 -0.1356729 0
1.8390319 -0.87414652 -0.13534577 0
2.1580596 -0.83772194 -0.13439965 0
2.282167 -0.88346434 -0.13369048 0
3.221 -0.85500002 -0.139 0
3.3519418 -0.84657645 -0.12130089 0
3.4835055 -0.83635682 -0.10394536 0
3.7475281 -0.8079223 -0.10004042 0
-2.2692957 -0.78556877 -0.19357516 0
-2.1462069 -0.74549812 -0.19460261 0
-2.0499687 -0.74678475 -0.19770312 0
-1.93776 -0.75290585 -0.19817223 0
-1.832 -0.76950002 -0.19499999 0
1.238 -0.71399999 -0.14399999 0
1.3624636 -0.75299329 -0.14185213 0
1.46515 -0.74671507 -0.13992243 0
1.5398667 -0.78262013 -0.13889657 0
1.677 -0.80000001 -0.13600001 0
1.7857381 -0.70049489 -0.13652721 0
1.8684762 -0.73098981 -0.13605441 0
1.9512143 -0.76148474 -0.13558163 0
2.0339525 -0.79197961 -0.13510884 0
2.1362283 -0.71454167 -0.13514395 0
2.2198741 -0.74065006 -0.13477275 0
2.3615618 -0.78487509 -0.13414396 0
3.227 -0.77399999 -0.139 0
3.3125019 -0.79478562 -0.12731512 0
3.4443159 -0.74149024 -0.13938004 0
3.574264 -0.76996118 -0.12252021 0
3.6608961 -0.78894174 -0.11128031 0
-1.9595255 -0.6626572 -0.19782507 0
-1.8614393 -0.65609866 -0.19809806 0
-1.7494938 -0.66634655 -0.19876122 0
-1.6676625 -0.6358977 -0.19850749 0
-1.5858313 -0.60544884 -0.19825374 0
1.2410001 -0.639 -0.14300001 0
1.3157167 -0.674905 -0.14197415 0
1.7029999 -0.67000002 -0.13699999 0
1.8434685 -0.62316251 -0.13644318 0
1.968937 -0.66232502 -0.13588637 0
2.0525827 -0.68843335 -0.13551517 0
-1.8650507 -0.55850911 -0.1983564 0
-1.7259959 -0.56530035 -0.19616754 0
-1.6419972 -0.5382002 -0.19511171 0
-1.5309993 -0.54305005 -0.19602793 0
1.7180001 -0.58399999 -0.13699999 0
-1.8115259 -0.49870148 -0.19727665 0
-1.7258945 -0.47527611 -0.19570749 0
-1.6486987 -0.42599675 -0.1975583 0
-1.5546315 -0.42842537 -0.19256917 0
-1.4714999 -0.4445 -0.192 0
-1.525 -0.38100001 -0.198 0
2.263 -0.071999997 -0.134 0
2.3498538 -0.073051177 -0.1341314 0
2.4367075 -0.074102357 -0.1342628 0
2.5235615 -0.075153537 -0.1343942 0
2.653842 -0.076730311 -0.1345913 0
2.7841227 -0.078307077 -0.13478839 0
2.8709764 -0.079358257 -0.13491979 0
2.924 -0.079999998 -0.13500001 0
2.1819999 0.24699999 -0.13500001 0
2.2670228 0.25544405 -0.13514559 0
2.3520458 0.26388809 -0.13529117 0
2.4370685 0.27233216 -0.13543677 0
2.5220914 0.2807762 -0.13558236 0
2.6496258 0.29344231 -0.13580073 0
-1.948367 0.38742474 -0.19935095 0
-1.868 0.36899999 -0.199 0
1.721 0.368 -0.139 0
1.8097922 0.38469681 -0.13880697 0
2.1470001 0.34900001 -0.13500001 0
2.2308633 0.36023307 -0.13500001 0
2.3566582 0.37708265 -0.13500001 0
2.4824531 0.39393225 -0.13500001 0
2.766 0.30500001 -0.13600001 0
-2.1347566 0.4663958 -0.19810918 0
-2.0348685 0.44125459 -0.1969817 0
-1.9651064 0.49262416 -0.19629684 0
-1.8442767 0.45915604 -0.19457421 0
1.8985845 0.40139359 -0.13861394 0
1.9873767 0.4180904 -0.13842092 0
2.076169 0.43478721 -0.13822789 0
2.1649611 0.45148402 -0.13803487 0
2.2537534 0.46818081 -0.13784184 0
2.3425457 0.48487762 -0.13764881 0
2.5663164 0.40516531 -0.13500001 0
2.6710899 0.4191992 -0.13500001 0
-2.3039999 0.528 -0.2 0
-2.2429819 0.53224754 -0.19943883 0
-2.1233778 0.5664773 -0.19849408 0
-2.0567892 0.54098541 -0.19760086 0
-1.9676365 0.55047083 -0.19589593 0
-1.8599547 0.56120628 -0.19434391 0
-1.781 0.53500003 -0.193 0
2.4313378 0.5015744 -0.13745578 0
2.5201302 0.51827121 -0.13726276 0
2.6249614 0.53798401 -0.13703486 0
-2.1847939 0.64104539 -0.19965565 0
-2.0607102 0.64756602 -0.19741632 0
-1.9395751 0.6611225 -0.19460805 0
-1.8232507 0.64887023 -0.19320168 0
-1.7460001 0.61900002 -0.192 0
-2.2199473 0.74125415 -0.19984159 0
-2.1559746 0.75841075 -0.19842358 0
-2.0333111 0.75915921 -0.1960611 0
-1.9503788 0.75332433 -0.19448297 0
-1.8635247 0.74481457 -0.19239537 0
-1.7437623 0.71665728 -0.19069768 0
-1.666 0.77899998 -0.18799999 0
1.5482141 0.74393737 -0.14445952 0
-2.1537464 0.85689157 -0.19854367 0
-2.0580506 0.83602911 -0.19651055 0
-1.8490899 0.87166399 -0.19158122 0
-1.7392359 0.81606561 -0.18943249 0
1.6658566 0.80374944 -0.14283812 0
1.7442849 0.84362417 -0.14175718 0
1.8227131 0.88349891 -0.14067623 0
2.045996 0.81593943 -0.13587548 0
2.1479836 0.86375779 -0.13550189 0
2.2159753 0.89563668 -0.13525285 0
-2.0535898 0.97516406 -0.19558121 0
-1.9589436 0.92726243 -0.19372994 0
-1.8519661 0.98705989 -0.19056347 0
-1.7554382 0.9499855 -0.18758447 0
-1.6509578 0.92510664 -0.18624294 0
-1.576 0.98500001 -0.186 0
1.9403555 0.94331098 -0.13905483 0
2.2844834 0.9277578 -0.1350019 0
-2.02 1.0829999 -0.19499999 0
-1.9410148 1.0565209 -0.19147186 0
-1.840747 1.0356399 -0.18745758 0
-1.7228068 1.0797548 -0.18675804 0
-1.6494033 1.0323775 -0.18637902 0
-1.536 1.066 -0.185 0
1.9575703 1.0674469 -0.136711 0
2.0579982 1.003123 -0.13743341 0
2.1492133 1.0494989 -0.13617624 0
-2.0684938 1.1682796 -0.18891516 0
-1.9925783 1.1240664 -0.1884293 0
-1.8696136 1.1745096 -0.18751608 0
-1.7962102 1.1271322 -0.18713705 0
-1.6342272 1.1392587 -0.18746939 0
-1.501 1.154 -0.185 0
-1.473 1.1900001 -0.184 0
-0.94199997 1.165 -0.18000001 0
2.0702815 1.1287879 -0.13584399 0
2.1454222 1.1696818 -0.13526598 0
-2.2291627 1.2618531 -0.18994343 0
-2.1444097 1.2124929 -0.18940102 0
-2.0164204 1.2692645 -0.18827412 0
-1.943017 1.221887 -0.18789509 0
-1.7651966 1.236937 -0.19076192 0
-1.6160796 1.2779779 -0.18630421 0
-1.5393518 1.2462296 -0.18549876 0
-1.4405 1.247 -0.18349999 0
-1.0439067 1.2965033 -0.18000001 0
-0.96663541 1.2591343 -0.17958081 0
-0.86750001 1.247 -0.1785 0
0.76799995 1.2416667 -0.15466668 0
0.83149821 1.2730587 -0.15362251 0
1.808 1.29 -0.13699999 0
2.2581334 1.2310226 -0.13439897 0
2.3708446 1.2923634 -0.13353197 0
-2.1570001 1.36 -0.189 0
-2.0898237 1.3166418 -0.18865313 0
-1.8787119 1.3215978 -0.19361567 0
-1.7505527 1.3600527 -0.19110526 0
-1.6653886 1.3533558 -0.18782963 0
-1.5636642 1.3596103 -0.18547803 0
-1.4450412 1.3466225 -0.1833511 0
-1.3609999 1.322 -0.182 0
-1.294 1.382 -0.18099999 0
-1.0948601 1.3622551 -0.18000001 0
-0.98863494 1.3560342 -0.1793232 0
-0.89405048 1.3494323 -0.17829227 0
-0.75950003 1.3505 -0.17649999 0
0.67699999 1.3660001 -0.156 0
0.7544055 1.331331 -0.15366155 0
0.83638322 1.3470349 -0.15239656 0
0.91249466 1.3931757 -0.15086754 0
1.063 1.329 -0.15000001 0
1.120522 1.3989158 -0.14943235 0
1.8818578 1.3404343 -0.13858266 0
1.9557155 1.3908687 -0.14016533 0
2.4400001 1.33 -0.133 0
-1.8157994 1.4326297 -0.19034034 0
-1.7397659 1.4078588 -0.18511152 0
-1.663074 1.4593793 -0.1862566 0
-1.5501523 1.4586101 -0.18757626 0
-1.4816303 1.4434941 -0.18257579 0
-1.3578769 1.460351 -0.18189718 0
-1.227 1.4400001 -0.18000001 0
-1.1661934 1.4725884 -0.17966668 0
-1.0611112 1.4588099 -0.17956559 0
-0.97062624 1.461081 -0.17873068 0
-0.86024135 1.4412926 -0.17761283 0
-0.74118561 1.4510792 -0.17630047 0
-0.64666665 1.461 -0.17533334 0
0.62570721 1.4648145 -0.15678667 0
0.74784684 1.4456636 -0.15349613 0
0.86210841 1.4611713 -0.15114334 0
0.93050003 1.437 -0.15000001 0
1.0611684 1.4561851 -0.14725313 0
1.1780441 1.4688317 -0.1488647 0
2.0295734 1.441303 -0.141748 0
2.1034312 1.4917374 -0.14333066 0
-1.9464202 1.5766265 -0.18597259 0
-1.8731489 1.5167882 -0.18566729 0
-1.7569402 1.5273504 -0.18996339 0
-1.6194522 1.5551821 -0.18673682 0
-1.5419456 1.5042411 -0.1828637 0
-1.4447623 1.5473434 -0.18217021 0
-1.3347473 1.5759394 -0.18106309 0
-1.2527349 1.5358772 -0.18024111 0
-1.1417571 1.5580878 -0.17945659 0
-1.0474006 1.5732431 -0.17838971 0
-0.93148273 1.5555853 -0.17822565 0
-0.81518829 1.5337753 -0.17694654 0
-0.74881649 1.5430721 -0.17662463 0
-0.66364259 1.552017 -0.17547494 0
-0.55833334 1.5526667 -0.17566667 0
0.53250003 1.559 -0.1595 0
0.65696436 1.5548398 -0.15649152 0
0.77592981 1.5541606 -0.1521204 0
0.83050001 1.527 -0.152 0
0.94645178 1.554626 -0.1477437 0
1.0766734 1.5537401 -0.14901252 0
1.1528802 1.5024223 -0.14489281 0
1.2216632 1.555796 -0.14654133 0
2.177289 1.5421717 -0.14491333 0
2.2511468 1.5926061 -0.146496 0
-1.8365656 1.636197 -0.18485776 0
-1.7219455 1.658241 -0.1883637 0
-1.6784403 1.6144776 -0.18779603 0
-1.5331306 1.6468153 -0.1829045 0
-1.3902105 1.6405139 -0.181427 0
-1.2410562 1.6464571 -0.18012787 0
-1.1712009 1.6454837 -0.17931554 0
-1.0695872 1.652493 -0.1789007 0
-0.93845111 1.6581103 -0.17784242 0
-0.84522325 1.6509043 -0.17723472 0
-0.75188076 1.6488755 -0.17666855 0
-0.65100145 1.6452411 -0.17557545 0
-0.55405033 1.6628577 -0.17595132 0
-0.46233335 1.6446667 -0.176 0
-0.391 1.696 -0.175 0
0.45633331 1.6553334 -0.16266666 0
0.55474865 1.6482465 -0.15897495 0
0.66337109 1.6405857 -0.15752625 0
0.71318233 1.616165 -0.15403995 0
0.86055303 1.622164 -0.15257919 0
0.98426467 1.6541947 -0.14611712 0
1.0282587 1.6431297 -0.14871848 0
1.12901 1.6271102 -0.14851877 0
1.2778643 1.6259651 -0.14620391 0
1.3506104 1.6785791 -0.14716174 0
2.3619335 1.6682576 -0.14886999 0
-1.78 1.744 -0.184 0
-1.6365815 1.753953 -0.18341686 0
-1.5519407 1.7344294 -0.18243551 0
-1.4612608 1.7269502 -0.18196653 0
-1.3327799 1.7567215 -0.18106991 0
-1.2344351 1.7616315 -0.18000793 0
-1.149303 1.7215945 -0.17975365 0
-1.0584099 1.754764 -0.17889376 0
-0.96092737 1.7472256 -0.17800683 0
-0.86966109 1.7629144 -0.17773679 0
-0.75486302 1.7544395 -0.17634788 0
-0.63761598 1.7683448 -0.17593494 0
-0.56269681 1.7520831 -0.17572019 0
-0.44836745 1.7496966 -0.17531168 0
-0.3479917 1.7500815 -0.17422237 0
-0.25749999 1.7755001 -0.17299999 0
0.35360965 1.7714819 -0.16497524 0
0.44239008 1.7648865 -0.16309303 0
0.54731709 1.7463182 -0.159043 0
0.65452826 1.7136893 -0.15689468 0
0.92588258 1.7394102 -0.15194799 0
1.0305293 1.7293893 -0.14623424 0
1.1414802 1.7282438 -0.14798729 0
1.2336833 1.7738504 -0.14753129 0
1.3449605 1.7489004 -0.14451766 0
1.4081324 1.7484949 -0.14659409 0
2.4727204 1.7439091 -0.151244 0
2.5079999 1.768 -0.152 0
-1.7435293 1.8587451 -0.18381542 0
-1.6579624 1.8429931 -0.18362372 0
-1.5566003 1.834237 -0.18251872 0
-1.4128587 1.8398933 -0.18183039 0
-1.378422 1.8653922 -0.18180893 0
-1.2636344 1.8511178 -0.18003076 0
-1.1214597 1.8603655 -0.17985986 0
-1.0646524 1.8650391 -0.17894192 0
-0.95087957 1.8566294 -0.17848414 0
-0.83383083 1.8411131 -0.17741348 0
-0.75399607 1.848577 -0.17657359 0
-0.66214347 1.8498216 -0.17594054 0
-0.53606945 1.85978 -0.17542446 0
-0.4720085 1.8560653 -0.17490473 0
-0.36070663 1.8368449 -0.17358936 0
-0.24609779 1.865503 -0.17232282 0
-0.15925984 1.8501177 -0.17164385 0
0.36478671 1.836174 -0.16500001 0
0.44434851 1.8478905 -0.16340764 0
0.55340189 1.856455 -0.15953797 0
0.74258482 1.8450679 -0.15568407 0
0.9515869 1.8471175 -0.14932103 0
1.0767939 1.804584 -0.14635138 0
1.1367879 1.8555191 -0.14695272 0
1.28602 1.8472207 -0.14703755 0
1.4464676 1.8364723 -0.14519164 0
1.5505883 1.8621633 -0.1427294 0
1.6193651 1.8930248 -0.1408864 0
-1.6269917 1.9123707 -0.18292952 0
-1.5173011 1.9797254 -0.18298128 0
-1.4471684 1.9213713 -0.1823836 0
-1.3326944 1.9404255 -0.18045656 0
-1.1382452 1.9368063 -0.17992882 0
-1.0223787 1.9600692 -0.17920043 0
-0.95485866 1.9368273 -0.1787302 0
-0.84099603 1.947969 -0.17742868 0
-0.73694617 1.9444658 -0.17648582 0
-0.69877124 1.9629509 -0.17666876 0
-0.57362318 1.9671797 -0.17530935 0
-0.42190638 1.9276237 -0.17392813 0
-0.33533192 1.9394621 -0.17250906 0
-0.23145275 1.9523177 -0.17181607 0
-0.16046111 1.950037 -0.17085896 0
0.38696679 1.9504349 -0.16500001 0
0.44982898 1.9365859 -0.16332582 0
0.53649211 1.9728823 -0.16087411 0
0.62702709 1.9411225 -0.15650555 0
0.79011315 1.9677571 -0.15457876 0
0.99409717 1.9633932 -0.14929262 0
1.0347652 1.9348202 -0.15089598 0
1.1843719 1.9307423 -0.14675498 0
1.2483242 1.9817629 -0.1464117 0
1.3645251 1.9572757 -0.14629693 0
1.4821607 1.9249562 -0.14424968 0
1.5588698 1.9768105 -0.14451681 0
1.6607302 1.9500496 -0.14177279 0
-1.4625969 2.0185831 -0.18231083 0
-1.3602525 2.0291619 -0.18096137 0
-1.223816 2.0599184 -0.1808923 0
-1.1523575 2.061044 -0.18045992 0
-1.0632504 2.0363786 -0.17969806 0
-0.95183307 2.0530043 -0.17871976 0
-0.86802614 2.0492752 -0.17825656 0
-0.76131964 2.0460396 -0.17680335 0
-0.61687434 2.0331478 -0.176 0
-0.57768369 2.0700512 -0.17427337 0
-0.46672487 2.0335164 -0.17337732 0
-0.33807862 2.0562139 -0.17198153 0
-0.24913603 2.0597744 -0.17174062 0
-0.1257616 2.0369251 -0.16956511 0
0.44562888 2.0262198 -0.16374743 0
0.53639495 2.0707786 -0.16119775 0
0.66868472 2.0802484 -0.15517037 0
0.82179868 2.0495501 -0.15384188 0
1.056982 2.028537 -0.15020707 0
1.1218712 2.0911484 -0.15005438 0
1.2564077 2.0435915 -0.14630091 0
1.4430301 2.0673308 -0.14555632 0
1.5919209 2.0658007 -0.14403531 0
1.6397403 2.0617192 -0.14410782 0
1.7100477 2.0180373 -0.1428296 0
-1.1559412 2.1728764 -0.18073268 0
-1.0504911 2.1506743 -0.18005334 0
-0.93042338 2.131093 -0.17841539 0
-0.83356744 2.1454194 -0.17727602 0
-0.77222657 2.1389771 -0.17697875 0
-0.62093484 2.1360195 -0.17496403 0
-0.48565608 2.1178956 -0.17297167 0
-0.36350879 2.1627297 -0.17174216 0
-0.23356256 2.1438129 -0.17012501 0
-0.13 2.1070001 -0.169 0
0.41600001 2.0999999 -0.16500001 0
0.54550004 2.1075001 -0.161 0
0.8557421 2.1371713 -0.15305251 0
1.0771943 2.1247864 -0.15058525 0
1.1654243 2.1693122 -0.14963359 0
1.2618525 2.1053629 -0.14681987 0
1.3457495 2.1672747 -0.14577448 0
1.4953668 2.1407011 -0.14506258 0
1.502 2.1500001 -0.145 0
-1.1430912 2.2486992 -0.18117651 0
-1.0526222 2.2724345 -0.17996429 0
-0.98681617 2.2170236 -0.17939694 0
-0.88288093 2.2709031 -0.17773122 0
-0.65639377 2.2306263 -0.17519425 0
-0.51405293 2.2444644 -0.17236316 0
-0.40588874 2.2551019 -0.17203346 0
-0.34799999 2.233 -0.171 0
1.1395173 2.2458315 -0.1515547 0
1.2199886 2.2672381 -0.14910638 0
1.3329999 2.221 -0.147 0
-1.1467738 2.3600979 -0.18202958 0
-1.023 2.3010001 -0.18000001 0
-0.912 2.345 -0.178 0
-0.65504694 2.3556409 -0.1731187 0
-0.53100002 2.3199999 -0.17200001 0
1.2018402 2.3668764 -0.15252419 0
-1.1873651 2.4407973 -0.18270609 0
1.2433887 2.4475729 -0.1531705 0
-1.2279563 2.5214965 -0.18338262 0
1.2849374 2.5282695 -0.1538168 0
-1.3091389 2.6828952 -0.18473566 0
-1.2685477 2.6021957 -0.18405913 0
1.3437428 2.6424832 -0.15473156 0
-1.3497303 2.7635946 -0.18541217 0
-1.3903215 2.8442938 -0.1860887 0
-1.4379563 2.9389966 -0.18688262 0
-2.5035863 3.8355381 -0.19707696 0
-2.6047585 3.9786148 -0.17323086 0
-2.5541723 3.9070766 -0.1851539 0
-2.6553447 4.0501533 -0.16130781 0
-2.7312238 4.1574602 -0.14342324 0
-2.8071032 4.2647681 -0.12553866 0
2.5731263 4.2407207 -0.16946368 0
-2.8738446 4.3591528 -0.1098078 0
2.6425054 4.3538828 -0.15885472 0
2.6887584 4.4293242 -0.1517821 0
2.7581375 4.5424867 -0.14117314 0
2.8275166 4.6556487 -0.13056418 0
2.8737693 4.7310901 -0.12349156 0
2.941011 4.840766 -0.11320946 0
1.053 -2.819 -0.019999996 0
1.0312766 -2.7608523 -0.030487165 0
1.1294999 -2.7249999 -0.025500003 0
0.97119755 -2.6000373 -0.059490837 0
1.044171 -2.6661208 -0.041376952 0
1.1353053 -2.650681 -0.035921983 0
1.3272107 -2.6577325 -0.064854823 0
1.45067 -2.6694474 -0.061611913 0
1.5633814 -2.639626 -0.077720314 0
1.6318176 -2.629071 -0.065936171 0
0.941158 -2.51963 -0.07399267 0
1.0177215 -2.5396607 -0.060669944 0
1.1011188 -2.5718694 -0.049361698 0
1.2765659 -2.5513487 -0.085532233 0
1.355576 -2.5605726 -0.082166165 0
1.4209995 -2.5409796 -0.082647182 0
1.5289117 -2.5387576 -0.08547499 0
0.94844782 -2.4496756 -0.081615224 0
1.049839 -2.4536519 -0.069521263 0
1.2427106 -2.4802325 -0.099354826 0
1.4628727 -2.4795702 -0.089996129 0
1.5315812 -2.4644852 -0.091923401 0
0.97619617 -2.3580155 -0.0892414 0
0.27557898 -2.2058976 -0.088464141 0
0.52306068 -2.2356114 -0.098096862 0
0.26447371 -2.1168718 -0.074330181 0
0.36526909 -2.1218371 -0.086470619 0
0.45484352 -2.1762018 -0.092504717 0
0.5544315 -2.1436472 -0.089949295 0
0.62454307 -2.1115422 -0.093079507 0
-1.7687736 -2.0340004 -0.092542484 0
-1.6504977 -2.009408 -0.092921175 0
0.25336844 -2.0278463 -0.060196213 0
0.37134373 -2.0176311 -0.070749007 0
0.43874285 -2.059521 -0.073146723 0
0.554461 -2.0472355 -0.077549212 0
0.68074089 -2.0379288 -0.089308769 0
-1.7111698 -1.9654289 -0.079762839 0
-1.5953972 -1.9420897 -0.079505406 0
0.2422632 -1.9388207 -0.046062253 0
0.35521248 -1.9300573 -0.056398813 0
0.45123729 -1.9298131 -0.053407915 0
0.54380941 -1.9493309 -0.063513733 0
0.65315449 -1.955405 -0.074578352 0
-1.6535661 -1.8968576 -0.066983193 0
-1.5681295 -1.8515286 -0.060146596 0
-1.4851962 -1.8074529 -0.052673869 0
-1.066 -1.8049999 -0.0070000002 0
0.23115794 -1.8497951 -0.031928286 0
0.33908123 -1.8424835 -0.042048611 0
0.45158568 -1.8363131 -0.041309457 0
0.56516027 -1.8340752 -0.049505144 0
0.62556815 -1.8728814 -0.05984794 0
-1.568 -1.795 -0.047999993 0
-1.466 -1.784 -0.048 0
-1.005 -1.796 -0.0049999999 0
0.22005269 -1.7607694 -0.017794326 0
0.34332815 -1.7491493 -0.026417466 0
0.45301667 -1.7554238 -0.030572116 0
0.53918695 -1.7501712 -0.035339337 0
0.61472917 -1.7706492 -0.042383768 0
-0.37900001 -1.64 -0.003 0
0.24915144 -1.6766888 -0.0097346082 0
0.34429905 -1.6514239 -0.011085764 0
0.45839334 -1.6579857 -0.016809445 0
0.55732286 -1.6465149 -0.01953149 0
0.27417272 -1.5935929 -0.0016765147 0
0.38887778 -1.5836329 -0.0033475459 0
0.45199999 -1.5753332 -0.0043333336 0
0.52849996 -1.5815001 -0.0080000004 0
1.0552999 -1.5100713 -0.094083667 0
1.0063999 -1.4417617 -0.081444882 0
1.153494 -1.4248718 -0.0073579997 0
1.3341208 -1.4316808 -0.0067174099 0
0.9330498 -1.3392973 -0.062486712 0
1.0979952 -1.3572974 -0.015286401 0
1.2450905 -1.3365107 -0.018038059 0
0.87800002 -1.2474999 -0.046999998 0
0.9869976 -1.2221488 -0.0311432 0
1.0424964 -1.2897232 -0.0232148 0
1.1560603 -1.2413404 -0.029358707 0
0.79966402 -1.1249937 -0.032454833 0
0.83933204 -1.1794969 -0.039227419 0
0.93149877 -1.1545744 -0.039071597 0
1.0670302 -1.1461701 -0.04067935 0
3.8524902 -1.1203047 -0.04858651 0
3.9639633 -1.1524839 -0.034329914 0
0.75799799 -1.0677453 -0.025341127 0
0.87599999 -1.087 -0.046999998 0
0.97799999 -1.051 -0.052000001 0
1.1216893 -1.01843 -0.034392506 0
3.5534632 -1.0339839 -0.086829916 0
3.6816177 -1.0709785 -0.07043989 0
3.7670541 -1.0956416 -0.059513196 0
3.8151605 -1.0130721 -0.054800786 0
3.9345202 -1.044827 -0.037886161 0
1.087 -0.99199998 -0.041000001 0
3.5605202 -0.94532692 -0.090886161 0
3.6454003 -0.96790868 -0.078857705 0
3.7302804 -0.99049038 -0.066829249 0
3.8255129 -0.91949922 -0.057205833 0
3.9495072 -0.94964242 -0.040260475 0
4.1806879 -0.90282518 -0.04384096 0
4.2179999 -0.91100001 -0.039000005 0
3.5690074 -0.85714239 -0.09226048 0
3.6545093 -0.87792802 -0.0805756 0
3.7400112 -0.89871359 -0.068890713 0
3.8341601 -0.82690287 -0.08880052 0
3.9207921 -0.84588349 -0.077560633 0
4.0507402 -0.87435436 -0.060700797 0
0.292 5.0139999 -0.079999998 0
0.2968626 5.1452909 -0.057866655 0
0.30172527 5.2765818 -0.035733309 0
0.30496702 5.364109 -0.020977747 0
0.30820876 5.4516363 -0.0062221885 0
-5.1399999 -3.677 0.048999999 0
-5.0631018 -3.6209288 0.065554388 0
-4.9959998 -3.572 0.079999998 0
-5.256 -2.727 0.037 0
-5.1632433 -2.6824956 0.044495478 0
-5.0642433 -2.6349955 0.05249548 0
-1.0335245 -1.7505742 0.0079662688 0
-0.93599546 -1.7408012 0.0071734507 0
-0.87 -1.745 -9.6044388e-15 0
-1.02815 -1.6873624 0.020025007 0
-0.96141487 -1.6524225 0.026484013 0
-0.85003918 -1.6413298 0.023392815 0
1.3273301 -1.6365317 0.017475732 0
-0.93318594 -1.5532446 0.044417568 0
-0.85245776 -1.5474724 0.044890579 0
-0.77023214 -1.5247844 0.043804955 0
-0.35217381 -1.5398489 0.015331226 0
0.17187676 -1.5475525 0.012331436 0
0.26699999 -1.552 0.0049999976 0
0.32033333 -1.568 0.002333336 0
0.46359342 -1.5052788 0.0053829364 0
0.52610517 -1.5170238 0.0044824202 0
1.2533382 -1.5479317 0.019853016 0
1.442 -1.5470001 0.0069999998 0
-0.84372687 -1.4816607 0.065444142 0
-0.32217383 -1.4278489 0.035831228 0
0.14643534 -1.4513241 0.025644027 0
0.26725096 -1.4548931 0.023039665 0
0.44168687 -1.4345574 0.016765872 0
0.5002104 -1.4440475 0.01796484 0
1.1645231 -1.4427745 0.033060253 0
1.2089927 -1.4924462 0.00057039782 0
1.3653793 -1.466978 0.010657616 0
0.13587138 -1.3558639 0.041534498 0
0.2383346 -1.3355241 0.044052888 0
0.43446904 -1.3549359 0.02868622 0
1.0535386 -1.3106241 0.043100424 0
1.1090308 -1.3766993 0.038080342 0
1.2606635 -1.3588063 0.024143159 0
0.25299999 -1.284 0.055 0
0.37503073 -1.2744924 0.051496699 0
0.43971038 -1.2735474 0.04946484 0
0.99804622 -1.244549 0.048120514 0
1.1397724 -1.2333436 0.035571937 0
1.200218 -1.296075 0.029857546 0
0.93227696 -1.1662369 0.054070301 0
1.0491042 -1.1392467 0.044143517 0
0.96600002 -1.053 0.052000001 0
1.2163861 -1.039386 0.012597859 0
1.1670001 -0.99000001 0.0049999999 0
-3.3123255 3.5993571 0.048882384 0
-3.299 3.585 0.050000001 0
-3.3595502 3.650238 0.044921588 0
-3.4303875 3.7265596 0.038980398 0
3.3874023 4.4617777 0.092342332 0
3.4393353 4.5341477 0.078618608 0
3.4912682 4.6065183 0.064894892 0
3.5432012 4.6788888 0.051171169 0
3.595134 4.7512593 0.037447445 0
3.6730335 4.8598146 0.01686186 0
0.31145051 5.5391636 0.0085333809 0
0.31469226 5.6266913 0.023288943 0
0.31946701 5.7556095 0.045022253 0
3.1763353 4.1676483 0.14811862 0
3.2316036 4.2446661 0.1335135 0
3.2835367 4.3170366 0.11978978 0
3.3354695 4.3894072 0.10606606 0
