# .PCD v0.7 - Point Cloud Data file format
VERSION 0.7
FIELDS x y z intensity
SIZE 4 4 4 4
TYPE F F F F
COUNT 1 1 1 1
WIDTH 1392
HEIGHT 1
VIEWPOINT 0 0 0 1 0 0 0
POINTS 1392
DATA ascii
-0.52017981 -3.5180166 -0.18822509 0
-0.27463245 -3.5675089 -0.18757905 0
-0.013980525 -3.5213759 -0.18659611 0
0.054000001 -3.5280001 -0.185 0
3.579 -3.552 -0.148 0
-1.6373612 -3.4370499 -0.19225863 0
-1.1934474 -3.438798 -0.19471195 0
-1.0211493 -3.4480131 -0.19400746 0
-0.92734742 -3.4161429 -0.19344828 0
-0.75876647 -3.4171813 -0.19148476 0
-0.50898314 -3.4311805 -0.18735424 0
-0.26844272 -3.4434562 -0.18680534 0
-0.013235394 -3.4362819 -0.18644708 0
0.055152014 -3.4521592 -0.18538401 0
0.22745934 -3.4912143 -0.186 0
0.301 -3.4170001 -0.185 0
3.4494457 -3.4277599 -0.1199635 0
3.5142229 -3.4898798 -0.13398175 0
-1.5973096 -3.3591855 -0.1925074 0
-1.3317146 -3.3272138 -0.19392356 0
-1.1580174 -3.3349741 -0.1931546 0
-0.95021415 -3.3457813 -0.19242752 0
-0.73963869 -3.3296511 -0.1902373 0
-0.49778652 -3.3443444 -0.1864834 0
-0.26225299 -3.3194036 -0.18603162 0
-0.012490262 -3.3511879 -0.18629806 0
0.056364011 -3.3723693 -0.18578801 0
0.154 -3.3215001 -0.184 0
0.25527555 -3.3535905 -0.18493339 0
0.37120211 -3.3215289 -0.184 0
3.3846686 -3.3656397 -0.10594525 0
-1.5372322 -3.2423892 -0.19288054 0
-1.3940001 -3.2609999 -0.19400001 0
-1.2967148 -3.2386024 -0.19275302 0
-1.1291403 -3.2503524 -0.19188528 0
-0.97111195 -3.2760098 -0.1915056 0
-0.88124812 -3.2429593 -0.19074877 0
-0.72051096 -3.2421207 -0.18898985 0
-0.48658991 -3.2575083 -0.18561254 0
-0.2581265 -3.2367017 -0.18551581 0
-0.028597601 -3.2590854 -0.1853711 0
0.047837019 -3.2523375 -0.18517888 0
0.15177754 -3.2646165 -0.18391156 0
0.26140547 -3.2485361 -0.18463984 0
0.36150354 -3.2307148 -0.184 0
0.435 -3.2160001 -0.182 0
0.583 -3.234 -0.183 0
-2.154 -3.112 -0.161 0
-1.5420939 -3.1272414 -0.19476342 0
-1.4771547 -3.1255927 -0.1932537 0
-1.3453977 -3.1461217 -0.19257981 0
-1.2640005 -3.1557772 -0.19165888 0
-1.1002631 -3.1657305 -0.19061595 0
-0.93358397 -3.1470075 -0.1896292 0
-0.85819852 -3.1563673 -0.189399 0
-0.70138323 -3.1545906 -0.18774238 0
-0.47539327 -3.1706722 -0.18474169 0
-0.25400001 -3.154 -0.185 0
-0.024419069 -3.1769645 -0.1851857 0
0.046869032 -3.1481178 -0.1853478 0
0.14963877 -3.154808 -0.18395577 0
0.24358466 -3.1408312 -0.18376131 0
0.35260281 -3.1473718 -0.184 0
0.46060964 -3.1313639 -0.18149999 0
0.57768971 -3.1393182 -0.15504277 0
0.71100003 -3.1129999 -0.18099999 0
-2.110117 -3.0490985 -0.16357218 0
-1.959 -3.029 -0.139 0
-1.8814915 -3.018388 -0.13976966 0
-1.7455001 -3.053 -0.10950001 0
-1.6739919 -3.0450132 -0.15305853 0
-1.5674224 -3.0574594 -0.1944623 0
-1.4501123 -3.0362439 -0.19344074 0
-1.2624022 -3.0482244 -0.1908143 0
-1.0713859 -3.0811088 -0.18934663 0
-0.86560237 -3.0438902 -0.18790102 0
-0.68225551 -3.0670605 -0.18649492 0
-0.46419665 -3.0838361 -0.18387085 0
-0.039023839 -3.0525808 -0.18348213 0
0.028869031 -3.0481179 -0.18334779 0
0.14749999 -3.0450001 -0.184 0
0.23560914 -3.0554473 -0.18515629 0
0.34370211 -3.0640287 -0.184 0
0.45062777 -3.0606151 -0.18149999 0
0.56924844 -3.0634623 -0.14453125 0
0.67109895 -3.0376835 -0.14233539 0
1.0599999 -3.003 -0.178 0
-2.0322495 -2.9374838 -0.16813636 0
-1.9368279 -2.9959319 -0.14115386 0
-1.8537744 -2.9442148 -0.14029607 0
-1.7457153 -2.9488347 -0.14423646 0
-1.6449215 -2.949841 -0.16283202 0
-1.5274947 -2.9785268 -0.19365451 0
-1.4249613 -2.9447937 -0.19246773 0
-1.3970516 -2.9698641 -0.19375123 0
-1.2589319 -2.9417479 -0.19005321 0
-1.1822146 -2.9487138 -0.18892357 0
-1.0280702 -2.9541759 -0.18744263 0
-0.84156823 -2.9575934 -0.18660069 0
-0.66312772 -2.9795301 -0.18524747 0
-0.45300001 -2.997 -0.183 0
-0.040209536 -2.9322324 -0.18259285 0
0.024 -2.9330001 -0.183 0
0.19599999 -2.98 -0.186 0
0.26303259 -2.9630783 -0.18415628 0
0.33480141 -2.9806857 -0.184 0
0.43891782 -2.9786572 -0.18149999 0
0.55412257 -2.9556935 -0.12679687 0
0.64457893 -2.9570827 -0.13680021 0
0.78249717 -2.9820967 -0.11371785 0
0.86373347 -2.9403086 -0.17240202 0
0.96487874 -2.9465873 -0.175 0
1.0258291 -2.9628785 -0.15248436 0
-1.9543819 -2.8258691 -0.17270052 0
-1.8362623 -2.8459456 -0.15092309 0
-1.7662752 -2.843142 -0.14805859 0
-1.6635722 -2.8599575 -0.15114622 0
-1.5620499 -2.8459558 -0.17962281 0
-1.467603 -2.8601284 -0.19244283 0
-1.3719006 -2.8784142 -0.19277823 0
-1.2243454 -2.8599982 -0.18904257 0
-1.1331431 -2.824476 -0.18728238 0
-0.98475432 -2.8272436 -0.18553865 0
-0.84601861 -2.8460016 -0.18525094 0
-0.77752483 -2.8532958 -0.18467487 0
-0.64399999 -2.892 -0.184 0
-0.041000001 -2.852 -0.182 0
0.25600001 -2.8789999 -0.184 0
0.35435808 -2.8545947 -0.183 0
0.45544007 -2.857924 -0.18099999 0
0.56343836 -2.8344984 -0.13851315 0
0.65856993 -2.8686905 -0.17990771 0
0.75765514 -2.8377469 -0.14377259 0
0.86530018 -2.8633101 -0.1729303 0
0.96915245 -2.8471482 -0.16202426 0
3.3785524 -2.8342149 -0.12036532 0
3.4449999 -2.892 -0.13600001 0
-1.9024702 -2.7514591 -0.17574331 0
-1.7637682 -2.7791662 -0.16477785 0
-1.665603 -2.7354004 -0.15254666 0
-1.5651377 -2.7546189 -0.18319529 0
-1.4499435 -2.7377408 -0.19180977 0
-1.3295608 -2.7448797 -0.19018951 0
-1.1450939 -2.7599497 -0.1871101 0
-0.95587718 -2.7426217 -0.18426932 0
-0.82099998 -2.76 -0.184 0
0.37099999 -2.73 -0.182 0
0.43657601 -2.7355695 -0.18099999 0
0.54488087 -2.7527294 -0.15023774 0
0.64025593 -2.7833524 -0.17952617 0
0.73671395 -2.7321839 -0.15830493 0
0.84140015 -2.7786944 -0.17365454 0
0.94232064 -2.7438056 -0.15343498 0
3.3121052 -2.7764301 -0.10473064 0
-1.8505585 -2.6770494 -0.1787861 0
-1.7671719 -2.6492991 -0.1712606 0
-1.6608194 -2.645546 -0.16486253 0
-1.5242127 -2.6630723 -0.17345323 0
-1.4563704 -2.6349006 -0.19235536 0
-1.3677834 -2.6627972 -0.19042335 0
-1.2723204 -2.6249311 -0.18882258 0
-1.1378796 -2.6556244 -0.18651596 0
-1.0677143 -2.6588254 -0.18509413 0
-0.92699999 -2.658 -0.183 0
0.45829141 -2.661077 -0.17458853 0
0.5600642 -2.6737673 -0.15574753 0
0.63661772 -2.648639 -0.16969813 0
0.7688868 -2.6365912 -0.17509589 0
0.85041124 -2.6572065 -0.16190448 0
0.94190615 -2.6531825 -0.17718837 0
-1.7467351 -2.5282297 -0.18487166 0
-1.6125807 -2.5708787 -0.17100413 0
-1.5333657 -2.5543342 -0.15860209 0
-1.4493316 -2.5490234 -0.18242233 0
-1.3278556 -2.5838649 -0.18961556 0
-1.261044 -2.5249491 -0.18835953 0
-1.0604999 -2.5545001 -0.18450001 0
0.47499999 -2.586 -0.18000001 0
0.54894871 -2.5435739 -0.17491846 0
0.66085553 -2.552484 -0.16012448 0
0.7461651 -2.5529435 -0.17582192 0
0.85345793 -2.5362678 -0.15474415 0
0.91308844 -2.5678189 -0.1769903 0
-1.6948234 -2.4538198 -0.18791445 0
-1.5484104 -2.4707401 -0.17972149 0
-1.4237297 -2.4589062 -0.18174464 0
-1.3612155 -2.4405012 -0.18958314 0
-1.248 -2.4260001 -0.18799999 0
-1.196 -2.4649999 -0.18700001 0
0.56699997 -2.4419999 -0.178 0
0.65848559 -2.4427109 -0.17316721 0
0.72344339 -2.4692955 -0.17654794 0
0.85393214 -2.4673278 -0.16842517 0
-1.6429117 -2.3794098 -0.19095722 0
-1.5627828 -2.3504934 -0.18711539 0
-1.4709357 -2.3444102 -0.17983046 0
-1.3574443 -2.3438768 -0.18501413 0
-1.29 -2.339 -0.189 0
0.63600004 -2.3600001 -0.178 0
0.75781453 -2.3618746 -0.17132393 0
0.84104419 -2.3544095 -0.17649515 0
-1.5985775 -2.2020752 -0.19196564 0
-1.4218972 -2.2687068 -0.18613639 0
-1.3447766 -2.2458949 -0.18996589 0
0.69800001 -2.2709999 -0.178 0
0.78084111 -2.2552154 -0.17344205 0
-1.5436397 -2.1277354 -0.19063814 0
-1.3538853 -2.1435666 -0.18936673 0
-1.2574725 -2.1555963 -0.1879741 0
0.75150001 -2.1705 -0.176 0
-1.453562 -2.0671601 -0.1896725 0
-1.3477063 -2.0437651 -0.18857615 0
-1.270232 -2.0643997 -0.1874858 0
-1.1915942 -2.0416894 -0.18613392 0
0.77388757 -2.0021319 -0.16170819 0
0.80400002 -2.0840001 -0.175 0
-1.4492083 -1.9476179 -0.18861091 0
-1.3596334 -1.9346685 -0.18729299 0
-1.241619 -1.9648539 -0.18631074 0
-1.163415 -1.9403423 -0.18494883 0
0.74377513 -1.9202638 -0.14841637 0
-1.677 -1.811 -0.18700001 0
-1.4537854 -1.8357776 -0.18745035 0
-1.3645813 -1.8465154 -0.18649605 0
-1.2460654 -1.8559676 -0.18561585 0
-1.1186862 -1.8650067 -0.18371163 0
-1.0598377 -1.8138757 -0.18245357 0
0.71366274 -1.8383956 -0.13512456 0
-1.6528263 -1.7853987 -0.18666691 0
-1.5923481 -1.7213489 -0.18583354 0
-1.4798733 -1.7521583 -0.18550496 0
-1.3619816 -1.7610462 -0.18601133 0
-1.2863927 -1.7413152 -0.18459508 0
-1.1573771 -1.7518215 -0.18343233 0
-1.0519981 -1.7517023 -0.18186103 0
0.6835503 -1.7565274 -0.12183274 0
-1.6682178 -1.6391301 -0.18479729 0
-1.5318698 -1.657299 -0.18500018 0
-1.4375671 -1.6735946 -0.1845227 0
-1.3355637 -1.6446768 -0.18413854 0
-1.2460417 -1.6475002 -0.18336433 0
-1.1555445 -1.6455562 -0.18209767 0
-1.0563238 -1.6685708 -0.18126215 0
-0.98449999 -1.6389999 -0.18000001 0
0.65343785 -1.6746593 -0.10854094 0
1.2564992 -1.6516957 -0.16727188 0
1.302 -1.631 -0.168 0
-1.5518296 -1.5708971 -0.18354052 0
-1.4507059 -1.5510935 -0.18334322 0
-1.3454528 -1.5399568 -0.18321848 0
-1.2559168 -1.5445447 -0.18252884 0
-1.1506027 -1.5457977 -0.18135212 0
-1.0538429 -1.5657138 -0.18043487 0
1.1764991 -1.5451957 -0.16877189 0
1.2586609 -1.5506086 -0.16851307 0
1.321 -1.577 -0.168 0
1.9275358 -1.5487294 -0.16510746 0
-1.5342208 -1.4497293 -0.18233517 0
-1.4338782 -1.4521642 -0.18253875 0
-1.3529613 -1.4376242 -0.18200883 0
-1.2644898 -1.4451095 -0.18192424 0
-1.1757659 -1.4454192 -0.18103464 0
-1.0764999 -1.4584999 -0.17950001 0
1.1530079 -1.4415407 -0.16955018 0
1.2401747 -1.4789877 -0.16846451 0
1.3541179 -1.4452962 -0.16806078 0
1.7621667 -1.418468 -0.16583383 0
1.8326191 -1.4739635 -0.16552438 0
-1.5458976 -1.3512702 -0.18118139 0
-1.4584024 -1.3475164 -0.18128732 0
-1.3710276 -1.3340273 -0.18187714 0
-1.2452632 -1.3558282 -0.18115966 0
-1.1326666 -1.3583332 -0.18033333 0
1.147 -1.3660001 -0.169 0
1.267692 -1.351199 -0.16854279 0
1.3651148 -1.3675665 -0.16747247 0
1.402 -1.319 -0.167 0
1.6564882 -1.3352249 -0.166298 0
1.9525784 -1.3504778 -0.16518082 0
-1.757 -1.224 -0.18099999 0
-1.5823088 -1.2345414 -0.18090567 0
-1.4357886 -1.2534577 -0.18040191 0
-1.3384511 -1.2352582 -0.18039367 0
-1.2601131 -1.2479166 -0.18079133 0
-1.1765001 -1.2509999 -0.18000001 0
1.1884999 -1.2555001 -0.169 0
1.2632605 -1.2441716 -0.16828202 0
1.3527184 -1.2597636 -0.16738459 0
1.4227148 -1.2361255 -0.16706763 0
1.5508096 -1.2519817 -0.16676219 0
1.7528477 -1.2157413 -0.16636792 0
1.8266556 -1.2655315 -0.16592924 0
-2.5350001 -1.127 -0.189 0
-2.4797671 -1.1029369 -0.18837661 0
-1.732214 -1.1675434 -0.18079795 0
-1.6519028 -1.1272416 -0.18029276 0
-1.507894 -1.1756661 -0.18024907 0
-1.4441705 -1.1252496 -0.1796868 0
-1.358775 -1.1662433 -0.17973961 0
-1.2445878 -1.1413925 -0.17978176 0
1.2426375 -1.1524826 -0.16817781 0
1.3360722 -1.1401882 -0.16810146 0
1.4498036 -1.1483681 -0.16763431 0
1.6421357 -1.1410559 -0.16702595 0
1.7913268 -1.1153616 -0.16423565 0
1.8729541 -1.161726 -0.16314727 0
2.1667943 -1.1470865 -0.16507311 0
-2.3551521 -1.0486463 -0.18697011 0
-1.804 -1.073 -0.182 0
-1.7297782 -1.0349612 -0.18153611 0
-1.615 -1.0829999 -0.18000001 0
-1.5629692 -1.0923362 -0.17977712 0
-1.4924768 -1.0445021 -0.17933284 0
-1.3485854 -1.0496248 -0.17884341 0
-1.2359999 -1.059 -0.17900001 0
1.263 -1.0504999 -0.16850001 0
1.3568015 -1.066497 -0.16825835 0
1.4576159 -1.0165805 -0.16812263 0
1.5314238 -1.0663706 -0.16768396 0
1.6501633 -1.0351808 -0.16611782 0
1.7207451 -1.0752712 -0.16517673 0
1.9511917 -1.0348798 -0.16610965 0
2.07143 -1.0974557 -0.16553159 0
-2.2305369 -0.9943558 -0.18556362 0
-2.1474602 -0.95816207 -0.18462597 0
-2.0416918 -0.93648422 -0.18634415 0
-1.9818135 -0.9338876 -0.18839668 0
-1.6440001 -0.991 -0.18099999 0
-1.4219846 -0.9966681 -0.17888856 0
-1.3514923 -0.94883406 -0.17844428 0
-1.267 -0.9375 -0.178 0
1.284 -0.99199998 -0.169 0
1.3469039 -0.94189513 -0.16878065 0
1.5442908 -0.9750452 -0.16752946 0
1.7507944 -0.93058652 -0.1670731 0
1.8309534 -0.97230387 -0.16668773 0
1.936 -0.90700001 -0.163 0
-1.9415092 -0.89140069 -0.18492386 0
-1.8449979 -0.84104472 -0.18282861 0
-1.7415085 -0.82330477 -0.18449792 0
1.5503972 -0.82629323 -0.16803655 0
1.6706355 -0.88886923 -0.16745849 0
1.7440509 -0.81986952 -0.16431023 0
1.822861 -0.85564339 -0.16377228 0
1.9248356 -0.84720862 -0.16261716 0
2.125845 -0.82456887 -0.16447805 0
2.2215543 -0.86089647 -0.16405889 0
-1.923 -0.745 -0.178 0
-1.8280264 -0.7257719 -0.17844935 0
-1.7419546 -0.75128847 -0.1791079 0
-1.6552033 -0.76372188 -0.18109918 0
-1.5412542 -0.73115236 -0.18124896 0
1.35 -0.722 -0.169 0
1.4301589 -0.76371729 -0.16861463 0
1.5470254 -0.73043472 -0.16565511 0
1.6652406 -0.78409559 -0.16484818 0
1.7626102 -0.72865427 -0.16358182 0
1.8608932 -0.74584079 -0.16422853 0
1.9510574 -0.75334549 -0.16347106 0
2.0435812 -0.79334474 -0.16483833 0
-3.365 -0.62300003 -0.185 0
-3.2790875 -0.60702538 -0.18461038 0
-1.949749 -0.63931215 -0.17925 0
-1.8509016 -0.64470333 -0.17925793 0
-1.7309895 -0.65106374 -0.18011114 0
-1.668433 -0.67345333 -0.17931128 0
-1.5594162 -0.64919162 -0.17913908 0
-1.4325341 -0.63966882 -0.17947762 0
-1.341 -0.639 -0.178 0
1.35 -0.64099997 -0.167 0
1.4354661 -0.63845241 -0.1663892 0
1.5361221 -0.61913085 -0.16631636 0
1.653303 -0.6518659 -0.16516916 0
1.7629784 -0.66867495 -0.16549222 0
1.8625228 -0.64393687 -0.1634647 0
1.9536988 -0.6489504 -0.16235848 0
-3.1464062 -0.58235443 -0.18400866 0
-3.013725 -0.55768359 -0.18340692 0
-2.9252708 -0.54123628 -0.18300577 0
-2.8368168 -0.52478904 -0.18260461 0
-2.7483625 -0.50834179 -0.18220346 0
-1.9479927 -0.53466588 -0.18015115 0
-1.8601056 -0.55492979 -0.18032299 0
-1.7522554 -0.54424489 -0.18061341 0
-1.6624112 -0.58154917 -0.18090725 0
-1.5708816 -0.5687322 -0.18287633 0
-1.4509704 -0.52618307 -0.18446909 0
-1.367 -0.57300001 -0.18000001 0
1.362 -0.56800002 -0.167 0
1.4515235 -0.52358085 -0.1664556 0
1.5450234 -0.53808081 -0.1664556 0
1.6243984 -0.56454486 -0.16570787 0
1.7545555 -0.54877818 -0.16396372 0
1.8660715 -0.54880536 -0.16254112 0
1.9551685 -0.54939377 -0.16159481 0
-2.6599083 -0.49189451 -0.1818023 0
-2.5714543 -0.47544727 -0.18140115 0
-2.483 -0.45899999 -0.18099999 0
-1.9508142 -0.44318771 -0.1807058 0
-1.8306348 -0.44815603 -0.18089141 0
-1.7479079 -0.42782483 -0.18141313 0
-1.6715685 -0.45360929 -0.18156314 0
-1.5724247 -0.4048124 -0.18141752 0
1.3705001 -0.45899999 -0.1665 0
1.453509 -0.44787705 -0.16544718 0
1.5450089 -0.45687705 -0.16594717 0
1.6238918 -0.45836309 -0.16464411 0
1.7468982 -0.44763523 -0.16350707 0
1.8675723 -0.45487347 -0.16231149 0
1.9528108 -0.45115545 -0.16130964 0
-3.3679569 -0.30689779 -0.18799186 0
-2.0368609 -0.37002498 -0.18799502 0
-1.988 -0.34999999 -0.192 0
-1.8631738 -0.38698211 -0.1858948 0
-1.761 -0.366 -0.19 0
-1.6752248 -0.38876867 -0.18274342 0
-1.5511124 -0.35988432 -0.18387172 0
-1.4412374 -0.35880205 -0.18290292 0
1.3710001 -0.352 -0.16500001 0
1.4543756 -0.37312368 -0.16458033 0
1.5421563 -0.35707483 -0.16467129 0
1.6256499 -0.35610843 -0.16415754 0
1.7350589 -0.37229982 -0.16296999 0
1.8751541 -0.3869313 -0.16155963 0
1.948 -0.30700001 -0.16 0
-3.3469999 -0.227 -0.18700001 0
-3.2688298 -0.25921211 -0.1868034 0
-3.1791821 -0.25141075 -0.18610302 0
-3.0625389 -0.25296539 -0.18533182 0
-2.9189568 -0.26289779 -0.18449186 0
-2.8293655 -0.25411823 -0.18379349 0
-2.739774 -0.24533866 -0.18309511 0
-2.6501827 -0.23655911 -0.18239674 0
-2.5605912 -0.22777955 -0.18169837 0
-2.4683495 -0.21874666 -0.18105197 0
-2.3430343 -0.20676798 -0.18350913 0
1.3735 -0.248 -0.16500001 0
1.4575297 -0.26357728 -0.16434595 0
1.5434008 -0.24133207 -0.16353054 0
1.6276011 -0.25499809 -0.1627958 0
1.7539017 -0.27549714 -0.16169369 0
1.8679602 -0.25008339 -0.16092321 0
1.937699 -0.21373163 -0.16003425 0
-2.9463727 -0.19652724 -0.1838631 0
-2.8118167 -0.18629253 -0.18280953 0
-2.7221124 -0.17946939 -0.18210715 0
-2.6324084 -0.17264627 -0.18140477 0
-2.5427041 -0.16582313 -0.18070239 0
-2.4530001 -0.15899999 -0.18000001 0
-2.2230196 -0.19529599 -0.18586236 0
-2.1430097 -0.187648 -0.18743117 0
-2.063 -0.18000001 -0.189 0
1.5369999 -0.167 -0.16599999 0
1.6669506 -0.15480225 -0.16401862 0
1.7718787 -0.15158555 -0.1624316 0
1.8476251 -0.11405753 -0.16122948 0
1.9287658 -0.11991096 -0.16001841 0
-3.323 -0.072999999 -0.18799999 0
-3.237102 -0.070120737 -0.18713622 0
-3.1472018 -0.067107327 -0.18623219 0
-3.0573015 -0.06409391 -0.18532817 0
-2.9674015 -0.061080493 -0.18442415 0
-2.8775012 -0.05806708 -0.18352012 0
-2.787601 -0.055053666 -0.1826161 0
-2.6527505 -0.050533541 -0.18126006 0
-2.5179002 -0.046013419 -0.17990403 0
-2.4303334 -0.062000003 -0.17900001 0
-2.3629303 -0.068900719 -0.18059841 0
-2.2438941 -0.064437948 -0.18337399 0
-2.1248574 -0.059975181 -0.1861496 0
-2.0455 -0.057 -0.18799999 0
1.528 -0.090999998 -0.16599999 0
1.6079063 -0.096764386 -0.16480736 0
-2.734 0.098999999 -0.171 0
-2.6744316 0.097912699 -0.17247562 0
-2.5860026 0.096298613 -0.17466617 0
-2.4359062 0.066918321 -0.17796798 0
-2.3493977 0.060482882 -0.17897555 0
-2.2573979 0.056732878 -0.18197556 0
-2.1511528 0.04911691 -0.18502343 0
-2.0424764 0.05453803 -0.18826981 0
-1.967 0.085000001 -0.19 0
1.493 0.054000001 -0.164 0
1.5754433 0.059727632 -0.16347931 0
1.6578864 0.065455265 -0.16295862 0
1.7403296 0.071182892 -0.16243792 0
1.8227727 0.076910526 -0.16191722 0
1.9366081 0.084819078 -0.16119826 0
-2.7079999 0.162 -0.171 0
-2.6374025 0.15659344 -0.1728715 0
-2.550488 0.14993723 -0.17517558 0
-2.4635735 0.14328103 -0.17747965 0
-2.3396654 0.16424187 -0.17692487 0
-2.2410254 0.1417022 -0.18174094 0
-2.1347916 0.14160329 -0.1840957 0
-2.0529172 0.1356376 -0.18662387 0
-2 0.156 -0.18700001 0
1.4645 0.1595 -0.163 0
1.5560579 0.13456184 -0.16247845 0
1.6381159 0.14412369 -0.16195689 0
1.720174 0.15368553 -0.16143534 0
1.8432609 0.1680283 -0.160653 0
1.946 0.18000001 -0.16 0
-3.21438 0.29970968 -0.18225689 0
-3.1240001 0.292 -0.183 0
-2.3169999 0.26050001 -0.175 0
-2.2543476 0.25407553 -0.1773672 0
-2.13977 0.24225745 -0.18170983 0
-2.063385 0.23437871 -0.18460491 0
-1.9840001 0.24999999 -0.18766665 0
1.5365109 0.20770077 -0.16230629 0
1.6587772 0.22825193 -0.16126573 0
1.7810438 0.24880309 -0.16022515 0
1.8625546 0.26250386 -0.15953144 0
1.925 0.273 -0.15899999 0
2.0145228 0.28540432 -0.15794227 0
2.1040454 0.29780868 -0.15688452 0
-4.0623999 0.37204847 -0.17528448 0
-3.9374194 0.36138725 -0.17631207 0
-3.8470395 0.35367757 -0.17705517 0
-3.7566595 0.34596786 -0.17779827 0
-3.6662798 0.33825818 -0.17854138 0
-3.5758998 0.33054847 -0.17928448 0
-3.4855199 0.32283878 -0.18002759 0
-3.351619 0.33779418 -0.18079145 0
-3.2646387 0.38055605 -0.18072662 0
-3.1743193 0.37027803 -0.1813633 0
-3.0840001 0.36000001 -0.182 0
-2.2495198 0.35545623 -0.17413597 0
-2.1507308 0.35653695 -0.17839892 0
-2.0554247 0.3446576 -0.18156248 0
-1.9515538 0.3448599 -0.1824781 0
-1.8393577 0.37657627 -0.17354386 0
-1.749 0.37900001 -0.17299999 0
1.896 0.36199999 -0.15800001 0
1.9849879 0.37807521 -0.15723452 0
2.0739758 0.39415044 -0.15646903 0
2.1935682 0.310213 -0.15582679 0
2.2830911 0.32261735 -0.15476906 0
2.3726137 0.33502167 -0.15371133 0
2.4621365 0.347426 -0.15265359 0
2.5516591 0.35983035 -0.15159586 0
2.6411819 0.37223467 -0.15053813 0
2.7307048 0.38463902 -0.1494804 0
2.8202274 0.39704335 -0.14842266 0
-4.0770001 0.47299999 -0.175 0
-3.9871926 0.46278021 -0.17563309 0
-3.8517137 0.4473632 -0.17658812 0
-3.7162349 0.43194616 -0.17754316 0
-3.6259155 0.42166814 -0.17817985 0
-3.5355964 0.41139013 -0.17881654 0
-3.4452772 0.40111208 -0.17945322 0
-2.528131 0.45408827 -0.16642959 0
-2.4285104 0.43457988 -0.16930789 0
-2.3437586 0.41798323 -0.17175657 0
-2.2336674 0.44295865 -0.17284077 0
-2.139116 0.44767708 -0.17276314 0
-2.0403857 0.45202389 -0.17263158 0
-1.942345 0.44383106 -0.17266667 0
-1.8263075 0.47148007 -0.1719109 0
-1.747 0.45050001 -0.17200001 0
-1.4630001 0.49700001 -0.17399999 0
1.86 0.449 -0.156 0
1.947917 0.46870211 -0.15540597 0
2.0358338 0.48840421 -0.15481193 0
2.1629636 0.41022566 -0.15570354 0
2.2519515 0.42630088 -0.15493806 0
2.3409395 0.44237614 -0.15417257 0
2.4299273 0.45845136 -0.15340708 0
2.5189152 0.47452658 -0.15264159 0
2.607903 0.49060181 -0.15187611 0
2.8559999 0.40200001 -0.148 0
-3.1397858 0.59092951 -0.17888303 0
-3.0508928 0.57296479 -0.17944151 0
-2.9619999 0.55500001 -0.18000001 0
-2.2060001 0.54400003 -0.17200001 0
-2.1530249 0.567267 -0.17136966 0
-2.06423 0.53442037 -0.17164358 0
-1.9485834 0.56935388 -0.1705779 0
-1.8551192 0.5501945 -0.17088984 0
-1.7451131 0.53951538 -0.17112276 0
-1.671369 0.55998188 -0.17084329 0
-1.5495534 0.52447289 -0.17326494 0
2.1237507 0.50810629 -0.1542179 0
2.2556262 0.53765947 -0.15332685 0
2.3875015 0.56721264 -0.15243581 0
2.4754183 0.58691472 -0.15184177 0
2.6968908 0.50667703 -0.15111062 0
2.7858787 0.52275229 -0.15034513 0
2.826 0.52999997 -0.15000001 0
-3.6731439 0.69871807 -0.17553207 0
-3.5842509 0.68075335 -0.17609057 0
-3.4509115 0.65380621 -0.17692831 0
-3.3175719 0.62685907 -0.17776604 0
-3.2286789 0.60889429 -0.17832454 0
-2.2356014 0.67903471 -0.16766723 0
-2.1294804 0.65012628 -0.16962102 0
-2.0500014 0.64715588 -0.16964836 0
-1.9531096 0.66129363 -0.16957466 0
-1.8397731 0.64088547 -0.17000389 0
-1.7423 0.6551463 -0.16954191 0
-1.6585 0.64750004 -0.16949999 0
-1.4238919 0.68745339 -0.16787314 0
-1.346 0.648 -0.168 0
1.595 0.68900001 -0.154 0
2.5633352 0.6066168 -0.15124774 0
2.6512523 0.62631893 -0.15065371 0
2.7435846 0.64701051 -0.15002984 0
-3.9170001 0.74800003 -0.17399999 0
-3.8509297 0.73464763 -0.1744151 0
-3.7620368 0.71668285 -0.17497359 0
-2.4123783 0.75657099 -0.16607432 0
-2.3239508 0.7388013 -0.16679725 0
-2.2419801 0.74425584 -0.16738445 0
-2.1554265 0.71678299 -0.16811952 0
-2.0699453 0.75130373 -0.16901946 0
-1.9608562 0.76504958 -0.16912043 0
-1.8570739 0.73363876 -0.16935037 0
-1.7399454 0.75344896 -0.16943175 0
-1.6358966 0.73980278 -0.16920607 0
-1.5524864 0.75575566 -0.16778857 0
-1.4548579 0.79256463 -0.16574305 0
-1.3409644 0.72839117 -0.16593575 0
-1.263 0.76700002 -0.16500001 0
1.2214999 0.73699999 -0.15800001 0
1.3480268 0.77172011 -0.15614423 0
1.5515 0.75849998 -0.153 0
1.6646042 0.74428523 -0.1528154 0
1.7577465 0.76403379 -0.15275291 0
2.6765001 0.7295 -0.149 0
2.7587709 0.75192875 -0.13769948 0
2.8540676 0.74639153 -0.12863299 0
2.9361014 0.76958728 -0.11844948 0
3.0181353 0.79278308 -0.10826597 0
-2.0242176 0.84578574 -0.16853923 0
-1.9265212 0.83253056 -0.16848466 0
-1.8393347 0.85869139 -0.16751215 0
-1.7295322 0.8475998 -0.16754806 0
-1.6367322 0.83640015 -0.16719343 0
-1.5438935 0.82317346 -0.16730729 0
-1.4542396 0.86557096 -0.16586949 0
-1.3374709 0.83621609 -0.16566177 0
-1.2533553 0.84748262 -0.16544026 0
1.1585 0.861 -0.1585 0
1.248147 0.84068072 -0.1568341 0
1.3571492 0.87188792 -0.15478259 0
1.4673511 0.86348009 -0.15342949 0
1.5297378 0.87958694 -0.15305127 0
1.6518519 0.85826647 -0.15201989 0
1.7346705 0.80110699 -0.15150869 0
1.8513222 0.84030843 -0.15096992 0
1.9204929 0.83906758 -0.1515058 0
2.0018661 0.87658447 -0.15088226 0
2.569 0.861 -0.149 0
2.6478844 0.88623661 -0.13423896 0
2.8280151 0.80232334 -0.12416495 0
2.9105227 0.82398504 -0.11174743 0
-1.9603348 0.94986612 -0.16641328 0
-1.8742752 0.93860155 -0.16643076 0
-1.7462338 0.95891243 -0.16591163 0
-1.6507359 0.95676666 -0.16517983 0
-1.5436302 0.94743347 -0.16496506 0
-1.4468731 0.9322027 -0.16479042 0
-1.3417782 0.94100958 -0.16513295 0
-1.2590113 0.99108684 -0.16512972 0
-1.1719999 0.94550002 -0.1645 0
1.094 0.99000001 -0.15899999 0
1.1632776 0.9555006 -0.15930057 0
1.2499963 0.94809198 -0.15690142 0
1.3735514 0.97960949 -0.15443271 0
1.4315 0.94700003 -0.15349999 0
1.5496297 0.92436099 -0.1523363 0
1.632762 0.95801449 -0.15143405 0
1.7403519 0.95426643 -0.15051991 0
1.8516052 0.96537709 -0.15038641 0
1.9801763 0.91826755 -0.14927174 0
2.0726256 0.93571121 -0.1493924 0
2.1542296 0.9739964 -0.14870779 0
2.2459857 0.98913515 -0.14901161 0
2.7267685 0.91147321 -0.11947791 0
2.8056529 0.93670988 -0.10471687 0
-2.201 1.095 -0.163 0
-2.1600165 1.0739509 -0.16332787 0
-2.0432131 1.0139607 -0.16426229 0
-1.927 1 -0.16599999 0
-1.8585413 1.04914 -0.16454671 0
-1.7541147 1.0549966 -0.16432409 0
-1.657899 1.0731126 -0.16361748 0
-1.5476785 1.0355614 -0.16413809 0
-1.4469652 1.0500926 -0.1629885 0
-1.349514 1.0651085 -0.16391215 0
-1.2398266 1.0423728 -0.16322769 0
-1.1345229 1.0340856 -0.16360259 0
-1.0650001 1.0700001 -0.162 0
0.91299999 1.054 -0.15899999 0
1.0456667 1.0413333 -0.15800001 0
1.1567351 1.0646766 -0.15729797 0
1.2723875 1.0495031 -0.15650287 0
1.3504802 1.0496157 -0.15494849 0
1.4697837 1.0499364 -0.15327422 0
1.5690976 1.0675527 -0.15245731 0
1.6568412 1.0448813 -0.15150261 0
1.7607113 1.0447637 -0.15056767 0
1.8754935 1.094339 -0.14968763 0
1.9315064 1.0082214 -0.14973301 0
2.0513585 1.0724878 -0.1487529 0
2.2256823 1.035428 -0.14703478 0
2.3376255 1.050378 -0.14755906 0
-1.8279999 1.12 -0.164 0
-1.7687687 1.1485753 -0.16254526 0
-1.6509852 1.1793356 -0.16275372 0
-1.5814877 1.1289463 -0.16346143 0
-1.4382 1.1611598 -0.16190851 0
-1.36731 1.1500722 -0.16188444 0
-1.2563901 1.1468607 -0.16190785 0
-1.1458371 1.1522875 -0.16204855 0
-1.0455823 1.1563119 -0.16276945 0
-0.972 1.184 -0.16 0
-0.72399998 1.198 -0.15899999 0
0.85150003 1.1389999 -0.1595 0
0.95623326 1.1572254 -0.15962361 0
1.0437913 1.1452862 -0.15897544 0
1.1416683 1.1376131 -0.15755479 0
1.2614179 1.1627756 -0.15588884 0
1.3407968 1.1446451 -0.15540509 0
1.462357 1.153213 -0.15398556 0
1.5517964 1.1667411 -0.15229949 0
1.6711147 1.11034 -0.15141016 0
1.7446808 1.1604037 -0.15059169 0
1.8430265 1.1656621 -0.14953926 0
1.9352784 1.161166 -0.14901781 0
2.0308909 1.1872746 -0.14836268 0
2.1712103 1.1367542 -0.1477728 0
2.267056 1.1577992 -0.1475597 0
2.3747489 1.1543784 -0.14642037 0
2.4489999 1.142 -0.145 0
-1.9324228 1.2650906 -0.16057377 0
-1.8611857 1.2174089 -0.16114481 0
-1.7227414 1.2313623 -0.16202301 0
-1.5565519 1.2471377 -0.16095807 0
-1.447456 1.2571087 -0.16064 0
-1.3379058 1.2700905 -0.15998757 0
-1.2422818 1.2546469 -0.16035505 0
-1.1300666 1.2677377 -0.16077381 0
-1.0455835 1.2442505 -0.16079354 0
-0.93400002 1.2566667 -0.16133334 0
-0.87099999 1.298 -0.15899999 0
-0.76649034 1.2719538 -0.15797082 0
-0.68099999 1.2589999 -0.16 0
0.7525 1.237 -0.1575 0
0.85612613 1.2640783 -0.15867947 0
0.94659746 1.2624674 -0.15883209 0
1.0447893 1.2626693 -0.15869087 0
1.1518844 1.2652855 -0.15735765 0
1.238633 1.2371188 -0.15696092 0
1.3340979 1.267784 -0.15489836 0
1.446781 1.2568707 -0.15443049 0
1.554857 1.261713 -0.15298556 0
1.6485131 1.2723105 -0.15178701 0
1.791244 1.2228816 -0.1501433 0
1.8652928 1.274658 -0.14937195 0
1.9678911 1.2569797 -0.148185 0
2.0704861 1.2780334 -0.14768064 0
2.1642926 1.2456508 -0.14791264 0
2.2522817 1.2518733 -0.14746009 0
2.3411441 1.2635473 -0.14584655 0
2.431 1.204 -0.146 0
-2.00383 1.3128862 -0.16000137 0
-1.6288738 1.3264004 -0.16000725 0
-1.5530938 1.370779 -0.15891901 0
-1.4865501 1.3540561 -0.15846215 0
-1.3366487 1.3396316 -0.15863802 0
-1.2663207 1.365224 -0.15824398 0
-1.1622074 1.3492068 -0.15899007 0
-1.0498438 1.342641 -0.15957993 0
-0.9500981 1.3454766 -0.15883683 0
-0.83249032 1.3454537 -0.15897082 0
-0.75793159 1.3594984 -0.15856558 0
-0.64947903 1.3504035 -0.15923747 0
-0.57800001 1.3660001 -0.16 0
0.64649999 1.3345001 -0.15650001 0
0.74857992 1.3747064 -0.1565707 0
0.84615773 1.3615322 -0.15796582 0
0.94265491 1.3645228 -0.15816905 0
1.0593308 1.3685839 -0.15690675 0
1.1235144 1.3406624 -0.15778773 0
1.2341577 1.3573997 -0.15642063 0
1.3742213 1.3435203 -0.15553737 0
1.4492918 1.3779778 -0.15365769 0
1.5359112 1.3608493 -0.15350224 0
1.6418802 1.368366 -0.15200517 0
1.7193915 1.328263 -0.15110876 0
1.8021111 1.3595788 -0.14991878 0
1.9393417 1.3264343 -0.14860061 0
2.0389447 1.3606585 -0.14731777 0
2.1423144 1.3588727 -0.14647818 0
2.2437973 1.3506098 -0.14636303 0
2.3080001 1.353 -0.146 0
-1.4480991 1.4502542 -0.15725869 0
-1.3096466 1.4432383 -0.15738906 0
-1.2260678 1.4287835 -0.15782166 0
-1.1624721 1.4573579 -0.15788169 0
-1.0492646 1.4563986 -0.15763895 0
-0.95793891 1.450634 -0.15803684 0
-0.84558797 1.4646279 -0.15676059 0
-0.74391061 1.4329021 -0.15755305 0
-0.61325592 1.4441886 -0.15843622 0
-0.52399999 1.424 -0.16 0
-0.465 1.478 -0.16 0
0.57464588 1.4363369 -0.15514502 0
0.66526318 1.4537319 -0.155 0
0.75611097 1.4655222 -0.15548839 0
0.84572983 1.4652917 -0.15587179 0
0.93723994 1.4603872 -0.15622194 0
1.0160418 1.4206063 -0.15704103 0
1.1579336 1.4339421 -0.15696913 0
1.2629242 1.4576821 -0.15634137 0
1.3544731 1.4921993 -0.1552619 0
1.4540052 1.4567728 -0.15461628 0
1.5469499 1.4499458 -0.15358591 0
1.6489525 1.4366769 -0.15207624 0
1.7455105 1.4523989 -0.15108135 0
1.8611479 1.4401683 -0.14975226 0
1.9451482 1.4697719 -0.14855838 0
2.0874393 1.429987 -0.14705792 0
2.1614881 1.4817632 -0.14628658 0
2.2305548 1.4279362 -0.14535834 0
-1.3653893 1.5394683 -0.15622155 0
-1.2562245 1.5472814 -0.15594782 0
-1.1261669 1.5456651 -0.15566765 0
-1.0395722 1.5511949 -0.155563 0
-0.94826317 1.5622734 -0.15609781 0
-0.83923721 1.5624319 -0.15569046 0
-0.74446285 1.5416228 -0.15636335 0
-0.64817065 1.5307924 -0.15662415 0
-0.57029694 1.5484338 -0.15759049 0
-0.43934828 1.5481911 -0.15917043 0
-0.3545 1.5685 -0.1595 0
0.36300001 1.5805 -0.156 0
0.43467176 1.5537965 -0.15530743 0
0.54250002 1.567 -0.154 0
0.64489913 1.5652266 -0.1550003 0
0.75342286 1.5672801 -0.15575051 0
0.85996515 1.5410255 -0.15494627 0
0.97821879 1.5545248 -0.15561415 0
1.0717233 1.5000563 -0.15651661 0
1.1598241 1.5466583 -0.15603411 0
1.2698007 1.5758264 -0.15590739 0
1.4283154 1.5442996 -0.15434127 0
1.5442477 1.5533186 -0.15341444 0
1.6433227 1.5418777 -0.15245341 0
1.7432547 1.5595284 -0.15120053 0
1.8416405 1.5350983 -0.15001553 0
1.9540234 1.5508744 -0.14925149 0
2.0524261 1.5524164 -0.14753807 0
2.1489999 1.5485001 -0.14649999 0
-1.5160612 1.6723312 -0.15580912 0
-1.4374399 1.6208445 -0.15581134 0
-1.3395076 1.6229215 -0.15476768 0
-1.2471982 1.6624854 -0.15439676 0
-1.1649033 1.6288285 -0.1546804 0
-1.0587882 1.635878 -0.15493155 0
-0.97096068 1.655421 -0.15298969 0
-0.85965508 1.6539013 -0.15423802 0
-0.75390923 1.6524519 -0.1546791 0
-0.64358127 1.6420957 -0.15617688 0
-0.52744704 1.6327211 -0.15732171 0
-0.46471378 1.658249 -0.15657975 0
-0.35164663 1.6468252 -0.15794334 0
-0.2625497 1.6637291 -0.15920888 0
-0.197 1.6900001 -0.15899999 0
0.24000001 1.6703334 -0.156 0
0.34756699 1.6467259 -0.15560295 0
0.43454581 1.6659126 -0.15424123 0
0.55407739 1.6693063 -0.15575407 0
0.64146346 1.624941 -0.15533334 0
0.73716891 1.6613394 -0.15424952 0
0.84179044 1.6300656 -0.15467335 0
0.93407404 1.667578 -0.15425652 0
1.0481199 1.6531404 -0.15509947 0
1.1830851 1.6515844 -0.15427491 0
1.3484896 1.6405123 -0.15491769 0
1.4622395 1.6591203 -0.1538156 0
1.5476099 1.6730539 -0.15331838 0
1.6434385 1.6502923 -0.15257308 0
1.7392031 1.6312211 -0.15136072 0
1.8405418 1.6473324 -0.15010625 0
1.9300176 1.6474414 -0.14897898 0
2.0504959 1.6553764 -0.14819819 0
-1.5573196 1.7565334 -0.15543404 0
-1.4553719 1.7212877 -0.1545212 0
-1.3633679 1.7354236 -0.15372431 0
-1.2698532 1.7592971 -0.15340689 0
-1.1408 1.734 -0.15360001 0
-1.0404363 1.750311 -0.15330791 0
-0.94485009 1.7533119 -0.15335569 0
-0.86178738 1.7609419 -0.15322562 0
-0.74350548 1.7450317 -0.15273438 0
-0.65702671 1.7585096 -0.15344349 0
-0.57982051 1.7074474 -0.15569367 0
-0.43149999 1.7255001 -0.155 0
-0.34818104 1.7571507 -0.15510912 0
-0.24899477 1.7542458 -0.1564372 0
-0.14010677 1.7494054 -0.15762869 0
-0.037999999 1.768 -0.15700001 0
0.065500006 1.7690001 -0.155 0
0.16500001 1.719 -0.156 0
0.2685892 1.7612063 -0.15520011 0
0.36501488 1.7321318 -0.15476571 0
0.44350588 1.7492338 -0.15423448 0
0.53314495 1.7523148 -0.15545109 0
0.65105706 1.7379103 -0.15466283 0
0.73067164 1.7616659 -0.1536195 0
0.84362859 1.7350483 -0.15428771 0
0.96374547 1.7678263 -0.15277359 0
1.0749664 1.7596313 -0.15465027 0
1.1357428 1.7514491 -0.15285613 0
1.2675042 1.7662636 -0.15333951 0
1.3615032 1.7340096 -0.15458754 0
1.4302156 1.7365527 -0.15481412 0
1.5502423 1.7581408 -0.15300027 0
1.6489789 1.7437407 -0.15244766 0
1.7573851 1.7260811 -0.15114948 0
1.867372 1.7520711 -0.14987727 0
1.9806828 1.7594029 -0.14841306 0
2.0439999 1.704 -0.148 0
4.7870002 1.7460001 -0.131 0
4.8261204 1.7827256 -0.12541135 0
-1.6661377 1.8414953 -0.15557054 0
-1.5707438 1.8580755 -0.1535424 0
-1.4461298 1.8390054 -0.15311928 0
-1.3428763 1.8279265 -0.15237336 0
-1.2348827 1.8780594 -0.15335847 0
-1.1572669 1.838766 -0.1540347 0
-1.0515546 1.8529621 -0.15236023 0
-0.92814666 1.8549131 -0.15135093 0
-0.83425438 1.8603878 -0.15038356 0
-0.75903827 1.8457288 -0.15178469 0
-0.67205209 1.8290257 -0.15304226 0
-0.53799999 1.8525 -0.155 0
-0.42500001 1.864 -0.155 0
-0.36415955 1.8590082 -0.15412754 0
-0.24725457 1.8550348 -0.15344849 0
-0.15340772 1.8633202 -0.15471849 0
-0.052845471 1.8515594 -0.15540776 0
0.052687824 1.8526677 -0.15480667 0
0.16731122 1.8487545 -0.15543213 0
0.24351673 1.8545094 -0.15474683 0
0.3438437 1.8473848 -0.15455781 0
0.44486874 1.8463951 -0.15369633 0
0.5485158 1.8537961 -0.154991 0
0.64772004 1.8533591 -0.15435489 0
0.77013183 1.8624474 -0.15402769 0
0.85278857 1.8553813 -0.15378895 0
0.92959481 1.8709222 -0.15245984 0
1.0365596 1.8497405 -0.15252902 0
1.167094 1.8626238 -0.15407075 0
1.2175827 1.8460851 -0.15211269 0
1.347285 1.8642347 -0.15279777 0
1.4441543 1.8414125 -0.15386379 0
1.5382183 1.8298504 -0.1532647 0
1.6360116 1.8550824 -0.15223862 0
1.7499748 1.8764992 -0.15163563 0
1.8492476 1.8605412 -0.15035327 0
1.9305898 1.826046 -0.14906144 0
-1.7371395 1.9600668 -0.1548681 0
-1.6582462 1.9091165 -0.15459068 0
-1.574753 1.9614505 -0.15113153 0
-1.4461406 1.9484411 -0.15196356 0
-1.3547574 1.918038 -0.15288059 0
-1.2473459 1.9641515 -0.15316115 0
-1.1284935 1.9566453 -0.15229462 0
-1.0453817 1.9600308 -0.151926 0
-0.94874793 1.9280852 -0.15099359 0
-0.82947427 1.9405173 -0.15046775 0
-0.74371749 1.9512895 -0.15036371 0
-0.66715407 1.9273769 -0.15260093 0
-0.5638715 1.9386966 -0.15414983 0
-0.42868423 1.9486427 -0.15329099 0
-0.32713372 1.9511232 -0.15399855 0
-0.24020243 1.9508681 -0.15329182 0
-0.14817631 1.9569937 -0.15332547 0
-0.055379465 1.9409505 -0.15431048 0
0.055673644 1.9424653 -0.15392654 0
0.16939589 1.96246 -0.1546074 0
0.27123699 1.9717547 -0.15489879 0
0.3570776 1.9384674 -0.15489933 0
0.46191201 1.9356203 -0.15391938 0
0.54430825 1.9491869 -0.15467069 0
0.65301639 1.9419351 -0.15468702 0
0.75410193 1.9549547 -0.15358651 0
0.84512609 1.9590654 -0.15335482 0
0.95565701 1.9512984 -0.15256353 0
1.065609 1.9318802 -0.15180966 0
1.1439344 1.9623652 -0.1521647 0
1.2568544 1.9195772 -0.1526739 0
1.3420432 1.9650365 -0.15251675 0
1.4268568 1.9491608 -0.15234253 0
1.5494685 1.930537 -0.15325302 0
1.6506751 1.9633744 -0.15221348 0
1.7862885 1.975999 -0.15110315 0
1.842 1.944 -0.15099999 0
-1.8462296 2.0444922 -0.15528423 0
-1.7438016 2.0632572 -0.15207419 0
-1.6293037 2.0306406 -0.15035783 0
-1.5396135 2.0566788 -0.15190785 0
-1.4556843 2.0617349 -0.15222599 0
-1.3400935 2.0399001 -0.15300968 0
-1.2242445 2.070091 -0.15203531 0
-1.1528567 2.049176 -0.15110083 0
-1.0493364 2.0445099 -0.15114656 0
-0.96483648 2.0456839 -0.14939582 0
-0.86882931 2.0458117 -0.15086302 0
-0.76128691 2.0618634 -0.15001591 0
-0.66720748 2.0315709 -0.15097202 0
-0.56575876 2.0307398 -0.15317956 0
-0.44770893 2.0367775 -0.15245441 0
-0.34276742 2.0392466 -0.15299709 0
-0.25090486 2.0392363 -0.15208364 0
-0.15485263 2.0449874 -0.15215093 0
-0.057913452 2.0303416 -0.1532132 0
0.036629751 2.0348237 -0.15324287 0
0.14960112 2.0544758 -0.15351154 0
0.24836321 2.0684083 -0.15382957 0
0.36284414 2.0385137 -0.15456565 0
0.44749188 2.0543706 -0.1529083 0
0.54982263 2.0494206 -0.15375829 0
0.63008541 2.0716121 -0.15463735 0
0.73750496 2.0437949 -0.15340753 0
0.84824944 2.0546274 -0.15255402 0
0.95588183 2.0309336 -0.15270232 0
1.0482067 2.0453026 -0.15095456 0
1.1533836 2.0571806 -0.15105753 0
1.2541788 2.0355239 -0.1529972 0
1.3539146 2.0644829 -0.15249164 0
1.4461912 2.0459719 -0.15235233 0
1.536254 2.053808 -0.15223438 0
1.6613357 2.0724211 -0.15219128 0
1.7273808 2.0384834 -0.15138943 0
-1.9362754 2.1459908 -0.15514106 0
-1.8677185 2.147198 -0.15360415 0
-1.7586035 2.1766803 -0.14887363 0
-1.6317358 2.1451902 -0.15078498 0
-1.5354732 2.1497576 -0.15100545 0
-1.4279813 2.1641777 -0.15207545 0
-1.3487561 2.1537342 -0.15095338 0
-1.2687222 2.1456137 -0.15162748 0
-1.1721271 2.1535935 -0.15080528 0
-1.0503931 2.155478 -0.15007786 0
-0.93131626 2.1218791 -0.14996344 0
-0.85101402 2.1416249 -0.15058702 0
-0.76019603 2.1483991 -0.14911078 0
-0.65402305 2.1480811 -0.15223461 0
-0.59063816 2.1171098 -0.15226933 0
-0.4667336 2.1249123 -0.15161785 0
-0.35840118 2.1273701 -0.15199563 0
-0.26160726 2.1276045 -0.15087548 0
-0.16152892 2.1329811 -0.15097639 0
-0.068467684 2.1463726 -0.15173049 0
0.031406611 2.1488507 -0.15212868 0
0.1564399 2.1444638 -0.15270205 0
0.25939497 2.1569288 -0.15296741 0
0.34313139 2.1397331 -0.15253852 0
0.4524931 2.1721132 -0.15229219 0
0.55133164 2.1593645 -0.15145792 0
0.65313154 2.1480057 -0.15357471 0
0.75900507 2.1579673 -0.15310785 0
0.86479765 2.146168 -0.15308984 0
0.96364421 2.1446571 -0.1513744 0
1.057807 2.1554012 -0.15148026 0
1.154471 2.1764176 -0.15067253 0
1.2480977 2.1466651 -0.15199254 0
1.355969 2.170723 -0.15252736 0
1.4477067 2.1484678 -0.15216903 0
1.5518121 2.1733572 -0.15191241 0
1.6213511 2.1409254 -0.15200102 0
-2.0250001 2.2460001 -0.155 0
-1.9832662 2.2519631 -0.15374233 0
-1.7279999 2.2474999 -0.15099999 0
-1.6569651 2.2377779 -0.152 0
-1.5622064 2.2288527 -0.15155037 0
-1.4496793 2.2652736 -0.15124123 0
-1.3441038 2.248888 -0.15099055 0
-1.2592505 2.2444258 -0.15022582 0
-1.1552179 2.2619815 -0.14995606 0
-1.0303236 2.2630932 -0.14836839 0
-0.94136906 2.2322667 -0.14835012 0
-0.83114845 2.2469294 -0.15113223 0
-0.75420856 2.2533529 -0.14905864 0
-0.6500777 2.256815 -0.15095249 0
-0.5079211 2.2130113 -0.15128711 0
-0.43211836 2.2135997 -0.15101233 0
-0.32089663 2.239548 -0.14880492 0
-0.24239212 2.2252676 -0.15070099 0
-0.15992199 2.2442217 -0.14949961 0
-0.06516996 2.2534552 -0.15051359 0
0.039961219 2.2588644 -0.15085447 0
0.15231845 2.2501595 -0.15149619 0
0.25225133 2.2487466 -0.15166864 0
0.35463244 2.2441144 -0.15171859 0
0.45908415 2.2565916 -0.15155634 0
0.55029488 2.2463772 -0.15079448 0
0.64176881 2.2459159 -0.15186417 0
0.73137432 2.2651892 -0.15188913 0
0.8497709 2.246994 -0.1520296 0
0.94498938 2.2434924 -0.15047456 0
1.0603224 2.2480519 -0.15152889 0
1.1587925 2.250247 -0.15038402 0
1.2586435 2.248858 -0.15107147 0
1.3622229 2.2660258 -0.15310359 0
1.4445642 2.2365007 -0.1523094 0
1.5179726 2.2513063 -0.15230049 0
1.6163737 2.2338676 -0.15136708 0
-1.351745 2.3434846 -0.15047497 0
-1.2509445 2.3156378 -0.14997754 0
-1.1670763 2.3490644 -0.14871134 0
-1.0668554 2.3427649 -0.14774299 0
-0.98628336 2.3824162 -0.14621238 0
-0.86317807 2.3316154 -0.1506587 0
-0.75755799 2.3707519 -0.1493766 0
-0.66527635 2.3762193 -0.14953867 0
-0.53901649 2.3438902 -0.14989479 0
-0.45760289 2.3465714 -0.14984414 0
-0.35417309 2.3603861 -0.14778602 0
-0.22969887 2.3204031 -0.14886782 0
-0.14982662 2.3782582 -0.14767422 0
-0.059414845 2.3615081 -0.14918043 0
0.041653462 2.348537 -0.14992535 0
0.15409821 2.3695221 -0.15028337 0
0.24412751 2.3336375 -0.15121885 0
0.34742358 2.324007 -0.15154825 0
0.45117491 2.3576334 -0.15062088 0
0.55167091 2.3416295 -0.14939156 0
0.65428919 2.3311267 -0.15085864 0
0.74985105 2.357969 -0.15065423 0
0.86302626 2.3563237 -0.15078327 0
0.95682973 2.3545272 -0.15082379 0
1.0542367 2.342392 -0.14989446 0
1.157333 2.3536334 -0.15062049 0
1.2486475 2.3360839 -0.15062514 0
1.3429208 2.3306272 -0.15218021 0
1.5708995 2.3315554 -0.1525 0
1.6482728 2.3316131 -0.15158148 0
1.712 2.3640001 -0.15099999 0
-1.4422739 2.4611259 -0.15008876 0
-1.3405635 2.474225 -0.14869438 0
-1.2384572 2.4208086 -0.14860809 0
-1.1485093 2.4450514 -0.14818744 0
-1.074 2.434 -0.146 0
-0.94074893 2.4500582 -0.15019265 0
-0.84330016 2.4432268 -0.14905387 0
-0.74804604 2.4491622 -0.14946923 0
-0.69015574 2.4625893 -0.14862844 0
-0.54283237 2.4774506 -0.14827159 0
-0.45062208 2.4789548 -0.14931113 0
-0.36294883 2.4763539 -0.14601368 0
-0.2503545 2.4359286 -0.1473365 0
-0.15629773 2.4658012 -0.14645326 0
-0.070583418 2.4772966 -0.14772679 0
0.043345708 2.43821 -0.14899626 0
0.1599835 2.4592719 -0.14947909 0
0.22973058 2.4269173 -0.15051165 0
0.35018381 2.4409697 -0.15025532 0
0.44191971 2.4621248 -0.14983116 0
0.5473882 2.4395514 -0.1487755 0
0.6561017 2.4218993 -0.14975898 0
0.76503533 2.450639 -0.14968701 0
0.85267085 2.4636927 -0.1501399 0
0.94635534 2.4604359 -0.14928739 0
1.0481412 2.4413283 -0.14986888 0
1.1244202 2.4212029 -0.15052749 0
1.2579728 2.4383516 -0.14977276 0
1.3518881 2.4558253 -0.14919926 0
-1.4506601 2.5375395 -0.1489498 0
-1.357285 2.576947 -0.1480377 0
-1.2536204 2.5184698 -0.14710015 0
-1.177 2.507 -0.148 0
-0.9592672 2.5856729 -0.14923802 0
-0.87205493 2.5273795 -0.14857921 0
-0.74497247 2.5420723 -0.14819866 0
-0.56185704 2.5655851 -0.14743504 0
-0.43656975 2.5679867 -0.14698836 0
-0.34545451 2.5603549 -0.14426723 0
-0.2440023 2.5584002 -0.1454934 0
-0.14292838 2.5592165 -0.1457172 0
-0.044218503 2.5790703 -0.14633971 0
0.055496883 2.5487893 -0.14798461 0
0.16586879 2.5490217 -0.14867485 0
0.23730719 2.54334 -0.14962895 0
0.34404254 2.5669584 -0.14889151 0
0.46320373 2.556808 -0.1490148 0
0.56239092 2.5499461 -0.14797436 0
0.65963507 2.526186 -0.14819768 0
0.75952119 2.5433807 -0.14874728 0
0.83058387 2.5593753 -0.14880206 0
0.9491694 2.553525 -0.14900474 0
1.0456795 2.5692775 -0.14878663 0
1.1524535 2.5433314 -0.14953278 0
1.2619578 2.5691025 -0.15001437 0
1.354 2.553 -0.149 0
1.419 2.53 -0.149 0
-1.535 2.6170001 -0.149 0
-1.455 2.6140001 -0.148 0
-1.0233319 2.6610777 -0.14925687 0
-0.95926178 2.6796401 -0.1482721 0
-0.83757871 2.6247983 -0.14762661 0
-0.73991454 2.635329 -0.146808 0
-0.61157244 2.6492753 -0.14664601 0
-0.55019099 2.6581645 -0.14655092 0
-0.44280231 2.6634066 -0.1453246 0
-0.35713065 2.6558871 -0.14308782 0
-0.27479407 2.6692839 -0.14402573 0
-0.106 2.635 -0.146 0
-0.044954725 2.6750946 -0.14507762 0
0.04848773 2.6727672 -0.14661956 0
0.14236477 2.6677361 -0.14708915 0
0.23619476 2.6552625 -0.14832242 0
0.361 2.6529999 -0.148 0
0.45300001 2.632 -0.148 0
0.51300001 2.615 -0.148 0
-1.046 2.7190001 -0.149 0
-0.97399998 2.72 -0.148 0
-0.85321242 2.7114105 -0.14703298 0
-0.76200002 2.7119999 -0.146 0
-0.62599999 2.71 -0.146 0
-0.56300002 2.724 -0.146 0
-0.498 2.73 -0.147 0
0.25145793 2.7766433 -0.14780082 0
0.25999999 2.865 -0.147 0
-2.467 3.5539999 -0.16 0
-2.5179534 3.6289914 -0.15684442 0
-2.6198599 3.7789743 -0.15053326 0
-2.5689068 3.7039828 -0.15368883 0
-2.6708133 3.8539658 -0.14737768 0
-2.7217667 3.928957 -0.1442221 0
-2.8236732 4.0789399 -0.13791093 0
-2.7727201 4.0039487 -0.14106652 0
-2.8746266 4.1539316 -0.13475536 0
-2.92558 4.2289228 -0.13159978 0
-3.016 4.362 -0.126 0
-2.9765334 4.3039141 -0.12844419 0
4.441 4.493 -0.101 0
-2.7777615 4.6757784 -0.10409677 0
-2.8231745 4.7521853 -0.11939785 0
-2.8685873 4.8285928 -0.13469893 0
-2.914 4.9050002 -0.15000001 0
3.3198915 -3.3035197 -0.091926999 0
3.2551143 -3.2413995 -0.077908747 0
3.1579485 -3.1482196 -0.056881379 0
0.86299998 -3.016 -0.046999998 0
3.0607829 -3.0550394 -0.035854004 0
0.77703333 -2.9465628 -0.050293688 0
0.8374052 -2.9295821 -0.038216546 0
2.9636173 -2.9618592 -0.014826633 0
0.74113345 -2.8192511 -0.033174749 0
0.81181037 -2.8431644 -0.029433092 0
0.75170791 -2.7455616 -0.021205883 0
3.2456577 -2.7186451 -0.08909595 0
0.69326687 -2.649502 -0.010349497 0
0.76062083 -2.6703286 -0.011866186 0
3.1459866 -2.6319675 -0.065643921 0
0.735026 -2.5839109 -0.0030827336 0
3.0463154 -2.5452902 -0.042191893 0
2.9466443 -2.4586129 -0.018739864 0
3.0899999 -2.4849999 -0.003 0
3.0999999 -2.3789999 -0.0040000002 0
-5.1279998 -2.223 -0.057 0
3.1830001 -2.2190001 -0.0070000002 0
-5.0452166 -2.1888635 -0.042582694 0
-4.9624333 -2.1547272 -0.028165389 0
-4.8796501 -2.1205907 -0.013748083 0
3.052 -2.026 -0.0080000004 0
0.59321302 -1.5109229 -0.08195731 0
0.62332547 -1.5927911 -0.095249124 0
0.56310058 -1.4290547 -0.068665497 0
0.54799998 -1.388 -0.061999999 0
2.9930301 0.84564674 -0.099329904 0
3.0755377 0.86730838 -0.086912379 0
3.1468058 0.84804124 -0.086825423 0
3.2671185 0.86318523 -0.077357717 0
2.8845372 0.96194649 -0.089955829 0
2.9634213 0.98718309 -0.075194784 0
3.2507763 0.91331589 -0.060538668 0
3.054153 1.0162098 -0.05821687 0
-2.5279908 4.255538 -0.019940827 0
-2.5961103 4.3701487 -0.042892456 0
-2.6415231 4.4465561 -0.058193535 0
-2.7323487 4.599371 -0.088795692 0
-2.6869359 4.5229635 -0.073494621 0
4.5014019 4.5590587 -0.085306488 0
4.5618038 4.6251173 -0.069612965 0
4.6222053 4.6911764 -0.053919449 0
1.2892658 4.7826276 -0.012133356 0
4.6826072 4.7572351 -0.038225934 0
1.3111771 4.8687515 -0.02542224 0
4.7430091 4.8232937 -0.022532418 0
4.803411 4.8893523 -0.0068389103 0
1.3330886 4.9548759 -0.038711119 0
1.355 5.0409999 -0.052000001 0
-1.916 -3.128 0.022 0
-2.4558208 -3.0504787 0.022981472 0
-1.8702856 -3.0537443 0.033126257 0
-1.771 -3.0469999 0.018999999 0
-1.6445 -3.0545001 0.0090000005 0
-1.5768315 -3.0016358 0.013063941 0
-2.4262207 -2.9560139 0.040555179 0
-2.3589244 -2.9568713 0.021888833 0
-1.8567855 -2.9552443 0.033126257 0
-1.7533178 -2.9390984 0.0435258 0
-1.6283373 -2.9550602 0.029778346 0
-1.5346631 -2.9242716 0.025127882 0
-2.3284967 -2.862792 0.041869711 0
-2.247849 -2.8157423 0.027777664 0
-1.8438238 -2.8607087 0.035782598 0
-1.7331424 -2.8309772 0.06650503 0
-1.6629474 -2.8619099 0.050682079 0
-1.5658431 -2.8426509 0.048945867 0
-1.4924946 -2.8469076 0.037191819 0
2.872 -2.8740001 0.0049999952 0
3.062 -2.8269999 -2.9306901e-13 0
-2.2558825 -2.7460554 0.060220711 0
-2.192311 -2.7451777 0.03072208 0
-1.7760593 -2.7552719 0.056456495 0
-1.687428 -2.7567215 0.077631295 0
-1.5507325 -2.7405486 0.068902358 0
-1.4503262 -2.7695434 0.049255762 0
2.8610001 -2.734 0.0070000002 0
2.9663351 -2.7403293 0.011038272 0
-2.1594 -2.6522553 0.057924479 0
-2.0812356 -2.604049 0.036610909 0
-1.7082949 -2.6498349 0.077130392 0
-1.6417136 -2.6824658 0.088757545 0
-1.5541893 -2.6292713 0.092428319 0
-1.434922 -2.6737404 0.071105719 0
-1.3659892 -2.614815 0.073383652 0
2.7429528 -2.6370819 0.027210414 0
2.8363233 -2.6695995 0.019590877 0
2.9619532 -2.6116443 0.0098139131 0
3.0250001 -2.668 -8.799004e-14 0
-2.0556209 -2.5347905 0.059720784 0
-1.6631186 -2.5795436 0.090912983 0
-1.4200236 -2.5803618 0.093670085 0
-1.3238208 -2.5374508 0.085447595 0
0.66933364 -2.5646276 0.0010631308 0
2.6376116 -2.5505955 0.045245484 0
2.7431166 -2.5380971 0.036794238 0
2.8528998 -2.5755832 0.02453161 0
-2.0287647 -2.4661107 0.08644142 0
-1.9465799 -2.43296 0.043749873 0
-1.2816523 -2.4600866 0.097511537 0
0.66461837 -2.4454141 0.013479963 0
0.70943123 -2.497493 0.0057007186 0
2.5940001 -2.4030001 0.054000001 0
2.6474516 -2.4514265 0.047832511 0
2.7728124 -2.4425774 0.039255653 0
2.8358593 -2.4989331 0.029441739 0
3.0224445 -2.4321663 0.0060807574 0
-1.9435956 -2.3611312 0.096274182 0
0.59753382 -2.3100042 0.035301 0
0.63985437 -2.3597679 0.023578003 0
2.6467183 -2.3298662 0.058883477 0
2.7097654 -2.3862219 0.049069565 0
2.8501024 -2.3478117 0.013651476 0
2.9548893 -2.379333 0.015161514 0
3.0312495 -2.3279915 0.0055640643 0
0.57330024 -2.2240648 0.046856813 0
0.63264686 -2.2382395 0.032051072 0
2.6010001 -2.289 0.066 0
2.7522233 -2.2208326 0.042403791 0
2.8567638 -2.2498202 0.02900761 0
2.9624991 -2.2769833 0.015128128 0
0.59200001 -2.1010001 0.045999996 0
0.60705209 -2.1518216 0.040834524 0
2.599 -2.1010001 0.063000001 0
2.6508904 -2.1415823 0.056024928 0
2.7562482 -2.1239581 0.043820322 0
2.8249984 -2.1749666 0.034256257 0
3.0389163 -2.1227736 0.012961858 0
3.1109583 -2.170887 0.0029809289 0
-4.755475 -2.069386 0.0078778751 0
-4.6313004 -2.0181813 0.029503834 0
2.6367486 -2.0352972 0.060444281 0
2.8479164 -2.0257735 0.024461858 0
2.9668746 -2.0746605 0.022942785 0
-4.5485172 -1.9840448 0.043921147 0
-4.465734 -1.9499083 0.058338452 0
-4.3829508 -1.9157718 0.072755769 0
2.6539009 -1.9177042 0.046285089 0
2.7624962 -1.9455811 0.032685541 0
2.8227909 -1.9784341 0.042904645 0
2.9471641 -1.9606638 0.012122573 0
-4.3001676 -1.8816353 0.087173074 0
