# .PCD v0.7 - Point Cloud Data file format
VERSION 0.7
FIELDS x y z intensity
SIZE 4 4 4 4
TYPE F F F F
COUNT 1 1 1 1
WIDTH 116
HEIGHT 1
VIEWPOINT 0 0 0 1 0 0 0
POINTS 116
DATA ascii
-9.3952456 23.505693 25.263248 27
-7.1918678 -13.422152 10.812636 22
-6.5153122 -13.000516 11.104847 23
-4.9234271 -14.943077 2.2354417 7
-4.9440312 -14.983932 2.6304793 8
-4.4685335 20.704891 4.5564475 10
-4.5347514 20.680996 5.4193292 11
-4.223949 4.3124504 0.2682468 5
-4.2368526 3.5024474 0.57971686 6
-4.2872157 3.4707739 0.6356073 7
-4.1299977 5.1973867 1.6319098 11
-3.4955127 -12.918457 10.04937 23
-3.3974845 -14.40287 3.1396713 9
-3.3567581 20.928152 9.2515678 16
-3.0691695 21.010902 8.8940773 15
-3.1038842 20.950472 21.429087 27
-2.8900576 -12.842761 4.9033947 14
-2.7621901 -12.846083 9.6999435 22
-2.2155592 -1.2958744 0.17651021 5
-2.2533693 -1.2825767 0.2233936 6
-2.309201 4.2902126 0.55508357 7
-2.2963853 -12.74108 4.4053936 13
-2.1186852 -1.2519649 -0.075319111 2
-2.0314293 -1.2491555 0.060896762 4
-2.0592625 4.3742862 0.52962965 7
-2.1891971 -14.760488 3.0073087 9
-1.6997199 -1.2311745 -0.0072898841 3
-1.7050712 -1.1965113 0.28663692 8
-1.6456002 -14.719452 3.3303542 10
-1.5970654 -1.2494212 0.14700884 6
-1.5326883 -12.731642 4.6753688 14
-1.3994145 -1.2011027 0.36443675 9
-1.3756572 -1.1981674 0.39849383 10
-1.2749742 -7.6514373 0.52144247 5
-1.2480321 -7.7233343 0.63374418 6
-1.1720659 -1.4166881 0.27149132 8
-1.1344025 -1.3937062 0.36554909 9
-1.0817124 -12.691291 9.5266209 22.5
-0.99990249 -1.5575426 0.38331071 10
-0.83932155 -12.802403 14.367464 29
-0.2991266 11.172216 2.6818972 10.5
-0.36653447 11.220278 4.7202315 15
-0.375669 10.976689 5.1384368 16
0.17654915 -1.0850201 0.19119555 8.5
0.15838316 -1.0901414 0.32470909 11.666667
0.31531319 -1.0405988 0.070287161 5
0.30069882 -1.0466108 0.31612521 12
0.24666551 4.3498402 0.33964363 6
0.2226658 -12.888321 14.224042 28
0.33847526 -12.884179 14.439969 29
0.23389016 21.336451 20.967121 27
0.55192715 -1.0060657 0.13050555 7
0.40799439 -1.0031807 0.36758655 13
0.64585352 -1.001027 -0.019531202 3
0.66342103 -0.98703027 -0.064526528 2
0.60354847 -1.0020548 0.066485442 5
0.63696891 -0.99605864 0.031476442 4
0.69149238 -1.0081906 0.24244568 9
0.61994684 -12.368526 6.6832576 18
0.96069604 -0.97921079 -0.086605772 1
0.80899578 -1.017678 0.14289954 6.5
0.98961753 -0.97938931 0.26938814 9
0.98861659 -0.96651393 0.49739939 14
1.0342773 -0.97165263 0.031386204 4
1.0037129 -0.98996758 0.46637639 12.5
1.1775963 -12.445456 6.9988699 19
1.3278756 -0.95802116 0.10735589 5
1.2707858 -0.94759387 0.31787154 9.5
1.3064928 -0.93571097 0.53737777 13
1.5520861 -0.91328263 0.36037493 9.5
1.6968938 -0.92973292 0.13835061 5
1.736019 -12.538743 8.8765011 22
1.6272577 -12.388939 10.01369 24
1.7642815 21.497429 13.144624 20
2.1926827 -0.90491563 0.089350872 4
2.1287348 1.25587 0.52519232 9.5
2.1806445 1.1925449 0.71821952 12
2.12321 1.247419 0.64319235 11
2.1422727 1.2205704 0.98320335 15
2.1310635 1.2410873 1.1521962 16.5
2.2294111 1.2178272 0.093730688 4.5
2.2208071 1.4579153 0.12918282 5
2.3290632 -0.87106311 0.30837649 7
2.2340848 1.3920591 0.22120249 6
2.240839 1.4425187 0.35069382 7.5
2.3164592 1.1156936 0.68826401 11
2.8494482 -12.226221 10.008324 24
3.1240399 -0.82029051 0.3064056 6
3.1529031 -12.351954 9.1631031 22
3.0943289 -12.320308 9.4741497 23
3.3618696 -0.85919845 0.011369797 3
4.1915498 -12.067785 10.175077 24
4.9639096 -11.961665 10.407016 24
5.0360336 -11.975037 9.6479902 22
5.4899373 -11.921727 10.199969 23
5.4824286 -13.922152 16.943005 29
6.4799905 -11.777768 10.805999 24
6.4209571 25.265463 21.221422 24
6.6522684 -11.778378 10.532988 23
8.9947481 -13.517018 17.22106 28
10.492539 -0.81759518 0.58539277 5
11.382825 4.4127312 0.21409819 4
11.302382 5.3046417 1.038232 6
11.372285 4.7146316 1.7421563 7
11.231266 4.3821659 2.0120735 8
11.46003 3.6998928 0.5969221 5
11.559031 3.455399 1.3368522 7
11.73247 1.0661912 0.63372654 5
11.723062 1.3736923 0.9169091 6
11.75847 1.018321 1.5916976 7
11.985564 -1.4625486 0.97686112 6
12.025961 -1.1291287 1.4481406 7
12.030289 -1.2898843 1.7650074 8
13.393362 -10.92423 9.9590216 19
13.680219 -11.173579 9.1217623 18
21.529039 39.371742 19.169666 15
