# .PCD v0.7 - Point Cloud Data file format
VERSION 0.7
FIELDS x y z intensity
SIZE 4 4 4 4
TYPE F F F F
COUNT 1 1 1 1
WIDTH 561
HEIGHT 1
VIEWPOINT 0 0 0 1 0 0 0
POINTS 561
DATA ascii
-15.755612 4.0537577 -0.17233762 3
-10.82487 4.5252266 -0.15253711 3
-9.8146276 3.0251729 -0.14496484 3
-9.1770754 4.3615637 -0.12431785 3
-8.6380787 7.0515542 -0.08370512 3
-8.540369 7.6856446 -0.072869875 3
-8.2622938 4.4251795 -0.10806711 3
-7.4679818 -9.843688 -0.18211994 3
-7.5663347 -9.0495415 -0.1982667 3
-7.0360122 7.79877 -0.24615417 3
-6.9080448 -13.263348 11.019186 22
-6.4197674 -0.9224866 -0.1722102 2
-6.7601867 -13.369004 10.674953 22
-6.4874825 -13.246882 10.98107 22.5
-6.0292358 -6.5434785 -0.16835545 3
-6.2963023 -0.61448479 -0.1742602 2
-6.2840743 3.8094358 -0.15968648 3
-6.2340221 4.1758494 -0.18078874 3
-6.3795147 -15.129791 0.2257113 4
-6.0571513 -7.1442914 0.14091618 4
-6.257885 -13.27797 10.674435 22
-6.289896 -13.136903 11.051966 23
-6.1084948 -13.017231 11.364283 23
-5.7588525 -5.1298156 -0.16362312 3
-5.4443841 -12.783916 -0.10112688 3
-5.40481 -5.2627034 -0.17134202 3
-5.5338798 4.0777383 -0.18294875 3
-5.5556383 -15.028119 0.20836323 4
-5.525373 24.151518 10.836205 16
-4.9073339 3.3529713 0.15859246 4
-4.8344631 -14.942303 0.41574576 4
-4.8439264 -14.959219 0.81476027 5
-4.8351712 -14.939498 1.5127469 6
-4.8536248 -14.616399 3.2813377 9.5
-4.7987895 -14.94085 -0.099132992 3
-4.4338322 -11.862488 -0.086971015 3
-4.7668486 -14.939318 0.19198266 4
-4.5333591 -14.930621 2.2378378 7
-4.5496225 -14.93154 2.6177845 8
-4.5628753 -14.941542 2.9727657 9
-4.593173 -14.916082 3.3362572 9.666667
-4.6597118 -13.006625 4.9517875 13.5
-4.48141 20.713373 8.8574209 15
-4.4254093 20.690884 9.5265608 16
-4.516181 20.652708 10.033406 17
-4.1388302 0.83414823 -0.20637727 2
-4.2611647 3.4648762 0.082675897 4
-4.1265993 3.7342074 0.14985646 4
-4.2183456 4.2727261 0.10478569 4
-4.2836337 4.7392364 0.090820372 4
-4.1720796 4.9608793 0.25229108 4.6666665
-4.1672029 3.5612314 0.55552596 6.5
-4.1528835 4.1277018 0.59904569 6.5
-4.1677766 4.9609532 0.70359462 6.75
-4.1518784 4.1190419 0.84855449 8
-4.175283 4.9611282 0.93928432 8
-4.1441326 -14.896186 2.239187 8
-4.1693602 -14.899065 2.6101046 8
-4.1359568 -14.924299 2.9923005 9
-4.2896094 -14.942087 3.2632802 9.5
-4.1681418 -14.718454 3.2436309 9
-4.0987868 20.775923 4.7461605 10
-4.2562385 20.709679 5.00389 10
-4.1396012 20.765156 5.3385863 11
-4.2368894 20.723137 8.4329271 15
-4.269989 20.724083 9.2488575 16
-4.055491 -13.048075 9.9876432 22
-4.0969644 -12.979342 10.176809 23
-3.9878943 1.1066473 -0.20519488 2
-3.7818241 1.4523492 -0.20240247 2
-3.976042 -1.82143 0.04793651 4
-3.7491171 -12.877924 4.5842633 13
-3.9626155 20.778324 4.5744419 10
-3.6136985 20.890402 4.7250638 10
-3.7535999 -12.885189 4.8582692 14
-3.7875786 20.841068 5.346251 11
-3.7091601 -13.015401 9.9298353 22
-3.74564 -12.945192 10.120013 23
-3.7323525 20.89385 21.622858 27
-3.2912564 -0.87578672 -0.18572374 2
-3.530021 1.760922 -0.1969503 2
-3.3591657 2.1018939 -0.1952087 2
-3.387778 -14.84024 2.2468822 8
-3.3640614 -14.331071 3.1496041 10
-3.2668734 -14.347417 3.2680185 10
-3.4863486 20.998915 4.6282301 10
-3.3029506 21.028807 5.0685778 10
-3.4423373 21.007526 5.3683124 11
-3.2845521 21.0292 8.5256243 15
-3.5471401 20.957394 8.897151 15
-3.444093 20.899651 9.4684143 16
-3.3870676 -12.946536 9.8973503 22
-3.4661477 -12.920629 10.055488 23
-3.5969245 20.874748 10.078125 17
-3.4144313 20.997272 21.165415 27
-3.5679946 20.912056 21.404179 27
-3.0284314 -2.6374521 -0.18114638 2
-3.0917492 -0.58056211 -0.18459478 2
-3.1244893 -0.29166919 -0.18997851 1
-3.126895 2.2872603 -0.18171535 2
-3.1074867 2.6404617 -0.194368 2
-2.8186653 4.227479 0.032862376 3
-3.0316627 -14.808053 2.863163 9
-3.1205604 -14.68061 3.1854794 9
-3.028074 -14.344376 3.1369205 10
-2.9051511 -12.805843 4.450233 13
-3.0594246 21.086199 4.6900201 10
-3.1175473 21.034639 5.4599504 11
-2.9172215 -12.845661 9.859354 23
-3.001421 20.945492 9.6932764 16
-2.5500834 2.8055687 -0.19752398 2
-2.5381398 4.2224302 0.032565791 3
-2.4657545 4.2307649 0.5287407 7
-2.6912451 -14.765258 3.0393629 9
-2.7785847 -14.801844 3.2221258 10
-2.5478003 -14.783786 3.2779737 10
-2.7053833 -12.804214 4.6304927 13.5
-2.7119942 21.085348 5.3662214 11
-2.4466162 -12.808417 9.5970535 22
-2.6339333 -12.834625 9.8124065 22.75
-2.1464698 -4.3132658 -0.15460664 2
-2.0251143 -2.7447619 -0.16503726 2
-2.0982144 -1.2570497 -0.062925629 2.3333333
-2.0230536 -0.28887147 -0.18667848 0.66666669
-2.2532403 0.73728228 -0.18812749 1
-2.1757665 0.94380677 -0.18903805 1
-2.2267523 1.5317504 -0.18446605 1
-2.1684113 2.7341034 -0.19299501 2
-2.0538933 4.9453807 -0.18980148 2
-2.1587801 -1.2779491 0.11624859 4.75
-2.2974737 4.2615523 0.032132011 3
-2.207166 4.3177452 0.52264541 6.5
-2.3341544 -14.75831 2.6922309 8.5
-2.0673788 -14.726772 3.0326967 9.5
-2.2821991 -12.817788 4.1716547 13
-2.038079 -12.733395 4.3883791 13
-2.198725 -12.70615 4.6331811 14
-2.1393692 -12.802639 9.5242281 22
-2.1841335 -12.807684 9.7745733 23
-2.1364796 -12.760887 9.6917973 22.333334
-1.971678 -4.4673786 -0.14862467 2
-1.6225914 -2.8790617 -0.070964523 2.5
-1.78801 -2.7987244 -0.16018294 2
-1.7587796 -1.2771138 -0.090456292 2
-1.8757665 -0.54498833 -0.18105869 0.66666669
-1.9842124 -0.27341157 -0.18726987 0
-1.8006918 0.62777042 -0.18325157 0
-1.6965635 0.90396261 -0.18177406 0.5
-1.8202152 2.8353021 -0.18866913 2
-1.7963332 4.5137863 -0.00085093186 3
-1.7507594 4.8324113 -0.19099888 2
-1.8233478 5.9047561 -0.042045265 3
-1.6702032 -7.8339167 0.037416864 3
-1.8730427 -2.1763132 0.045139961 4
-1.8387074 -1.7360319 0.081301771 4
-1.7133077 -1.2651886 0.16583408 5.7142859
-1.691022 -1.1997207 0.22667821 7
-1.9526459 4.3539338 0.15212338 4
-1.8362584 4.4381437 0.19486405 4.5
-1.957623 7.783155 0.013065179 3
-1.9806614 9.830164 0.0062378072 3
-1.793051 -14.715986 2.7397525 9
-1.7593107 -14.678635 3.1472874 9.5
-1.9817485 -14.734073 3.334059 10
-1.7403641 -12.72352 4.3650212 13
-1.7694587 -12.700167 4.6093445 14
-1.8481271 -12.725581 4.8141084 14
-1.8384696 -12.830761 9.4814873 22
-1.7112472 -12.713446 9.5476675 22
-1.8102272 -12.754902 9.6898918 23
-1.7581896 21.102961 13.029098 20
-1.4955099 -2.9212277 -0.0049481527 3
-1.4346944 -2.1305406 -0.16667214 1
-1.5013367 -1.9206259 -0.167353 1
-1.43802 -0.48717669 -0.18375711 0
-1.5201765 1.922822 -0.19081396 1
-1.3433206 2.0646956 -0.19093786 1
-1.5815997 2.8879657 -0.19010232 2
-1.4963306 4.8126249 -0.19639505 2
-1.2839413 -7.735611 0.052631959 3
-1.5740942 -2.866297 0.029827494 3.5
-1.2781156 -1.2907221 0.33660477 9
-1.3984249 -7.6569586 0.55973142 5.5
-1.2302902 -12.841168 9.3779316 22
-1.4212384 -12.725494 9.515851 22
-1.4124597 -12.697001 9.6300621 23
-1.3772448 -12.874503 14.482495 29
-1.2921654 21.175505 18.248442 25
-0.80220842 -7.0945969 -0.1392366 3
-0.82297724 -2.852241 -0.15282743 2
-1.0088326 -2.7684155 -0.15670197 2
-1.1550205 -2.0108681 -0.16409443 1
-0.88787884 -1.6980054 -0.16734321 0.66666669
-0.99889034 -1.5398834 -0.16973121 0
-1.0072906 1.3850647 -0.18013977 0
-1.1484767 2.2025678 -0.18803 1
-1.0119277 2.5516808 -0.18594421 1
-0.87069803 3.4258192 -0.19681504 2
-0.95790201 9.9101562 -0.20873356 3
-0.9816311 -1.6026764 0.37947172 9
-1.0837421 -1.4649922 0.37363887 9.5
-0.8822459 -12.747111 9.3625784 22
-1.026819 -12.646294 9.6672201 23
-1.1280565 -12.798573 14.328284 28
-1.0562539 -12.817152 14.477627 29
-0.48375654 -7.2569485 -0.13051961 3
-0.55579257 -2.9839034 -0.15149271 2
-0.78728956 -2.475482 -0.16069473 1
-0.76801175 -1.8725494 -0.16518937 1
-0.69627976 1.4781731 -0.18004183 0
-0.55325913 1.7933743 -0.1827393 0.5
-0.45158339 2.167697 -0.18480134 1
-0.61884284 3.4191797 -0.19524847 2
-0.75798911 4.8427725 -0.0027913903 3
-0.48967484 9.9670115 -0.18487175 3
-0.52660877 5.1932797 0.074377522 4
-0.4612124 11.197711 2.7720685 11
-0.61230671 -12.61756 9.5238247 23
-0.661753 -12.794744 14.315166 28
-0.5895943 -12.826739 14.498219 29
-0.16340542 -8.6574488 -0.14035901 3
-0.32429352 -4.3330736 -0.14791565 2
-0.21071015 -2.4688816 -0.15758467 1
-0.29309019 2.1578674 -0.18443397 1
-0.37002379 3.3955982 -0.19369256 2
-0.020239709 8.5009499 -0.13564906 3
-0.25929672 4.7356396 0.06732741 4
-0.037625484 4.8061609 0.068694465 4
-0.2461327 11.070905 2.4895887 10
-0.31266084 11.135579 3.0384061 11
-0.183149 11.279669 4.5805192 15
-0.24304523 11.059069 4.8446097 16
-0.18256967 11.069343 5.3157148 17
-0.32420167 -12.661175 9.1241226 22
-0.26749003 -12.685897 9.3734274 22
-0.37830389 -12.582381 9.6416883 23
-0.17642348 21.332352 12.973368 20
-0.068845287 21.29528 13.223598 20
-0.37471482 -12.801835 14.265365 28
-0.33008593 -12.834425 14.530141 29
0.04515167 -3.2757623 -0.1551507 2
0.18309098 -2.8855278 -0.16090398 2
0.10102356 -2.614167 -0.16209634 1
0.38660541 -2.3273022 -0.16054495 1
0.28393677 1.9077018 -0.17736724 0.33333334
0.15656513 2.1076505 -0.17995752 1
0.21651816 3.1054893 -0.18076874 2
0.35062686 7.9511762 -0.10647059 3
0.28291091 -1.0586654 0.21404244 9
0.14238299 4.3480439 0.34345365 6
0.23489 4.796658 0.12021157 4
0.27576229 -1.0491793 0.4066419 14
0.1638373 4.3455758 0.42549539 6
0.18146323 4.4221101 0.50645834 7
0.29935059 11.060309 4.6971016 15.5
0.29407915 10.775009 5.1888537 17
0.25694194 -12.718593 9.0771704 22
0.22852132 -12.629261 9.4537697 22.75
0.30549243 21.359062 12.997214 20
0.39914525 21.349035 13.247391 20
0.18012317 -12.859715 14.523094 29
0.32262135 21.33539 21.192284 27
0.40531698 -7.8900895 -0.058563992 3
0.50002384 -2.710609 -0.15645407 2
0.55817956 -2.1261916 -0.16046458 1
0.62703389 -1.468574 -0.010920859 3
0.61111629 -1.0106688 -0.029523958 2.5
0.58826983 1.7705337 -0.17544116 0.5
0.52236146 3.1580348 -0.18377765 2
0.59561479 -1.0144937 0.13379957 6.5833335
0.62896705 5.104847 0.021618381 3
0.73976803 11.421574 3.0555456 11
0.43419138 11.010301 4.7768884 16
0.57032639 -12.509539 6.5571599 18
0.43641984 -12.531558 9.5732241 23
0.51261318 -12.916475 14.211832 28
0.60557365 -12.888169 14.538134 29
0.71690279 21.377138 21.053944 27
1.056095 -4.044167 -0.16042829 2
0.9489395 -2.5604382 -0.10402587 2
0.98687482 -0.97812611 -0.054876763 1.8333334
1.1696041 0.73884404 -0.16854295 0
0.86673927 1.7657655 -0.17750491 1
1.1937714 2.0309832 -0.17383774 1
1.0924253 4.3920689 -0.18499157 2
0.93504637 -0.9926008 0.12440159 5.875
1.0658885 -0.95442784 0.48636219 13.2
0.8950665 11.557388 2.6646883 10
0.96248418 11.496582 3.0608599 11
0.85122138 -12.464826 6.5280323 18
0.89294434 -12.348852 6.6751142 18
0.96426946 -12.453904 6.9309783 19
1.1442965 -12.591186 8.9257545 22
1.0261569 -12.169133 12.018205 27
1.4317008 -1.2848642 -0.16595159 1
1.3246328 -1.0739168 -0.10244571 1.4
1.3768344 0.73196745 -0.17295736 0
1.5322433 1.0275728 -0.16681649 1
1.5849299 1.5854806 -0.17219526 1
1.5320752 1.7742264 -0.17584321 1
1.5908751 2.663363 -0.17589694 2
1.3268819 3.1961913 -0.18762481 2
1.5175238 3.2210438 -0.18841155 2
1.2756824 4.2718816 -0.17261766 2
1.3970629 -0.94314003 0.22161086 7.1666665
1.5056363 7.6491818 0.050727401 3
1.3676223 -0.92654538 0.5115186 12.166667
1.3993671 -12.410246 6.9627848 19
1.3844454 -12.457787 9.5317507 23
1.2443618 -12.437562 9.6528406 23
1.4120388 21.476524 13.389043 20
1.8869302 -1.0052271 -0.16172764 1
1.939768 -0.13564719 -0.16206865 1
1.9011632 0.088765077 -0.16162376 1
1.8463651 0.77605075 -0.16683123 1
1.7217262 0.87429047 -0.16637456 1
1.6325501 1.4826409 -0.17211239 1
1.9591624 2.6752434 -0.17055707 2
1.6649833 3.1060274 -0.17815304 2
1.6389788 4.6673627 -0.1804605 2
1.692301 5.6381435 -0.048221529 3
1.7806559 -0.92340779 0.20451809 6.1428571
1.6640984 6.77705 0.055741422 3
1.7325119 -0.89523607 0.45321217 10.333333
1.7264152 -12.543023 9.1905022 22
1.7275684 -12.501224 9.4355392 23
1.7412809 -12.355311 9.581666 23
1.86166 -12.362438 10.072104 24
1.6635709 21.48646 12.892463 19
1.8230327 21.494453 13.342727 20
1.8690872 -14.359142 15.696778 28
1.8013608 -13.896015 15.955734 29
2.1959524 1.2545815 -0.062160444 2.5
2.3034959 1.8052717 -0.16838446 2
2.1800301 -0.90354925 0.19858861 5.75
2.2107341 1.3518825 0.16709512 5.2727275
2.0518737 4.9470077 0.04483214 3
2.1287351 -0.87104988 0.44738287 9
2.2603192 1.1412214 0.62531441 10.4
2.1700175 1.3065617 0.54181939 9.666667
2.1695797 1.1791412 0.97671795 14.5
2.1055944 1.3151608 1.0580329 15.333333
2.138252 1.2046635 1.2092047 17
2.1191149 -12.342607 9.7765045 23
2.2692893 -12.311746 10.05022 24
2.0637908 21.516289 12.668106 19
2.1714988 21.559301 12.989244 20
2.2561908 21.543285 13.208401 20
2.1937964 -14.32929 15.659652 28
2.0015728 -13.890975 15.927142 29
2.2739236 -14.30745 16.097637 28
2.1629364 -13.824171 16.056128 29
2.6968021 -2.2166955 -0.14993392 2
2.46593 1.6645154 -0.16977245 2
2.7142847 2.7250719 -0.17503324 2
2.6547928 3.0832007 -0.17925659 2
2.4677608 -0.8870154 0.096359201 4
2.4049489 -12.278998 9.803443 23
2.6378894 -12.269218 10.077363 24
3.1008847 -1.4519833 -0.15117028 2
2.9988256 0.98137635 -0.17362285 2
2.8337777 2.5822349 -0.17690192 2
3.0963027 -0.89761078 0.16858831 4.75
2.8163729 -12.356859 9.4592152 23
3.0434036 -12.204597 9.711277 23
3.0627022 -12.202333 10.072272 24
3.3474722 -0.91657454 -0.038180273 3
3.4548872 -0.21229272 -0.16688435 2
3.4946792 0.26393372 -0.17784724 2
3.3750565 0.59023321 -0.179203 2
3.2108815 0.81125396 -0.17763788 2
3.3030617 -0.83126551 0.1393941 4.5
3.4109154 -0.79035014 0.06442757 3.5
3.2837648 -12.172329 9.9882269 23
3.4657166 -12.152581 10.124189 24
3.5830743 -14.217183 17.151215 29
3.6467412 -2.4114785 -0.13813257 2
3.6601939 -1.928231 -0.16263783 2
3.8571205 -12.104387 10.176791 24
3.8475268 -14.195311 17.104403 29
4.3735523 -3.202379 -0.16394888 2
4.3469882 -1.3373563 -0.1800601 2
4.373939 5.9067287 -0.17257312 3
4.3766589 -12.0493 9.9380484 23
4.245914 -12.054258 10.264575 24
4.3855066 -14.215885 16.386974 28
4.3287578 -14.180002 17.064522 29
4.6149774 -2.7490137 -0.17846373 2
4.6997099 -0.67465913 -0.17648652 2
4.6991415 5.7756839 -0.16125529 3
4.6214809 5.0824842 0.21804649 4
4.5906048 -12.025858 10.173026 23.5
4.7826285 -12.000966 10.421014 24
4.6707888 -14.262891 16.495354 28
4.6146736 -14.138435 17.093985 29
5.0953097 2.0841181 -0.157157 2
5.1398053 2.4055936 -0.15511718 2
4.9446568 -12.172941 9.3348131 22
4.9871817 -11.979473 10.179496 23
4.9794383 -11.965194 10.482011 24
4.8873725 -14.197349 17.033863 29
4.8018165 -13.822755 17.372244 29
5.2747235 -11.947071 10.239478 23
5.405477 -11.912087 10.551993 24
5.5939155 -13.760225 17.345139 29
5.9009857 5.2987547 -0.18132986 3
5.8991609 5.8861985 -0.10955091 3
5.9365892 -11.858269 10.464976 23
5.8182874 -13.883606 17.029982 29
5.9006319 -13.661716 17.399191 29
5.7617188 25.162729 22.327572 25
6.1159801 2.2129719 -0.15499775 3
6.1791525 5.0609751 -0.15912923 3
6.0640917 -11.851024 10.354966 23
6.2549129 -11.815905 10.561649 23.333334
6.0923214 -11.826288 10.824989 24
6.1611423 -13.846076 17.128962 29
6.2103796 -13.567227 17.46623 29
6.5586395 -11.789542 10.611981 23
6.5298953 -11.740338 11.014035 24
6.5054102 -13.757614 17.300503 29
6.8000259 -11.740432 10.909012 24
6.9040451 -13.719602 16.720989 28
7.4660187 5.5732784 0.037259053 3
7.4149356 -11.594831 11.069128 24
7.538434 -11.349874 11.268378 24
7.9270139 -0.0059892773 -0.13599369 3
7.8782239 0.35135916 -0.14475331 3
7.9509759 0.9882099 -0.13737565 3
7.8794575 -13.756298 16.955864 28
8.0586157 8.8248386 -0.15456219 3
8.218853 -13.964553 16.551624 27
8.16609 -13.696022 17.144907 28
8.3965378 -13.5518 17.255045 28
8.7423029 -13.683787 16.327892 27
8.6293888 -13.846086 16.644732 27
8.5582275 -13.622505 17.133965 28
8.7623158 -13.465402 17.36112 28
8.9448929 6.0295544 0.035684031 3
9.1740866 -13.84752 16.852711 27
8.9939384 -13.400111 17.333187 28
9.4744492 -13.609173 16.77495 27
9.2866793 -13.776499 17.027781 27
9.40166 -13.530489 17.156036 28
9.4774075 -13.15066 17.459938 28
9.989666 12.702401 4.3737831 11
9.9714842 -13.642748 17.043909 27
10.345802 12.578032 3.9700956 10
10.205992 12.551335 4.3550134 11
10.108803 -10.964031 11.998806 24
10.633944 -1.5413156 -0.050211951 3
10.604686 -0.91241395 0.15931642 4
10.599546 -0.6311034 0.23173973 4
10.558919 0.046918854 0.30404758 4
10.535711 -0.91043085 0.46231797 5
10.563525 -0.56053257 0.47109476 5
10.676288 -12.687099 16.630945 27
11.154415 1.0731468 0.18472441 4
11.049717 1.6122335 0.2920295 4
10.938157 2.132333 0.076288328 3
11.199156 4.6577787 2.0061228 8
11.015101 4.2584505 2.4850216 9
10.93495 4.524087 2.4940636 9
11.066031 -12.871441 18.183756 28
11.274969 -1.1250452 -0.04885713 3
11.252873 -0.52408355 -0.18037611 3
11.541736 2.8631034 -0.1733664 3
11.487362 3.4301817 -0.17516135 3
11.365844 4.6822605 -0.085850224 3
11.31276 5.3013639 -0.067766599 3
11.544481 3.097791 0.28872481 4
11.508365 3.291467 0.2077928 4
11.478133 3.6628933 0.28191233 4
11.421926 4.1321549 0.21303727 4
11.369759 4.6214266 0.24513845 4
11.337936 4.9541936 0.25819063 4
11.299658 5.3014379 0.22023115 4
11.260646 5.6824136 0.24375841 4
11.570117 2.6265974 0.61220241 5
11.527458 3.0382669 0.60103393 5
11.489211 3.3893793 0.61232495 5
11.457054 3.6399915 0.63390356 5
11.364656 4.5406342 0.64512235 5
11.320063 5.0463939 0.5982011 4.6666665
11.284525 5.4370928 0.58674264 4.5
11.579797 2.5462739 0.97100085 6
11.529437 2.9641066 0.97767287 6
11.498186 3.3261986 0.93180281 5.6666665
11.458874 3.818785 0.99595678 6
11.402665 4.2491436 1.0055622 6
11.37151 4.6994886 1.0191534 6
11.583672 2.6216958 1.306535 7
11.444845 3.70502 1.335922 7
11.45465 4.0475264 1.4340192 7
11.466451 3.7887263 1.7761976 7.5
11.449518 4.2033472 1.6718069 7
11.405688 4.5282297 1.7501247 7.3333335
11.418563 3.883888 2.0479717 8
11.335881 4.1395321 2.1170301 8.5
11.30347 3.7741351 2.5009298 9
11.295294 4.0647221 2.522007 9
11.232009 -12.910071 17.785219 27.5
11.747126 0.59497517 0.19042711 4
11.633468 1.9117731 0.62720078 5
11.615995 2.2202597 0.59418631 5
11.751439 1.0751933 0.94573218 6
11.707135 1.3088036 0.95987111 6
11.624197 2.1314452 0.96631092 6
11.983354 -1.327808 1.5429753 7
11.766282 1.1710598 1.3977904 7
11.714618 1.4266402 1.4246051 6.6666665
11.6532 2.0875518 1.2952901 7
11.752132 1.2509612 1.9228377 8
11.975285 -1.2639524 2.2120287 9
11.714052 1.2939055 2.1488624 9
11.974333 -1.2669792 2.7410264 10
11.941456 -11.670707 17.23311 27
11.94107 -11.510892 17.483286 28
11.844391 -11.526013 17.600262 28
12.02216 -1.249908 1.0710407 6
12.048031 -1.1870081 0.98009312 6
12.010079 -1.1670994 2.058109 8
12.199941 -11.509628 17.324299 27
12.251236 -11.398849 17.795424 28
13.408656 -11.092951 9.6018333 18
13.204839 -10.931428 10.255002 19
13.998758 11.504519 2.3614411 7
13.876835 11.715454 2.6023362 8
14.282461 11.184757 2.3716269 7
14.130755 11.338529 2.066534 7
14.329268 11.114414 2.6286592 8
14.068047 11.421679 2.6134894 8
14.310017 -10.806234 10.735214 19
14.478807 10.932415 2.2499998 7
14.597989 10.753201 2.5978248 8
14.790343 -11.020406 9.4890051 18
14.429857 -10.940785 9.9640703 18
14.523512 -10.793036 10.404242 19
15.127577 -10.719962 10.650365 19
14.867074 -10.714181 10.972356 19
15.289972 -10.509251 11.11261 19
15.31023 -10.503467 11.749618 20
15.581304 -10.326482 11.618833 20
15.812956 -10.353282 11.32582 20
19.420444 41.857845 19.105722 15
19.471119 41.719563 20.251883 16
19.560951 41.669205 21.409021 16
19.914886 41.490612 19.658522 15
20.129536 41.300243 19.455885 15
20.912977 39.905968 18.557688 15
20.917906 39.868721 19.742718 16
21.595882 38.946972 19.502022 16
21.366205 39.449978 19.269453 15
26.323002 20.284683 8.0242157 10
26.359423 20.232105 9.0412397 11
26.5532 20.098444 7.1133323 10
26.506401 20.080065 8.6803198 11
27.853676 12.281941 11.966733 14
28.230309 11.447198 8.9426193 12
28.132244 11.613095 9.3536415 12
28.223604 11.281883 11.110583 14
