# .PCD v0.7 - Point Cloud Data file format
VERSION 0.7
FIELDS x y z intensity
SIZE 4 4 4 4
TYPE F F F F
COUNT 1 1 1 1
WIDTH 83
HEIGHT 1
VIEWPOINT 0 0 0 1 0 0 0
POINTS 83
DATA ascii
-13.049088 22.640814 25.460451 27
-11.831857 22.516453 14.016444 19
-11.71795 22.532633 13.795863 18
-11.540475 22.786018 19.302124 23
-6.4217505 3.0418944 0.93259019 7
-6.5810595 20.607689 15.03171 22
-6.4825239 20.451191 15.884406 23
-6.2946143 3.1385365 0.064936697 4
-6.252389 3.1705084 0.28005689 5
-6.2254848 4.6204309 0.58261597 6
-6.249752 3.1056428 0.7081871 6
-5.0707541 20.731394 11.210114 18
-4.9328194 20.722364 11.750648 19
-3.8976033 4.3662524 0.25478294 5
-3.9235005 4.3566918 0.50069439 6
-3.3192458 -1.554583 0.04961491 4
-3.3602383 20.963516 11.170914 18
-2.6456788 21.124647 10.443137 17
-2.1017511 4.1758075 0.35354677 6
-2.0410924 4.218926 0.2277087 5
-2.0247302 10.120876 0.98496938 6
-2.0776651 -13.141608 14.094151 28
-1.8463694 4.2416058 0.39544955 6
-1.8050147 10.159358 0.63669598 5
-1.8703718 11.795392 2.5881121 10
-1.8295366 21.183781 16.010937 23
-1.6650964 21.29369 15.127276 22
-1.4598899 10.733888 4.1017962 14
-1.2656244 11.248238 3.7824256 13
-1.332346 21.23848 19.429585 26
-1.1520312 -1.0973995 -0.057676099 2
-1.0262643 -1.1022967 0.055027667 4.5
-1.1690606 21.231804 22.514187 28
-0.8416149 -1.0521637 -0.060606539 2
-0.85670173 21.267149 22.008181 27
-0.75051719 -1.0569236 -0.027188737 2.5
-0.64254856 -13.160168 14.07381 28
-0.44309527 -1.0181984 0.116612 6.5
-0.41048536 -0.99430871 0.3271023 12
-0.44061837 21.432932 11.036169 18
-0.36078772 -1.0108919 0.17157179 8
-0.24123597 -0.97066736 0.4750331 17
-0.27553904 21.415728 11.991772 19
-0.089221574 -0.97689342 0.054501832 4.5
-0.16128905 -0.96778798 0.31701225 13
-0.077948809 -0.9569248 0.44800195 16.5
-0.035052422 -0.90748316 0.82200128 25.5
0.04472623 4.6995244 0.28059494 5.5
0.31159529 -0.92553335 0.10860895 6.25
0.29884335 -0.92524457 0.2871004 12
0.39298284 4.6865668 0.40879291 6
0.42814174 -0.91129678 0.11418335 7
0.4562518 -0.89624268 0.26820275 11
0.7279774 -0.87348896 0.3624495 12.5
0.81910127 -0.87197018 0.17754579 8
0.90916544 -0.86577171 0.29264647 10
1.112753 -0.86256957 0.097882442 5.5
1.0678049 -0.82143623 0.41782406 12
1.2872266 -0.81913054 0.25809073 8
1.3805583 25.041119 17.613752 22
1.4986099 -0.78027856 0.12735195 5.5
1.4894353 -0.77664834 0.32534009 9
1.6954194 1.2676281 0.47004637 9.5
1.9966687 1.1001472 0.2788052 7
1.8642319 1.0505015 0.48164177 9.5
2.0804217 1.0932356 0.16895364 5
2.0728705 1.0793629 0.28595787 7
2.9977767 24.748287 25.650591 27
3.5808277 24.755064 22.868376 26
3.6428115 24.782677 26.057537 28
6.1835189 -13.696157 16.997152 29
7.3034863 -13.789068 16.797537 28
9.0902681 -13.092482 17.337959 28
9.8473339 1.6225204 1.1597482 7
9.8954601 -11.598617 14.202305 26
10.120355 -0.81438011 1.270909 7
10.234076 -1.0214086 2.2810946 10
12.27569 11.196518 2.5976906 8
15.48003 -4.0168395 1.0353473 5
15.450976 -3.7646074 2.0793145 7
15.50943 -4.1503596 2.8493834 8
15.67159 -4.1199369 1.678607 6
16.153744 -3.3020437 3.2552764 9
