# .PCD v0.7 - Point Cloud Data file format
VERSION 0.7
FIELDS x y z intensity
SIZE 4 4 4 4
TYPE F F F F
COUNT 1 1 1 1
WIDTH 402
HEIGHT 1
VIEWPOINT 0 0 0 1 0 0 0
POINTS 402
DATA ascii
-14.52574 22.450918 19.870819 23
-14.101352 22.572182 14.825256 19
-14.031857 22.589663 20.118553 23
-13.996428 22.65649 13.855509 18
-13.947664 22.643684 14.622734 19
-13.844067 22.664793 19.278158 22
-13.642331 22.092934 19.688065 23
-13.285069 22.181408 19.782331 23
-13.323888 22.443022 25.418726 27
-13.178359 22.104116 25.521963 27
-12.261757 -4.376502 -0.22233298 3
-11.706514 8.4382477 -0.2209634 3
-11.891526 22.483242 13.256263 18
-11.921657 22.429846 14.002254 19
-11.63426 22.973671 18.550383 22
-11.379353 23.015703 18.753315 22
-11.444394 22.985083 19.078117 23
-11.04394 23.004948 19.270662 23
-10.21231 23.200247 18.576544 22
-10.335938 23.18557 19.020094 23
-10.286463 23.215496 18.866226 23
-9.6479311 23.302416 18.514549 22
-9.7625484 23.261496 18.834183 23
-9.3504696 23.396362 18.177511 22
-9.4277372 23.334724 18.951347 23
-9.0761614 8.8948231 -0.25087655 3
-7.3275614 2.8927858 0.56111741 6
-7.3734612 20.220243 15.920958 22.5
-7.2097311 20.246704 16.148039 23
-6.9707589 2.9130678 0.75555211 6
-6.9209719 20.334774 15.902466 22.5
-6.4270182 3.7529256 -0.11170175 3
-6.4914813 4.2020311 -0.11776195 3
-6.4297748 4.5030766 0.32296899 5
-6.4388313 3.0420201 0.66951692 6
-6.4465027 5.9585185 1.831336 10
-6.2377315 -1.9067104 -0.066268675 3
-6.0167327 -1.4874442 -0.19390176 2
-6.3596067 9.2703857 -0.18937479 3
-6.3912139 4.5799098 0.12299206 4
-6.2080641 3.1584532 0.50326425 6
-6.2977347 4.5395346 0.66745812 6
-6.2894392 3.1193085 0.86549991 7
-6.2966833 4.5204172 0.81449753 7
-6.0970764 20.72941 15.040302 22
-6.1707096 20.53002 15.487428 22
-6.3227267 20.486525 16.077942 23
-5.8363719 -4.3330832 -0.24460244 2
-5.8929019 -3.9624894 -0.24319921 2
-5.8995533 7.7836771 -0.16272791 3
-5.9671211 20.542942 15.838176 23
-5.8663297 20.551888 16.01054 23
-5.3575482 -1.03629 -0.21101154 2
-5.4632711 5.8221922 -0.17834961 3
-5.1907353 -0.75019294 -0.20473422 2
-4.8553309 20.727798 11.309924 18
-4.5945125 20.798969 11.196744 18
-4.4636011 20.786907 11.746254 19
-4.2064958 -1.4083722 -0.20957957 2
-4.0697651 -0.28161559 -0.20634094 2
-4.0448108 2.0681407 -0.21383885 2
-4.1871214 3.325896 -0.19160332 2
-4.0328355 5.2174845 0.065681316 4
-4.1302905 5.8922634 0.064039901 4
-4.0022626 4.2741451 0.53451312 6
-4.241734 20.852955 11.230931 18
-4.0026002 20.88142 11.763754 19
-3.737617 -3.0905535 -0.19755085 2
-3.9607148 2.2640836 -0.2148245 2
-3.7456582 2.5010688 -0.21082833 2
-3.9953117 4.2712965 -0.19845986 2
-3.9863021 4.624794 -0.15305419 3
-3.9202669 4.3038082 0.16629884 4.5
-3.8814158 4.4070196 0.49527994 6
-3.6754909 21.044155 10.402601 17
-3.6441834 20.953074 11.195908 18
-3.8616242 20.887955 11.213251 18
-3.350595 -1.6005125 -0.040407527 3
-3.4276698 -1.4774076 -0.088316128 2.6666667
-3.5903711 4.2061644 -0.19365349 2
-3.3681393 -2.2805429 0.031826161 3
-3.34372 -1.6226128 0.023555707 3
-3.3348274 -1.5074733 0.060196448 3.5
-3.4037066 21.025522 10.821626 17
-3.5312724 20.927906 11.758373 19
-2.8496017 -0.85635459 -0.19395936 1
-2.8461752 -0.55809927 -0.19612271 1
-2.8323326 -0.26418763 -0.20493399 1
-3.0461712 2.6355386 -0.19561122 2
-2.9850144 4.7350388 -0.096112318 3
-2.953229 5.2165012 -0.10388514 3
-2.9744668 -1.9871575 0.11570653 4
-3.1228225 9.7691298 0.010537749 3
-3.1676369 11.195843 4.2875371 14
-3.0912528 11.337635 4.2170386 13.5
-3.1662796 21.113914 10.433294 17
-2.9800389 21.038908 11.053458 17.666666
-3.0692265 21.010376 11.783869 19
-2.7414927 2.5907595 -0.19224669 2
-2.5331674 3.432564 -0.19385491 2
-2.4051328 11.71643 2.5983164 10
-2.6927958 21.091078 11.212045 18
-2.0306828 -1.3544046 -0.18965274 1
-2.1222949 -0.89534134 -0.18795076 1
-2.1908884 -0.79897058 -0.18571743 1
-2.1588738 1.1250501 -0.19433735 1
-2.0828543 1.2799181 -0.19426222 1
-2.0436029 3.2223835 -0.18543577 2
-2.0757153 9.9189615 -0.18381631 3
-2.0576179 4.18221 0.39871362 6
-2.0967109 10.092525 0.56475782 5
-2.1340911 10.115195 0.96157652 6
-2.2134995 11.723076 2.6290083 10
-2.1826034 21.11417 19.537369 26
-2.3020561 21.05168 21.654596 27
-1.6896009 -2.8107922 -0.20592351 1
-1.6763766 1.1508712 -0.18731451 1
-1.7360003 3.0214171 -0.1757922 2
-1.9217962 4.2317138 0.31196496 5.5999999
-1.9446487 5.115356 0.011353008 3
-1.6973463 10.06833 0.35127398 4
-1.7407055 10.11086 0.70203048 5.6666665
-1.9217502 10.145334 0.92679852 6
-1.7953403 11.884897 2.1731968 9
-1.862522 11.81052 2.6281092 10
-1.8324313 10.608206 3.5721986 13
-1.8750529 10.263265 3.9372542 14
-1.7766125 10.62554 3.8122015 13.666667
-1.6303868 21.27503 10.541402 17
-1.743685 21.265013 11.266033 18
-1.6769048 21.224636 11.867354 19
-1.8292326 -13.130069 14.098495 28
-1.9413599 21.186001 15.436538 22
-1.7918848 21.202484 15.787029 23
-1.8197124 21.152201 19.440071 26
-1.3704695 -2.5562444 -0.19497801 1
-1.4660199 1.3388075 -0.18220124 1
-1.3255706 2.2738109 -0.1737112 1
-1.5474257 2.9996972 -0.17697555 2
-1.555535 3.4958663 -0.18095116 2
-1.3410699 3.745857 -0.17858179 2
-1.4101145 5.0636463 -0.0034653044 3
-1.4963093 9.266263 -0.17134929 3
-1.4710948 -1.1551813 0.009938864 3
-1.5481805 10.775192 3.9993913 14
-1.4301823 10.935737 3.7284822 13
-1.2502173 11.08057 4.1315804 14
-1.4004346 21.36076 11.048027 18
-1.4108535 -13.10047 14.10959 28
-1.5096128 21.223757 15.275967 22
-1.5864516 21.18364 19.596815 26
-0.80180442 -2.2931125 -0.18808132 1
-0.83144003 -1.6742775 -0.050922021 2
-0.94960988 -1.0718068 -0.058618266 2
-1.0964444 1.0475063 -0.18087383 0
-0.86164182 1.9638655 -0.1717072 1
-1.1537404 2.1949744 -0.1698495 1
-0.9343763 8.1043987 -0.14992283 3
-1.0390878 -1.0967466 0.035533555 4
-1.1269196 11.189095 3.842041 13
-0.98714614 11.404647 3.7590868 13
-0.97882557 11.111084 4.1752291 14
-0.92527896 11.348493 4.0024233 13
-0.98959088 -13.156818 14.086626 28
-0.83994645 21.320753 19.423109 26
-1.118282 21.263941 19.646269 26
-0.80467421 21.301172 22.37779 28
-0.62891501 -3.641118 -0.19218962 2
-0.56320357 -2.6037774 -0.17487125 1.25
-0.61701548 -1.4236953 -0.047587581 2
-0.6913169 -1.0539348 -0.04060084 2.25
-0.51776916 1.862396 -0.1678631 1
-0.7919085 2.7786224 -0.16950901 2
-0.51586771 3.0608771 -0.16577144 2
-0.56009007 -1.0305046 0.074591771 5.1999998
-0.76439673 -13.197223 13.937744 28
-0.41365844 21.297291 22.55163 28
-0.21978717 -3.2624099 -0.18843211 1.5
-0.0014585932 -3.0580328 -0.18496503 1
-0.14607924 -1.2253381 -0.025009211 3
-0.059282053 -1.1779563 -0.020002885 3
-0.091410868 1.8079872 -0.16186057 1
-0.27797347 3.3388038 -0.16371088 2
-0.004681597 4.1598387 -0.16095264 2
-0.38704416 5.2634139 -0.098088674 3
-0.19828957 -0.98062646 0.20185018 9.1000004
-0.16365953 -0.95785725 0.52717596 18.200001
-0.030690651 -0.91184992 0.81918383 25
-0.19638661 21.40679 7.5530238 14
-0.097899795 21.417875 7.8403349 14
-0.092511632 21.417896 10.702374 17
-0.29680741 21.407244 11.331712 18
-0.3723219 21.298538 22.108765 27
0.21071406 -4.5970807 -0.20681423 2
0.13053419 -2.884088 -0.18189874 1
0.054248281 -1.1360931 -0.0069829565 3
0.15850912 1.7376337 -0.15819784 0.75
0.29247573 4.1899066 -0.15750687 2
0.33918035 8.7613182 -0.082887582 3
0.20464662 -0.95370197 0.1446075 7.5882354
0.17115556 4.6919498 0.29029062 5.5
0.14061287 4.6563134 0.42251173 6
0.073081315 21.424755 6.9088874 13
0.25315076 21.449457 7.424192 13.5
0.11239938 21.396063 11.031611 18
0.24535695 -14.606627 15.398378 28
0.37020105 -14.544526 15.677464 28
0.74247527 -2.069118 -0.17247152 1
0.73016995 1.5443895 -0.15613282 1
0.57783753 1.9216607 -0.15310177 1
0.64850366 2.64323 -0.14663212 2
0.66315943 5.2257972 -0.13945799 2
0.73500669 8.5772705 -0.094203502 3
0.55788761 -0.93007195 0.18059051 8.181818
0.44536871 4.6739287 0.33599067 5.5
0.76047474 -0.85285139 0.55448073 17
0.48872793 4.6740537 0.41513258 6
0.48448226 21.447353 7.1992154 13
0.57497704 -14.519382 15.432605 28
0.6590274 24.958786 22.390593 25
0.91339493 -3.3365114 -0.18029451 2
0.8029564 -2.6490705 -0.17240484 1
0.88829589 -1.7992861 -0.16908322 1
1.1841892 -1.2046049 -0.020013157 3
1.0668238 1.1445141 -0.15702865 0
0.9966777 1.3142487 -0.15713833 0.40000001
1.0453979 1.6614772 -0.15403265 1
1.093665 2.3487239 -0.14924935 2
0.88390368 2.5283182 -0.1476962 2
0.81607419 6.1075387 -0.14380428 3
0.9827224 -0.8675729 0.1923424 7.5999999
1.0192406 -0.8345679 0.46927059 13.5
0.9526704 24.99279 17.898457 22
0.80675387 24.922197 22.759159 26
1.0318525 24.921215 23.018904 26
1.2925031 -3.6347983 -0.18492629 2
1.3593318 -3.3237264 -0.17885114 2
1.4021262 -3.0216622 -0.1727974 2
1.4217246 -1.8084513 -0.16473089 1
1.5737939 -1.594178 -0.16053818 1
1.4527332 -0.51286626 -0.15811753 0
1.5442778 -0.31597784 -0.16202503 0
1.5603749 0.67999077 -0.16141623 0
1.2798241 1.1069338 -0.15784961 1
1.2813629 5.6468253 -0.088408701 3
1.3488069 -0.82040751 0.18737614 6.6999998
1.4185624 -0.79278624 0.25998521 7.5999999
1.4316741 -0.77070957 0.40226614 10
1.2022899 24.947456 17.680365 22
1.3056684 24.934269 22.468769 25
1.3771083 24.97892 22.877911 26
1.8171616 -2.8681686 -0.1633085 2
1.8496277 -2.347285 -0.085567057 2.6666667
1.7436556 -1.4234821 -0.16198286 1
1.6495945 -0.90073496 -0.1454443 1
1.8122357 -0.65707254 -0.15542959 1
1.8791749 -0.3878994 -0.15923256 1
1.7774935 0.3243818 -0.1597409 1
1.8872182 0.79902983 -0.15302491 1
1.6885757 1.3585318 -0.062436547 2.3333333
1.8242681 1.7938707 -0.14801349 2
1.6959901 5.0105505 -0.12590188 3
1.8748659 6.4404516 -0.12228027 3
1.698595 1.3497066 0.035929654 3.6666667
1.8085467 1.1045399 0.47156444 9.5
1.7205169 1.2491318 0.4657636 9.666667
1.7170701 25.10359 12.71868 17
1.8394296 25.116894 13.085052 18
1.9497422 25.157036 13.399325 18
1.8897197 25.117373 14.18522 19
1.9003836 25.126749 17.774761 22
1.8380377 25.051466 18.752224 23
2.0718739 -2.3201015 -0.1029495 2.5
2.3628504 -0.36370713 -0.15560181 1
2.2371931 1.0838629 -0.061785709 2.5
2.1461475 1.4932541 -0.15144582 2
2.2909489 2.6033037 -0.14386295 2
2.2809038 3.9937255 -0.14136709 2
2.1445937 5.4574933 -0.12155112 3
2.035825 1.1307784 0.18340287 5.5
2.0102103 1.2389913 0.067652494 4
2.0195987 25.108253 12.863648 17
2.3361173 25.204645 12.847464 17
2.3520381 25.157789 13.376613 18
2.5743959 -4.8066592 -0.18352723 2
2.4694507 -2.2058775 -0.17216732 2
2.7646472 0.28295526 -0.15433203 2
2.6977127 0.4739753 -0.15354307 2
2.4312875 1.0407751 -0.14842197 2
2.7980061 3.4814534 -0.12224829 2
2.6585209 5.8696494 -0.11498795 3
2.9069176 -2.0589147 -0.16331647 2
2.8090429 0.085364074 -0.15416995 2
3.1739328 1.9627094 -0.12425795 2
2.8593729 5.5943809 -0.11094283 3
3.1513729 25.090752 22.563341 25
3.0717921 24.76819 22.963766 26
2.9766746 24.78525 26.169451 28
3.2690656 -0.90956491 -0.15880382 2
3.2266905 25.326197 18.134058 22
3.3770945 25.160563 18.509876 22
3.4058483 24.774588 22.981798 26
3.5717549 24.747601 25.658382 27
3.4216568 24.737284 26.29994 28
3.6385493 6.2215915 -0.047193449 3
3.7495053 25.071165 22.555237 25
4.2369862 2.578326 -0.11720657 3
4.6853642 -0.94562638 -0.13839854 2
4.6029305 4.2177668 -0.093744956 3
4.7889333 5.866931 0.24803837 4
5.081181 1.850898 -0.12014527 3
5.1990738 3.9263396 -0.091238737 3
4.8645816 5.9107194 0.56346107 5.6666665
4.8011642 6.0017366 0.66984135 6
5.2391267 -3.4980767 -0.14378591 3
5.3580565 1.6754255 -0.12359656 3
5.4882555 3.7450247 -0.089500703 3
5.7564759 -1.7609899 -0.13291308 3
5.8518229 -0.25679958 -0.12395425 3
5.7949934 0.1460961 -0.12265296 3
5.8746476 1.3559059 -0.10863547 3
5.9235916 6.689743 0.030071862 3
5.9787583 -13.706545 17.021906 29
6.3115344 -13.76601 16.800306 28
6.5426044 -13.98673 16.672569 28
6.5940123 -13.691832 17.083157 28.5
6.5877705 -13.544213 17.21966 29
7.4289193 13.966432 3.291702 9
7.4150186 14.01077 3.7825873 10
7.3179603 -13.53275 17.145582 28
7.4192171 -13.168214 17.35775 29
7.8719583 9.7248049 0.0032078892 3
7.6212473 14.02316 3.0210648 9
7.6353264 13.873798 3.3903773 10
7.6789813 -13.738233 16.892021 28
7.8839927 -13.560167 16.922806 28
7.6323948 -13.403981 17.215996 29
8.2376328 -13.490486 17.026772 28
8.677968 -1.7495692 0.047058094 3
8.7118521 -0.41340441 0.23393431 4
8.7188492 -0.016951811 0.10084721 4
8.6498728 -13.394836 17.061831 28
9.1558189 0.92534578 -0.054882795 3
8.9712791 1.8153175 0.11143129 4
8.9207525 2.2277544 0.11111412 4
8.8906631 2.7193732 0.14073922 4
9.0255156 6.1098166 0.22263816 4
9.0621853 5.8514519 0.77800888 5
9.0183029 6.1346426 0.78959703 5
9.0455418 5.9269857 1.1263926 6
9.0295286 6.0598059 0.93470669 6
9.1580477 6.0607276 1.325923 7
8.9937801 -13.26744 17.121805 28
9.4545794 3.4210565 0.36402753 4
9.3415041 3.9711235 0.10839558 4
9.3763819 3.9631262 2.3254583 10
9.378417 4.0925322 2.1173451 9
9.331562 4.142354 2.4012294 10
9.7590628 1.4536302 -0.066291988 3
9.8431435 1.559847 1.5317737 8
9.8337173 1.5661361 1.7937578 9
9.7589006 1.6565431 2.1889429 9.666667
9.933672 -11.574737 13.717361 25
9.7598162 -11.706048 14.187099 26
10.214527 -0.81429195 1.1200358 6
10.179885 -0.90006012 1.571503 8
10.210428 -0.77552986 1.8300241 8
10.164059 -0.92286152 2.1816525 9.333333
10.201935 -0.79212576 2.2800157 10
10.337051 -11.520632 13.918934 25
10.146414 -11.475607 14.273928 26
11.999004 11.573797 3.0866227 9
11.967912 10.902847 3.5645351 10
11.876637 11.387832 3.443661 9.5
11.889574 11.413241 3.6656504 10
12.29576 11.221673 1.997691 7
12.084556 11.533327 2.0018418 7
12.19848 11.222034 3.0635109 9
12.110475 11.254317 3.3923001 9
14.630034 -3.6272545 0.092191741 3
15.433256 -4.1391916 2.1042795 7
15.590285 -4.0132284 2.5314994 8
15.544849 -3.8911383 2.5534401 8
15.597628 -3.5444932 2.5325181 8
15.491763 -3.3862588 2.817374 8
15.642608 -3.3254371 1.0105786 5
15.762199 -3.8936989 1.3167374 6
15.694904 -3.3397491 1.6406504 6
15.626757 -3.4356644 2.0805581 7
15.96054 -3.1323357 2.1020098 7
16.145672 -3.3397412 2.583266 8
16.144539 -3.1381142 2.9242618 8
16.149857 -3.1205902 3.4442689 9
23.709742 -12.98802 19.562698 22
23.690292 -12.525085 19.884756 22
24.082304 -12.508191 19.664316 22
25.548931 12.618336 16.561159 19
25.732693 -9.8481455 13.681055 17
25.990515 12.101849 14.502308 17
25.902884 12.263244 15.51403 18
25.97377 12.096741 16.696291 19
25.730976 12.449519 16.560596 19
