# .PCD v0.7 - Point Cloud Data file format
VERSION 0.7
FIELDS x y z intensity
SIZE 4 4 4 4
TYPE F F F F
COUNT 1 1 1 1
WIDTH 1348
HEIGHT 1
VIEWPOINT 0 0 0 1 0 0 0
POINTS 1348
DATA ascii
-0.368 -6.961 -0.37400001 0
-0.20617107 -6.9321327 -0.37560356 0
-1.3329999 -6.8150001 -0.331 0
-0.35831344 -6.8564291 -0.37400001 0
-0.20090793 -6.8250394 -0.37308639 0
-1.3240881 -6.7595401 -0.33379877 0
-0.34687564 -6.7329526 -0.37400001 0
-0.19647372 -6.7348127 -0.37096569 0
-1.3100771 -6.6723475 -0.33819893 0
-0.33925042 -6.6506352 -0.37400001 0
-0.1920395 -6.6445866 -0.36884499 0
-1.296066 -6.585155 -0.34259906 0
-0.33162522 -6.5683174 -0.37400001 0
-0.18760529 -6.5543594 -0.36672425 0
-1.408613 -6.4169445 -0.30732211 0
-1.2750494 -6.4543662 -0.3491993 0
-0.324 -6.4860001 -0.37400001 0
-0.18317108 -6.4641333 -0.36460355 0
-1.3935108 -6.3277869 -0.31660175 0
-1.2540331 -6.3235774 -0.35579953 0
-0.17873687 -6.3739066 -0.36248285 0
-1.3784087 -6.2386293 -0.32588142 0
-1.2400221 -6.2363849 -0.36019969 0
-0.17430264 -6.28368 -0.36036214 0
-1.3633065 -6.1494722 -0.33516106 0
-1.226011 -6.1491923 -0.36459982 0
-0.16765133 -6.1483402 -0.35718107 0
-1.3482043 -6.0603147 -0.3444407 0
-1.212 -6.0619998 -0.36899999 0
-0.161 -6.013 -0.354 0
-1.3331021 -5.9711576 -0.35372037 0
-1.318 -5.882 -0.36300001 0
-2.171 -3.0190001 -0.30599999 0
-2.129602 -2.9609847 -0.3032304 0
-2.1822963 -2.8860636 -0.30195713 0
-1.484 -6.862 -0.26100001 0
-1.4690217 -6.7735739 -0.27020353 0
-1.4539195 -6.6844168 -0.27948317 0
-1.4312663 -6.5506802 -0.29340264 0
1.021 -5.0630002 -0.26300001 0
1.0059878 -4.9814057 -0.26355603 0
0.87923312 -4.8555131 -0.26642162 0
0.98274076 -4.8550539 -0.26441702 0
0.85577297 -4.7332211 -0.26467457 0
0.95949388 -4.7287025 -0.26527801 0
0.44550002 -4.6440001 -0.2325 0
0.63997543 -4.6536069 -0.20133677 0
0.84007972 -4.6514158 -0.26350594 0
0.94399589 -4.6444683 -0.265852 0
0.39527103 -4.5504742 -0.23591122 0
0.48413444 -4.5556602 -0.24006745 0
0.62685353 -4.5645308 -0.20966968 0
0.82438648 -4.5696106 -0.26233727 0
0.92849797 -4.5602341 -0.266426 0
1.4792514 -4.5410423 -0.25055349 0
0.38981682 -4.4679794 -0.24272898 0
0.47602648 -4.425354 -0.24605188 0
0.61373156 -4.4754553 -0.21800257 0
0.79299998 -4.4060001 -0.25999999 0
0.80869323 -4.4878054 -0.26116863 0
0.91299999 -4.4759998 -0.26699999 0
1.4425579 -4.42452 -0.24887288 0
0.38163549 -4.3442373 -0.25295562 0
0.4706212 -4.3384833 -0.25004151 0
0.60060966 -4.3863792 -0.22633548 0
1.113589 -4.3772945 -0.25764382 0
1.4156132 -4.3389549 -0.24763876 0
0.37345421 -4.2204947 -0.26318225 0
0.46521589 -4.2516127 -0.25403112 0
0.58092678 -4.2527657 -0.23883484 0
1.077589 -4.2497945 -0.25564384 0
1.3886685 -4.2533903 -0.24640465 0
1.711 -4.2340002 -0.242 0
0.368 -4.138 -0.27000001 0
0.45981058 -4.1647415 -0.25802076 0
0.56124389 -4.1191516 -0.25133419 0
1.048 -4.145 -0.25400001 0
1.3617238 -4.1678252 -0.24517055 0
1.6879271 -4.1753755 -0.24083011 0
0.45440531 -4.0778708 -0.26201037 0
0.54812193 -4.030076 -0.2596671 0
1.334779 -4.0822601 -0.24393643 0
1.6381381 -4.0488691 -0.2383056 0
0.449 -3.9909999 -0.266 0
0.53500003 -3.941 -0.26800001 0
1.2808895 -3.91113 -0.24146821 0
1.3078343 -3.996695 -0.24270232 0
1.588349 -3.9223628 -0.23578107 0
1.2539448 -3.8255651 -0.24023411 0
1.5551562 -3.8380253 -0.23409806 0
1.227 -3.74 -0.23899999 0
1.5219635 -3.7536879 -0.23241505 0
1.4887708 -3.6693501 -0.23073205 0
1.768 -3.6259999 -0.21699999 0
1.4389818 -3.5428438 -0.22820753 0
1.7278801 -3.5414262 -0.21600938 0
1.3891927 -3.4163375 -0.22568302 0
1.6711041 -3.421741 -0.21460751 0
1.3559999 -3.332 -0.22400001 0
1.6332535 -3.3419509 -0.21367292 0
1.816 -3.323 -0.206 0
1.5954027 -3.2621608 -0.21273834 0
1.7716403 -3.2394488 -0.20542577 0
1.5386267 -3.1424754 -0.21133646 0
1.7105695 -3.1244221 -0.2046352 0
1.4818506 -3.0227902 -0.20993459 0
1.6698556 -3.0477376 -0.20410816 0
1.444 -2.9430001 -0.20900001 0
1.6291417 -2.9710534 -0.20358112 0
-2.127533 -2.8132145 -0.29862285 0
-2.050612 -2.850287 -0.29794586 0
1.5680709 -2.8560266 -0.20279056 0
-2.1747746 -2.7383437 -0.297764 0
-2.0734739 -2.7413018 -0.29533142 0
-1.9716215 -2.7395892 -0.29266128 0
1.507 -2.7409999 -0.20200001 0
-2.2279999 -2.6730001 -0.29800001 0
-2.199738 -2.6388991 -0.29608476 0
-2.0592294 -2.6558337 -0.292588 0
-1.9189613 -2.6657908 -0.28913826 0
-2.2311285 -2.5508375 -0.29542303 0
-2.1420643 -2.5693092 -0.29217628 0
-2.0435383 -2.5718682 -0.28974402 0
-1.9548949 -2.5414996 -0.28685257 0
-1.8399709 -2.5550933 -0.28385371 0
-2.233 -2.4330001 -0.29100001 0
-2.1498313 -2.4573073 -0.28956148 0
-2.0555537 -2.4649243 -0.28631356 0
-1.9325274 -2.4310486 -0.28296 0
-1.857237 -2.453651 -0.28216571 0
-1.7609806 -2.4443955 -0.27856913 0
-2.1495423 -2.3415875 -0.28527799 0
-2.0606928 -2.3547561 -0.28313458 0
-1.9690429 -2.3605394 -0.28045085 0
-1.8400998 -2.3711886 -0.27922115 0
-1.7287195 -2.3402112 -0.27531445 0
-2.2084897 -2.2954161 -0.28390747 0
-2.1456482 -2.2295175 -0.28005773 0
-2.0587406 -2.2421308 -0.27905247 0
-1.9414616 -2.2715774 -0.27662501 0
-1.8376058 -2.2557945 -0.27440494 0
-1.766011 -2.2198195 -0.27278399 0
-1.6512399 -2.2525704 -0.27060482 0
-2.0536518 -2.1330457 -0.27442193 0
-1.9493356 -2.1563952 -0.27269229 0
-1.8527027 -2.1154699 -0.26813844 0
-1.7532635 -2.1505897 -0.2690587 0
-1.641 -2.1659999 -0.26899999 0
-1.9616551 -2.0365734 -0.26878607 0
-1.8771375 -2.0432177 -0.26660141 0
-1.7658124 -2.064641 -0.26433539 0
-1.6678369 -2.045795 -0.26345426 0
-1.9003241 -1.9722588 -0.26502886 0
-1.8277981 -1.9424286 -0.26186135 0
-1.7449601 -1.9446719 -0.25893494 0
-1.6487129 -1.9266837 -0.25614232 0
-1.777662 -1.8436294 -0.25751445 0
-1.6552672 -1.8431523 -0.25257516 0
-1.716331 -1.7793148 -0.25375721 0
-1.645 -1.7465 -0.25 0
-2.8256125 -0.65414488 -0.25463158 0
-2.7263112 -0.63125753 -0.25167841 0
-2.6393971 -0.61122537 -0.24909359 0
-2.819 -0.58200002 -0.25299999 0
-2.7363763 -0.56491798 -0.2517885 0
-2.6507511 -0.5472154 -0.25053301 0
-2.5588045 -0.56035304 -0.24789315 0
-2.4725351 -0.54148567 -0.24597299 0
-2.3786554 -0.55112875 -0.24133919 0
-2.2482848 -0.52108049 -0.23746201 0
-2.351063 -0.48525643 -0.24613875 0
-2.2226253 -0.45870259 -0.2442555 0
-2.1274569 -0.46601611 -0.2382924 0
-2.0309999 -0.47099999 -0.23100001 0
-3.1767349 -0.052497372 -0.25253603 0
-3.0708919 -0.049995624 -0.25022674 0
-2.9440243 -0.046996936 -0.2474587 0
-2.8171568 -0.043998249 -0.24469069 0
-2.7325783 -0.041999124 -0.24284534 0
-2.648 -0.039999999 -0.241 0
-3.1362789 0.046016425 -0.2491691 0
-3.0467346 0.069715701 -0.24691074 0
-2.940598 0.056035701 -0.24508899 0
-2.8563235 0.055026781 -0.24344176 0
-2.7504127 0.043292418 -0.24172451 0
-2.6457047 0.053088155 -0.23935497 0
-2.5840001 0.082000002 -0.237 0
-3.0619283 0.16558211 -0.24482588 0
-2.9690473 0.16130351 -0.24304314 0
-2.843333 0.15551245 -0.24063019 0
-2.7176189 0.14972141 -0.23821725 0
-2.6338093 0.1458607 -0.23660862 0
-2.55 0.142 -0.235 0
-2.9238083 0.22778043 -0.23498431 0
-2.8404932 0.22204867 -0.2345749 0
-2.76037 0.21653651 -0.23418118 0
-2.6274567 0.22084551 -0.2330604 0
-2.5504768 0.23273419 -0.23212658 0
-2.4849999 0.25600001 -0.23100001 0
-2.9159999 0.366 -0.236 0
-2.8669612 0.36031282 -0.23535617 0
-2.7445731 0.34611899 -0.23374933 0
-2.6221845 0.33192512 -0.23214246 0
-2.5252962 0.34123129 -0.22803561 0
-2.4610968 0.3485558 -0.22901249 0
-2.641 0.45899999 -0.21600001 0
-2.5679264 0.44735774 -0.21748625 0
-2.458128 0.44943157 -0.21607272 0
-2.3434405 0.44830704 -0.2119716 0
-2.2238643 0.44398421 -0.20518295 0
-2.145 0.42899999 -0.204 0
-2.0233555 0.48918825 -0.20359899 0
-1.9382844 0.46675062 -0.2016792 0
-4.3607855 0.58421904 -0.24991873 0
-4.2628927 0.59485948 -0.24920937 0
-2.542161 0.50446057 -0.20995741 0
-2.3360775 0.57774073 -0.20635165 0
-2.2563889 0.55649662 -0.20618704 0
-2.1490757 0.55059844 -0.20414281 0
-2.0584037 0.55942434 -0.20111869 0
-2.464 0.61199999 -0.206 0
-2.305743 0.68982553 -0.20219485 0
-2.2483134 0.6439448 -0.20620897 0
-2.114291 0.65496004 -0.20172434 0
-2.3895893 0.71414095 -0.20387179 0
-2.217 0.71600002 -0.204 0
-2.17571 0.70389485 -0.20250759 0
-4.22018 0.89463973 -0.23529476 0
-4.1324534 0.87675983 -0.23686317 0
-4.0447268 0.85887992 -0.23843159 0
-3.957 0.84100002 -0.23999999 0
-4.658813 0.98403931 -0.22745268 0
-4.5710864 0.9661594 -0.2290211 0
-4.4833598 0.9482795 -0.23058951 0
-4.3517699 0.92145967 -0.23294213 0
-3.7739999 0.98699999 -0.235 0
-4.7712698 1.0069597 -0.22544214 0
-4.2063627 1.0953616 -0.22633107 0
-4.1198902 1.0736892 -0.22806486 0
-4.0334177 1.052017 -0.22979864 0
-3.946945 1.0303446 -0.23153242 0
-3.8501391 1.0528247 -0.2305807 0
-3.7544026 1.0734886 -0.2299476 0
-3.6689999 1.05 -0.23199999 0
-3.5220234 1.0954255 -0.21365575 0
-3.4355118 1.0692128 -0.21432789 0
-3.349 1.043 -0.215 0
-4.5621262 1.1845255 -0.21919796 0
-4.4657803 1.1603785 -0.22112972 0
-4.3793077 1.1387062 -0.22286351 0
-4.2928352 1.1170338 -0.22459729 0
-4.1814165 1.1909317 -0.21968558 0
-4.0533123 1.1556988 -0.22276419 0
-3.9252083 1.1204658 -0.22584279 0
-3.7815588 1.1740638 -0.21163939 0
-3.6517911 1.1347446 -0.21264759 0
-3.3281717 1.1957232 -0.2110627 0
-3.2485857 1.1728616 -0.21003136 0
-3.1689999 1.15 -0.20900001 0
-4.4180002 1.256 -0.214 0
-4.3522224 1.2379088 -0.21558078 0
-4.2668195 1.2144203 -0.21763319 0
-4.1276059 1.2789149 -0.20895091 0
-4.0410938 1.2527021 -0.20962302 0
-3.9545822 1.2264894 -0.21029514 0
-3.8680706 1.2002766 -0.21096727 0
-3.632 1.283 -0.215 0
-3.5669293 1.264308 -0.21415676 0
-3.4475505 1.2300155 -0.21260974 0
-3.1048238 1.2875682 -0.20636758 0
-3.0280001 1.26 -0.206 0
-4.2320585 1.3105638 -0.20813939 0
-3.4121182 1.3978413 -0.20783789 0
-3.3352945 1.3702731 -0.20747031 0
-3.258471 1.3427048 -0.20710273 0
-3.1816473 1.3151366 -0.20673515 0
-3.4460001 1.41 -0.208 0
0.66910964 -4.8513794 -0.18283547 0
0.65309733 -4.7426825 -0.19300386 0
1.8680468 -2.9148433 -0.19448267 0
1.914 -2.9879999 -0.19599999 0
1.820791 -2.839613 -0.19292234 0
1.7735351 -2.7643824 -0.19136201 0
1.936 -2.734 -0.18700001 0
1.6790234 -2.6139216 -0.18824133 0
1.7262793 -2.689152 -0.18980166 0
1.8726676 -2.6422091 -0.18568401 0
1.964 -2.6400001 -0.185 0
1.6317675 -2.5386913 -0.186681 0
1.7984366 -2.5346224 -0.18414155 0
1.881047 -2.5262055 -0.18351111 0
1.9565949 -2.5498025 -0.18313755 0
1.5845118 -2.4634609 -0.18512067 0
1.7489493 -2.462898 -0.18311323 0
1.8433635 -2.4340026 -0.18479347 0
1.9493735 -2.4476635 -0.18240961 0
2.003 -2.4460001 -0.18000001 0
1.49 -2.313 -0.182 0
1.5372559 -2.3882303 -0.18356033 0
1.6747183 -2.3553114 -0.18157077 0
1.7531108 -2.3507032 -0.18121481 0
1.807 -2.3610001 -0.189 0
1.9381756 -2.3651366 -0.17899756 0
1.6384182 -2.2465632 -0.17993268 0
1.8573817 -2.2643523 -0.17774817 0
1.5625 -2.1405001 -0.1785 0
1.6251745 -2.1752009 -0.17891853 0
1.7765877 -2.1635683 -0.17649879 0
1.6688626 -2.0291893 -0.17483293 0
1.7227252 -2.0963788 -0.17566586 0
1.4305218 -1.9522451 -0.17929776 0
1.615 -1.962 -0.17399999 0
1.7093427 -1.9304533 -0.1729722 0
1.3603336 -1.8539228 -0.1788922 0
1.6421647 -1.8554726 -0.17272836 0
1.2821872 -1.7310835 -0.17822433 0
1.3421222 -1.7697325 -0.17766933 0
1.434 -1.719 -0.17200001 0
1.5528839 -1.7558215 -0.17240429 0
1.1745943 -1.6217892 -0.17831555 0
1.2331247 -1.6632223 -0.17798288 0
1.3600531 -1.6281509 -0.17200001 0
1.4375846 -1.6738045 -0.17204012 0
1.668216 -1.634172 -0.16888495 0
1.73 -1.694 -0.169 0
1.1545101 -1.5413109 -0.17738913 0
1.2570266 -1.5015755 -0.17200001 0
1.3489418 -1.5347761 -0.17045522 0
1.4296942 -1.5529121 -0.16828805 0
1.5731728 -1.5421376 -0.16870795 0
1.716 -1.527 -0.16500001 0
1.2452773 -1.447578 -0.17171605 0
1.3470099 -1.4297851 -0.16799453 0
1.4267092 -1.4398445 -0.16753662 0
1.554659 -1.4526248 -0.16679499 0
1.6649253 -1.4820462 -0.16500001 0
1.1600001 -1.3494999 -0.1715 0
1.2619495 -1.3678596 -0.1697637 0
1.3830864 -1.3580688 -0.16835397 0
1.4515715 -1.3440628 -0.16380566 0
1.5340896 -1.3668902 -0.16500001 0
1.187 -1.2545 -0.17050001 0
1.2510523 -1.2614613 -0.16863415 0
1.3375092 -1.2775193 -0.16591908 0
1.4354078 -1.2477566 -0.16171022 0
1.193 -1.174 -0.168 0
1.2473928 -1.1521825 -0.16603476 0
1.3662418 -1.1683143 -0.16254136 0
1.4559461 -1.1909543 -0.15900141 0
2.559 -1.1160001 -0.12899999 0
1.2484288 -1.0651528 -0.16475835 0
1.3414462 -1.0939543 -0.16200142 0
1.4338473 -1.0620855 -0.15673335 0
2.3537836 -1.0288243 -0.13418341 0
2.4370067 -1.0641774 -0.13208134 0
2.5202298 -1.0995305 -0.12997927 0
1.2524104 -0.95335227 -0.16305186 0
1.3575532 -0.95424271 -0.15853144 0
1.4432325 -0.96552861 -0.15556383 0
2.1457262 -0.94044173 -0.1394386 0
2.2705607 -0.99347132 -0.13628548 0
2.3914046 -0.91348284 -0.13409024 0
2.4759552 -0.94504321 -0.13272652 0
2.5711687 -0.95753455 -0.13112094 0
1.243 -0.82599998 -0.161 0
1.3391554 -0.84698486 -0.15799274 0
1.4526169 -0.87471294 -0.15445721 0
1.5397472 -0.81886852 -0.1543356 0
1.6631017 -0.88304615 -0.1532243 0
1.8547065 -0.82168019 -0.14449376 0
1.9357147 -0.85632217 -0.14266187 0
2.0164821 -0.8926428 -0.14022 0
2.137753 -0.81880176 -0.1381814 0
2.2452846 -0.8282128 -0.13692617 0
2.3302932 -0.85885465 -0.13538966 0
2.4391985 -0.86551017 -0.13361603 0
2.5246649 -0.89523351 -0.1319067 0
1.2539999 -0.75 -0.16 0
1.3415183 -0.74451447 -0.15676884 0
1.4658104 -0.78040141 -0.15500171 0
1.5359285 -0.72514379 -0.15197363 0
1.6592757 -0.75631678 -0.14913175 0
1.7736983 -0.78703833 -0.14632562 0
1.8841012 -0.72412074 -0.14227256 0
1.9686518 -0.7556811 -0.14090884 0
2.0541337 -0.75025058 -0.14072038 0
2.1827989 -0.77634013 -0.13874403 0
2.349123 -0.7121613 -0.13267218 0
2.4353883 -0.73793149 -0.13088121 0
2.5238268 -0.76435077 -0.1290451 0
1.244 -0.66500002 -0.15700001 0
1.3472232 -0.63817894 -0.15324011 0
1.4607232 -0.67367893 -0.15124011 0
1.5397934 -0.6909309 -0.14843833 0
1.7566724 -0.66042793 -0.14530899 0
1.840933 -0.65744668 -0.14558133 0
1.9263995 -0.68717003 -0.14387201 0
2.0276587 -0.62269545 -0.13748655 0
2.1738884 -0.63218462 -0.1359857 0
2.2603698 -0.65696537 -0.13423333 0
2.3445792 -0.65133107 -0.13228971 0
2.4328651 -0.64472336 -0.13045342 0
2.506 -0.66400003 -0.12899999 0
1.234 -0.58600003 -0.154 0
1.6690351 -0.54212147 -0.14591403 0
1.7527028 -0.53962803 -0.14276594 0
1.8327004 -0.54624343 -0.14163135 0
1.9500179 -0.55496681 -0.13963017 0
2.0853693 -0.55351293 -0.13736302 0
2.1733022 -0.54888278 -0.13555396 0
2.2547448 -0.54170394 -0.13364518 0
2.341994 -0.56259024 -0.13195163 0
2.4637086 -0.54403347 -0.12870426 0
2.5787179 -0.53287309 -0.12518197 0
1.432 -0.447 -0.146 0
1.5593342 -0.45780757 -0.14371417 0
1.6585865 -0.43314689 -0.14415015 0
1.7378739 -0.4623026 -0.1442726 0
1.8454472 -0.43580711 -0.14142919 0
1.9579113 -0.43514496 -0.13833846 0
2.0609846 -0.43774724 -0.13586007 0
2.1488044 -0.45644832 -0.13419451 0
2.2303677 -0.45636854 -0.13205472 0
2.3379366 -0.46432048 -0.12990348 0
2.4383233 -0.46473324 -0.12842537 0
1.4685616 -0.35609618 -0.14413546 0
1.5564733 -0.32351872 -0.14241238 0
1.6535419 -0.34725562 -0.14272371 0
1.7439108 -0.34576091 -0.14145295 0
1.8617802 -0.36715004 -0.13929982 0
1.9470633 -0.32559896 -0.1359624 0
2.0560529 -0.33543023 -0.13394366 0
2.166595 -0.36079746 -0.13250431 0
2.2611458 -0.35284367 -0.12987731 0
2.3465319 -0.32881698 -0.1279566 0
2.424386 -0.33371094 -0.12665625 0
2.5380001 -0.345 -0.123 0
1.4119999 -0.296 -0.14399999 0
1.5438321 -0.20722741 -0.14058235 0
1.643136 -0.23302916 -0.14015944 0
1.7577177 -0.24601482 -0.13790874 0
1.8460344 -0.25840861 -0.13640332 0
1.94373 -0.2392966 -0.1349237 0
2.0482874 -0.25887251 -0.1325763 0
2.1504676 -0.26633799 -0.13113232 0
2.2451775 -0.24380727 -0.12898648 0
2.3576384 -0.23865354 -0.12669326 0
2.4621668 -0.22136377 -0.12292725 0
2.5139999 -0.226 -0.122 0
1.3815 -0.1355 -0.1415 0
1.4478185 -0.16773826 -0.1420293 0
1.5732799 -0.15329756 -0.14126472 0
1.6679173 -0.15147747 -0.13909806 0
1.7646589 -0.14553858 -0.13806096 0
1.8601949 -0.15691671 -0.13568713 0
1.9537001 -0.15049332 -0.13301116 0
2.0396955 -0.15097679 -0.13164859 0
2.1407897 -0.15552747 -0.12949857 0
2.2461619 -0.1709127 -0.1281672 0
2.3533266 -0.15818435 -0.12616679 0
2.453773 -0.16357952 -0.1237201 0
2.5039999 -0.167 -0.123 0
1.3726667 -0.052333336 -0.14166667 0
1.4476668 -0.05329065 -0.14151067 0
1.5611084 -0.040330093 -0.14237787 0
1.6398283 -0.05151077 -0.13936067 0
1.7531908 -0.057258703 -0.13643688 0
1.8698888 -0.043381583 -0.13315898 0
1.9432265 -0.055265505 -0.1313991 0
2.0466456 -0.056361832 -0.12949109 0
2.1431031 -0.049154282 -0.12770447 0
2.2442548 -0.045067076 -0.12575054 0
2.3129251 -0.064510733 -0.12414765 0
2.4251032 -0.05038707 -0.12135361 0
1.342 0.046 -0.14 0
1.4472045 0.046895355 -0.13776161 0
1.568803 0.047930241 -0.13517441 0
1.6637287 0.051690586 -0.13355014 0
1.7504575 0.055381171 -0.13210025 0
1.8540932 0.077035874 -0.1293252 0
1.940951 0.043619446 -0.12813945 0
2.0588961 0.047650103 -0.12682228 0
2.1683047 0.039932445 -0.12498704 0
2.235672 0.040853865 -0.12391546 0
2.3201802 0.0053846622 -0.12253865 0
2.4120083 0.0050307973 -0.12112319 0
1.3481505 0.14245443 -0.13865961 0
1.4521023 0.14981776 -0.13613844 0
1.5334758 0.15105666 -0.13511443 0
1.6439564 0.15424138 -0.13447388 0
1.7263318 0.12589106 -0.13310347 0
1.841954 0.14410245 -0.12983257 0
1.9509988 0.15868221 -0.12711975 0
2.0564475 0.16093068 -0.12455153 0
2.1571202 0.15183823 -0.12341823 0
2.2470386 0.12527333 -0.1216285 0
2.3474998 0.139 -0.1195 0
1.267 0.27649999 -0.138 0
1.3349069 0.25241971 -0.13807334 0
1.4590881 0.26170367 -0.13388799 0
1.5548501 0.26576549 -0.13520876 0
1.6468191 0.24099915 -0.13159037 0
1.760004 0.24137977 -0.13065565 0
1.8649305 0.25257021 -0.12740818 0
1.959179 0.26189551 -0.1256503 0
2.0430591 0.26274684 -0.12398698 0
2.1378388 0.25121027 -0.12200394 0
2.2509305 0.24625401 -0.11976107 0
2.3 0.21600001 -0.119 0
-1.6830711 0.39943767 -0.1959198 0
-1.598 0.377 -0.19400001 0
1.245 0.35149997 -0.138 0
1.3541421 0.33954808 -0.13584954 0
1.4487171 0.34345558 -0.13435982 0
1.5398235 0.34887603 -0.132843 0
1.6495364 0.36072817 -0.13065025 0
1.7418169 0.33422211 -0.12884207 0
1.8285556 0.33800796 -0.12681824 0
1.9404907 0.34200907 -0.12468985 0
2.0549824 0.34978142 -0.1223144 0
2.1341238 0.34393877 -0.12054843 0
2.2276189 0.33022803 -0.11815894 0
-1.8532133 0.44431296 -0.19975939 0
-1.7343724 0.45791245 -0.19512603 0
-1.6163012 0.46747479 -0.19020623 0
-1.5319999 0.44100001 -0.18799999 0
1.264786 0.43640295 -0.13648073 0
1.3633578 0.46020883 -0.13394219 0
1.43655 0.45504311 -0.13221419 0
1.5463523 0.44769615 -0.12960531 0
1.6450109 0.43183377 -0.12781386 0
1.757553 0.42525902 -0.12657578 0
1.8620008 0.43645278 -0.12414042 0
1.9684359 0.44203368 -0.12179323 0
2.0441527 0.45929864 -0.12000874 0
2.1437824 0.45912632 -0.11751543 0
-2.0369999 0.56 -0.198 0
-1.9535062 0.57337391 -0.19903116 0
-1.869205 0.54689914 -0.19682492 0
-1.7849038 0.52042437 -0.19461869 0
1.164 0.57200003 -0.13850001 0
1.245891 0.59228075 -0.13531253 0
1.4620924 0.52426267 -0.13134767 0
1.5451232 0.55235028 -0.12913024 0
1.6425521 0.54991299 -0.1264202 0
1.7396003 0.54351747 -0.12357013 0
1.8222504 0.56764686 -0.12121266 0
1.9284424 0.56119245 -0.11980281 0
2.0549154 0.53446728 -0.11773941 0
2.1979396 0.50037783 -0.11576229 0
2.2834096 0.52156675 -0.11314344 0
2.3688793 0.5427556 -0.11052458 0
2.4543493 0.56394458 -0.10790573 0
2.5398192 0.58513343 -0.10528687 0
-2.1508715 0.64491278 -0.19909742 0
-2.0553362 0.64287734 -0.19752562 0
-1.9820001 0.62150002 -0.19549999 0
-1.3662162 0.66226172 -0.18361469 0
-1.267 0.65100002 -0.182 0
1.1423842 0.67454761 -0.13760166 0
1.2336338 0.62642854 -0.13601525 0
1.3155247 0.64670932 -0.13282779 0
1.4056728 0.66484225 -0.1299376 0
1.7527002 0.6225692 -0.12358664 0
1.8837489 0.66690016 -0.12008683 0
1.9550183 0.65200722 -0.11706599 0
2.0145168 0.61669338 -0.11675198 0
2.1500835 0.65196681 -0.11375989 0
2.2761335 0.69154686 -0.11001584 0
2.625289 0.60632235 -0.10266802 0
2.7107589 0.62751126 -0.10004917 0
-2.1051819 0.79590201 -0.19844319 0
-2.0364547 0.7709347 -0.19629546 0
-1.9504361 0.76580167 -0.19340624 0
-1.868 0.75966668 -0.191 0
-1.6068645 0.7830469 -0.18545873 0
-1.5266484 0.74278516 -0.18484405 0
-1.4248722 0.73480618 -0.18283404 0
-1.3256561 0.72354442 -0.18121937 0
-1.2487072 0.76148331 -0.17911157 0
-1.173 0.79500002 -0.178 0
1.071 0.75399995 -0.13766666 0
1.1468526 0.76984024 -0.1360956 0
1.233822 0.74877334 -0.13531867 0
1.34012 0.74340469 -0.13282025 0
1.4670495 0.72141862 -0.1271556 0
1.5444059 0.77638662 -0.12365974 0
1.6453457 0.77368444 -0.12187522 0
1.827 0.74549997 -0.119 0
1.9404917 0.71939111 -0.11629613 0
2.0159669 0.76856428 -0.11418453 0
2.3601668 0.7179336 -0.1075198 0
2.4581001 0.73116016 -0.10451188 0
2.5434117 0.75774324 -0.10205085 0
2.612267 0.79709375 -0.10003167 0
-2.1315 0.83450001 -0.19850001 0
-2.0350971 0.845213 -0.19483763 0
-1.9358524 0.85931236 -0.19178063 0
-1.8639952 0.86373895 -0.18957636 0
-1.7767655 0.8551901 -0.18722935 0
-1.6616805 0.86051542 -0.18408513 0
-1.5586243 0.85417777 -0.18187746 0
-1.4591057 0.84476668 -0.18066373 0
-1.3450552 0.86628121 -0.17823589 0
-1.2542778 0.850034 -0.177 0
-1.137 0.85299999 -0.177 0
0.97199994 0.87666672 -0.13500001 0
1.0452744 0.85647225 -0.13642311 0
1.1597316 0.84799165 -0.13357718 0
1.264502 0.84484005 -0.13253997 0
1.6248332 0.83492196 -0.12076993 0
1.7263011 0.849603 -0.1189092 0
1.8261392 0.83463734 -0.11632123 0
1.9008102 0.89163476 -0.11433381 0
2.0979505 0.80034637 -0.11177678 0
2.179934 0.83212852 -0.10936905 0
2.2619174 0.86391068 -0.10696131 0
2.3674505 0.89134645 -0.10377678 0
2.4189999 0.83200002 -0.104 0
2.504071 0.86154681 -0.10171954 0
-2.0387363 0.95758891 -0.19263305 0
-1.9633468 0.94569397 -0.19078331 0
-1.8593669 0.92818427 -0.18851388 0
-1.7568357 0.94128621 -0.1840941 0
-1.666 0.972 -0.183 0
-1.5335797 0.95527261 -0.17926408 0
-1.445837 0.9574101 -0.17776141 0
-1.3573399 0.95315319 -0.17680085 0
-1.2475318 0.95262545 -0.17587934 0
-1.1631311 0.96400565 -0.17362545 0
-1.094 0.90700001 -0.175 0
0.89399999 0.977 -0.134 0
0.94107264 0.9510867 -0.13342254 0
1.0383663 0.93949634 -0.13166788 0
1.130878 0.94411784 -0.13083419 0
1.2450848 0.93194437 -0.13134159 0
1.3358396 0.94436014 -0.12652263 0
1.4325461 0.96454769 -0.12329932 0
1.675 0.977 -0.12 0
1.764707 0.95616072 -0.11626116 0
1.8451505 0.92972577 -0.11539973 0
1.9541565 0.96217465 -0.11277902 0
2.0624306 0.96890432 -0.11100143 0
2.4505787 0.92272663 -0.10155389 0
-2.069 1.015 -0.189 0
-1.9538368 1.0490253 -0.18663707 0
-1.8631868 1.058429 -0.18440038 0
-1.7540088 1.0424231 -0.18320255 0
-1.6447821 1.0645527 -0.17959681 0
-1.5558847 1.0455513 -0.17839558 0
-1.4314606 1.049253 -0.17645995 0
-1.3552569 1.0527743 -0.17487936 0
-1.2422643 1.0468183 -0.1737939 0
-1.1545001 1.0537896 -0.17192675 0
-1.0643333 1.0700001 -0.16933334 0
0.84904081 1.0537276 -0.13337521 0
0.94699895 1.0506953 -0.13094239 0
1.0489461 1.0468971 -0.12951384 0
1.1546993 1.0489404 -0.12901443 0
1.2599177 1.0548567 -0.12803985 0
1.3829608 1.0438398 -0.12433402 0
1.4658555 1.0902154 -0.12110645 0
1.6537913 1.074391 -0.11912262 0
1.7511835 1.0208778 -0.11770967 0
1.8498046 1.0530941 -0.11468341 0
1.9498632 1.0851492 -0.11242123 0
2.0609014 1.0460135 -0.10896269 0
2.1440406 1.0321794 -0.10846704 0
2.2239294 1.0708787 -0.10649383 0
2.3048611 1.0848086 -0.10600286 0
-1.9170001 1.125 -0.18700001 0
-1.857079 1.1581835 -0.18169624 0
-1.7543657 1.1502672 -0.18022119 0
-1.6694367 1.1655107 -0.17740253 0
-1.5717342 1.153059 -0.17647347 0
-1.4595481 1.1529907 -0.17492615 0
-1.3356842 1.162639 -0.1726886 0
-1.2426096 1.1344743 -0.17113648 0
-1.1594515 1.1470224 -0.17015617 0
-1.0604391 1.1564213 -0.16507593 0
-0.95436794 1.1666522 -0.16518171 0
-0.847 1.143 -0.164 0
0.76100004 1.1487501 -0.134 0
0.85813206 1.1526377 -0.13073769 0
0.96300501 1.1585193 -0.12853305 0
1.0709589 1.1396502 -0.1272399 0
1.1613432 1.15716 -0.12521641 0
1.2509215 1.1643996 -0.12340425 0
1.3409752 1.1425103 -0.12359643 0
1.4381288 1.1369565 -0.12544219 0
1.5234413 1.1690198 -0.12123458 0
1.6095663 1.1986464 -0.11731934 0
1.7641653 1.1475642 -0.11649049 0
1.8377479 1.1963464 -0.11473574 0
1.9416423 1.1305724 -0.11198386 0
2.0417008 1.1626273 -0.10972167 0
2.1408856 1.1469786 -0.10726405 0
2.253 1.161 -0.103 0
2.3567302 1.1436341 -0.10271106 0
2.4664814 1.1620781 -0.10267048 0
-2.0424867 1.2684084 -0.18454343 0
-1.9455256 1.2395947 -0.18421593 0
-1.8370407 1.2130187 -0.18249156 0
-1.7473025 1.270756 -0.17773481 0
-1.6627547 1.2511618 -0.1760951 0
-1.5626615 1.2556151 -0.1740448 0
-1.4797454 1.2574769 -0.17312902 0
-1.368886 1.2496151 -0.17093964 0
-1.2637653 1.239295 -0.16958544 0
-1.1555372 1.2434157 -0.15219137 0
-1.0500865 1.2525163 -0.16486347 0
-0.94822043 1.2787431 -0.1616898 0
-0.85499543 1.2425019 -0.16011488 0
-0.73899996 1.2275 -0.16 0
0.65935051 1.2735279 -0.13308269 0
0.74676895 1.2472596 -0.13198344 0
0.85274273 1.2597481 -0.12898655 0
0.92591858 1.2539911 -0.12704851 0
1.03983 1.2551016 -0.12522338 0
1.1704292 1.2574958 -0.12288919 0
1.2364172 1.2469953 -0.12338479 0
1.3456055 1.2440683 -0.1230112 0
1.4559406 1.2435359 -0.12123369 0
1.5586402 1.2633455 -0.1207252 0
1.6814218 1.252862 -0.11542578 0
1.9481219 1.2695196 -0.11210361 0
2.1574137 1.2282827 -0.10705025 0
2.2343159 1.2720797 -0.10514195 0
2.5472918 1.2007129 -0.1010043 0
-2.1576014 1.3414648 -0.183451 0
-2.0382695 1.3352128 -0.18190034 0
-1.8591266 1.3487433 -0.179895 0
-1.724 1.382 -0.178 0
-1.6518006 1.338104 -0.17400268 0
-1.5536854 1.3683233 -0.17178024 0
-1.4482647 1.3542328 -0.17018744 0
-1.3468835 1.3561472 -0.15732633 0
-1.2476349 1.3530282 -0.14845558 0
-1.1511072 1.3390461 -0.16500624 0
-1.0596557 1.3619349 -0.16431773 0
-0.96334535 1.3637158 -0.15138543 0
-0.86970943 1.329108 -0.14975661 0
-0.77262419 1.3477272 -0.15159106 0
-0.662 1.383 -0.155 0
-0.56650001 1.344 -0.154 0
-0.47299999 1.391 -0.15000001 0
0.33700001 1.388 -0.141 0
0.59100002 1.372 -0.13600001 0
0.64545345 1.3320972 -0.13250232 0
0.74998951 1.3528399 -0.12990484 0
0.85391265 1.362663 -0.12674002 0
0.94176787 1.3504499 -0.12473574 0
1.0417006 1.3606116 -0.12314811 0
1.1395252 1.3409153 -0.12091092 0
1.2412882 1.3416522 -0.12103759 0
1.3633323 1.3450539 -0.12006094 0
1.4558979 1.3859916 -0.1182875 0
1.5521332 1.3447125 -0.11786195 0
1.6449429 1.3446771 -0.11795752 0
1.7377889 1.3353213 -0.11511534 0
1.8251326 1.3612928 -0.11163867 0
2.0584958 1.3426927 -0.10947148 0
2.1320784 1.391475 -0.10771672 0
2.2844679 1.3280227 -0.10167739 0
2.3224843 1.3223655 -0.10289498 0
2.4222949 1.3512237 -0.10313185 0
-2.3494596 1.4632251 -0.18163028 0
-2.2496276 1.4379734 -0.18107963 0
-2.1512313 1.4109406 -0.18064055 0
-2.0033798 1.45623 -0.17768499 0
-1.9312532 1.4024867 -0.17878999 0
-1.862376 1.4958221 -0.17550299 0
-1.793188 1.438911 -0.17675149 0
-1.656 1.464 -0.176 0
-1.528 1.428 -0.17 0
-1.4487664 1.4538054 -0.16811718 0
-1.3191463 1.431728 -0.14097068 0
-1.2404549 1.4823874 -0.16337822 0
-1.1630466 1.4502113 -0.16296265 0
-1.0617161 1.4285827 -0.15966733 0
-0.95521927 1.4576874 -0.13214687 0
-0.8659879 1.4236819 -0.14527556 0
-0.65735936 1.459753 -0.15299892 0
-0.56537348 1.4375334 -0.15120184 0
-0.45236981 1.4705272 -0.14843789 0
-0.34799999 1.466 -0.147 0
-0.28099999 1.498 -0.145 0
0.213 1.472 -0.14 0
0.35348344 1.4507773 -0.13924645 0
0.537 1.434 -0.13699999 0
0.65562773 1.4385786 -0.13174349 0
0.78025681 1.45943 -0.12780845 0
0.8434177 1.4512426 -0.12624684 0
0.96224999 1.456 -0.123 0
1.0419236 1.4516296 -0.12136129 0
1.1394722 1.4423928 -0.12135911 0
1.2484152 1.4489393 -0.11871092 0
1.3397382 1.4653819 -0.11762875 0
1.448014 1.4519708 -0.11818113 0
1.5409597 1.4634622 -0.11546648 0
1.6539819 1.4332936 -0.11502539 0
1.7529078 1.4504701 -0.11351479 0
1.8806872 1.4461889 -0.11103585 0
1.9688436 1.4697239 -0.10785156 0
2.2258306 1.4536285 -0.10548098 0
-2.5029461 1.5606337 -0.18017371 0
-2.4262028 1.5119294 -0.18090199 0
-2.3395007 1.5371535 -0.17854089 0
-2.1476331 1.5637168 -0.17547499 0
-2.0755064 1.5099734 -0.17657998 0
-1.931564 1.5527331 -0.17425448 0
-1.7554377 1.5543838 -0.17412677 0
-1.586 1.544 -0.17299999 0
-1.3462826 1.5174522 -0.16437654 0
-1.2447174 1.5555707 -0.15989645 0
-1.1513201 1.5615675 -0.15696409 0
-1.0285887 1.5112089 -0.12425055 0
-0.986 1.528 -0.13699999 0
-0.8769989 1.5188029 -0.13862143 0
-0.7346133 1.5611973 -0.15227404 0
-0.65668851 1.5350056 -0.1522 0
-0.55816591 1.5469875 -0.14928341 0
-0.45267096 1.574204 -0.14624916 0
-0.35828581 1.5319529 -0.14296424 0
-0.25948942 1.5493385 -0.14089902 0
-0.15367255 1.5755098 -0.14191373 0
0.040666666 1.577 -0.14 0
0.15081947 1.5532477 -0.14029513 0
0.23532443 1.5538563 -0.13834633 0
0.37932229 1.5491848 -0.13649763 0
0.57885003 1.5543752 -0.13317499 0
0.67112803 1.5586897 -0.12976559 0
0.75383759 1.5519004 -0.1271828 0
0.84274215 1.5474262 -0.12542181 0
0.94386286 1.5363549 -0.12294158 0
1.0623338 1.5531851 -0.12032443 0
1.1362004 1.5553895 -0.118732 0
1.2473936 1.5571171 -0.11776344 0
1.3596689 1.5600191 -0.11583316 0
1.4513214 1.558172 -0.11531981 0
1.567045 1.5347157 -0.11548936 0
1.6508505 1.5707539 -0.11264995 0
1.7681494 1.5356644 -0.11244383 0
1.8523169 1.5577693 -0.11044753 0
1.9354293 1.5335217 -0.11014064 0
2.0168998 1.5673132 -0.10731933 0
2.1137772 1.5790775 -0.10403223 0
-2.6564326 1.658042 -0.17871714 0
-2.55373 1.6363521 -0.17794332 0
-2.4524624 1.6128812 -0.17728108 0
-2.2558229 1.6443318 -0.17381749 0
-2.035346 1.6380997 -0.17238173 0
-1.8548754 1.6447674 -0.17225352 0
-1.7126224 1.6710349 -0.17073151 0
-1.6493112 1.6075175 -0.17186575 0
-1.4356209 1.6678706 -0.16566668 0
-1.3618771 1.6364455 -0.16137637 0
-1.2757903 1.6473187 -0.16043842 0
-0.82739323 1.6997865 -0.14840041 0
-0.76766473 1.6439389 -0.15011352 0
-0.64770389 1.6344016 -0.14885473 0
-0.54109526 1.6431925 -0.14585164 0
-0.44358075 1.6710199 -0.14255638 0
-0.34963045 1.6358781 -0.13993186 0
-0.25415522 1.6520736 -0.13978553 0
-0.16319065 1.6478949 -0.13978821 0
-0.057484727 1.6500282 -0.14014401 0
0.050002676 1.6520166 -0.13605562 0
0.13681947 1.6522475 -0.13854513 0
0.43291774 1.6577778 -0.13441037 0
0.546 1.6390001 -0.133 0
0.66405439 1.6503776 -0.12892354 0
0.74562365 1.6484611 -0.12632893 0
0.8531841 1.6490872 -0.12414783 0
0.94504678 1.6515973 -0.12250908 0
1.0394303 1.6506209 -0.12051521 0
1.1622338 1.6420946 -0.11742073 0
1.248457 1.6520721 -0.1164158 0
1.3556824 1.6593405 -0.115083 0
1.4296163 1.6719445 -0.11318056 0
1.5302619 1.6501497 -0.11316857 0
1.6305575 1.6573788 -0.11244348 0
1.7424634 1.6575621 -0.11001849 0
1.8744298 1.6351187 -0.11040308 0
1.947078 1.6475644 -0.1072839 0
2.0476863 1.6613625 -0.10590365 0
-2.7320001 1.706 -0.178 0
-2.630039 1.7319257 -0.17530069 0
-2.5476243 1.7666997 -0.17465003 0
-2.4465697 1.7393451 -0.17502749 0
-2.3640127 1.7249469 -0.17215997 0
-2.2083161 1.7803773 -0.16926046 0
-2.139128 1.7234662 -0.17050897 0
-1.9543132 1.7351512 -0.17038029 0
-1.8392448 1.7980698 -0.16846304 0
-1.7759336 1.7345524 -0.16959727 0
-1.5512694 1.7485732 -0.1650714 0
-1.4405769 1.7674463 -0.15992492 0
-1.3642683 1.7342582 -0.1594225 0
-0.83889437 1.7494094 -0.14840688 0
-0.76445806 1.740009 -0.14730094 0
-0.64001083 1.7380506 -0.14571884 0
-0.54171461 1.743529 -0.1427746 0
-0.43829337 1.7562046 -0.14067638 0
-0.34958628 1.7487577 -0.13831662 0
-0.24242029 1.7695817 -0.13588209 0
-0.15619324 1.7420177 -0.13737287 0
-0.045538407 1.7541077 -0.13482988 0
0.052523904 1.7351307 -0.13114205 0
0.14379063 1.7432133 -0.13523041 0
0.45499954 1.7412158 -0.13151294 0
0.56844521 1.7526782 -0.12920539 0
0.66757202 1.7589514 -0.12684317 0
0.75898975 1.7607359 -0.12432616 0
0.85216045 1.7579286 -0.12327078 0
0.93898058 1.7382377 -0.12184574 0
1.0485196 1.754629 -0.12006667 0
1.1555903 1.7240021 -0.11763044 0
1.2571925 1.747344 -0.11491072 0
1.3602021 1.7844722 -0.11317247 0
1.444142 1.7661287 -0.11238144 0
1.5517318 1.7345476 -0.11120339 0
1.6426142 1.7573878 -0.11068162 0
1.704 1.705 -0.111 0
1.8576035 1.7565056 -0.1064245 0
2.0885987 1.7350032 -0.10384468 0
2.1525223 1.7469759 -0.10201846 0
2.21822 1.7576706 -0.10015485 0
-2.5050001 1.83 -0.17 0
-2.3466921 1.8941994 -0.16676344 0
-2.277504 1.8372883 -0.16801195 0
-2.1200426 1.8857907 -0.16725823 0
-2.053751 1.8255349 -0.16850705 0
-1.9025562 1.8615873 -0.16732879 0
-1.6385387 1.8501464 -0.16314279 0
-1.532377 1.8551385 -0.15669371 0
-1.4710317 1.8486803 -0.15799671 0
-0.91146374 1.8720775 -0.14615563 0
-0.8476277 1.8576602 -0.14663281 0
-0.74423873 1.8539522 -0.14448954 0
-0.65423375 1.85269 -0.14253733 0
-0.56584251 1.8438343 -0.14047498 0
-0.45816168 1.8475357 -0.13837636 0
-0.3475714 1.8596977 -0.13477476 0
-0.25437284 1.8554624 -0.13362956 0
-0.15975694 1.844843 -0.13453557 0
-0.041089036 1.8425105 -0.12476318 0
0.065667793 1.8462793 -0.13036388 0
0.12990955 1.8515249 -0.13128835 0
0.45734945 1.8270911 -0.12834591 0
0.55129755 1.8418 -0.12734857 0
0.63765067 1.8400108 -0.12576795 0
0.75616741 1.8485365 -0.12337428 0
0.83748168 1.8544388 -0.12129954 0
0.94551659 1.8346381 -0.12030838 0
1.0577061 1.8584418 -0.11888707 0
1.1444739 1.8439475 -0.11755186 0
1.2686285 1.8146439 -0.11401878 0
1.3249737 1.8344039 -0.10955755 0
1.4669126 1.8454343 -0.10656944 0
1.5149227 1.819235 -0.10778213 0
1.659 1.811 -0.11 0
-2.3889999 1.929 -0.16599999 0
-2.1863344 1.9460466 -0.1660094 0
-2.0291786 1.9886222 -0.16506031 0
-1.9658674 1.9251047 -0.16619456 0
-1.754898 1.9855773 -0.16057131 0
-1.6576105 1.9378567 -0.15855767 0
-1.5540695 1.9537356 -0.15639074 0
-0.94330317 1.9419447 -0.14646599 0
-0.86091709 1.9556619 -0.14419736 0
-0.7444883 1.9503087 -0.14184524 0
-0.65034342 1.9546354 -0.13947724 0
-0.55930549 1.9453191 -0.13742036 0
-0.44481069 1.9492791 -0.13474345 0
-0.33928955 1.9464772 -0.13253999 0
-0.24174184 1.9454731 -0.13165325 0
-0.15260407 1.9406929 -0.13135549 0
-0.054175951 1.9394302 -0.12515226 0
0.057025503 1.9553537 -0.12621079 0
0.14361432 1.9516557 -0.12775907 0
0.47797933 1.9385916 -0.12435916 0
0.54242861 1.9610296 -0.12417967 0
0.63583076 1.9535336 -0.12286387 0
0.75641388 1.9486386 -0.12056249 0
0.8592819 1.9336923 -0.11952996 0
0.95701581 1.9182658 -0.11935145 0
1.024014 1.933888 -0.11773123 0
-2.2728131 2.0246511 -0.16438028 0
-2.0924897 2.0521398 -0.16392608 0
-1.8130774 2.0532928 -0.15928558 0
-1.7333369 2.0948019 -0.15334438 0
-1.6500448 2.0479696 -0.15462363 0
-1.0118709 2.0510578 -0.14424667 0
-0.95643741 2.0423265 -0.14426708 0
-0.85066575 2.0547884 -0.14127502 0
-0.74652332 2.0509236 -0.13847451 0
-0.63787365 2.0480373 -0.13589457 0
-0.53904212 2.0399706 -0.13430332 0
-0.45302296 2.0340257 -0.13234629 0
-0.34942406 2.044477 -0.12982698 0
-0.25311917 2.0312223 -0.12923679 0
-0.16383652 2.0423026 -0.12835921 0
-0.057316307 2.0263667 -0.12051249 0
0.066381939 2.0560341 -0.12247849 0
0.15644749 2.0582831 -0.12399013 0
0.49651965 2.0790021 -0.11938636 0
0.56673014 2.0729501 -0.12019176 0
0.662301 2.0336223 -0.12034042 0
0.84883261 2.0317891 -0.11846245 0
0.90600002 2.0250001 -0.117 0
1.0460044 2.0329206 -0.11538759 0
1.11 2.0799999 -0.114 0
-2.1779006 2.1378286 -0.16239592 0
-1.9294367 2.1887238 -0.15671411 0
-1.8426285 2.1560042 -0.15499991 0
-1.7438335 2.1635129 -0.15298457 0
-1.6755168 2.122853 -0.15210398 0
-1.0349869 2.1546402 -0.14206012 0
-0.94552833 2.1391559 -0.14072382 0
-0.84584534 2.14482 -0.13691719 0
-0.75913274 2.1463263 -0.13622135 0
-0.65569919 2.1564689 -0.13308595 0
-0.5447005 2.1576025 -0.13076705 0
-0.45176631 2.1388092 -0.12927373 0
-0.35721773 2.1592405 -0.12684694 0
-0.25589851 2.1438222 -0.12610112 0
-0.14239337 2.1516488 -0.12430441 0
-0.040752232 2.1477242 -0.12143502 0
0.068766557 2.1174924 -0.12022487 0
0.14847362 2.1646521 -0.1154913 0
0.20142579 2.1737165 -0.11101463 0
0.53127331 2.1615689 -0.11178812 0
0.65202862 2.142909 -0.11711511 0
0.71934211 2.1271379 -0.11746462 0
0.90186226 2.1605973 -0.11470105 0
-2.007 2.279 -0.155 0
-1.9876163 2.2564392 -0.15542836 0
-1.8192196 2.2757363 -0.15276575 0
-1.7556586 2.2086344 -0.1525225 0
-1.1243858 2.2498186 -0.14259246 0
-1.0372835 2.2270629 -0.1404061 0
-0.94769335 2.23823 -0.13712738 0
-0.85585481 2.232306 -0.13662125 0
-0.76400179 2.2402937 -0.13349809 0
-0.65100002 2.2255001 -0.13074999 0
-0.54214895 2.2184644 -0.12912196 0
-0.44727001 2.2421947 -0.12647514 0
-0.34645921 2.2497787 -0.12381257 0
-0.23985744 2.244978 -0.12257013 0
-0.14134637 2.2494636 -0.12031022 0
-0.031672329 2.280746 -0.12076797 0
0.070124567 2.2533457 -0.11834328 0
0.15392172 2.2475424 -0.11704201 0
0.20999999 2.253 -0.117 0
0.56050003 2.2444999 -0.114 0
0.66146922 2.2375755 -0.11418059 0
0.75311625 2.2222471 -0.1144377 0
0.92699999 2.2190001 -0.113 0
-1.8845611 2.3596015 -0.15124324 0
-1.2332592 2.3955114 -0.14147551 0
-1.1546267 2.3602324 -0.13984676 0
-1.0531089 2.3441951 -0.13748521 0
-0.94 2.3329999 -0.13600001 0
-0.83099997 2.3110001 -0.133 0
-0.34879658 2.3301368 -0.11335547 0
-0.22033449 2.3630893 -0.11946283 0
-0.14578819 2.3694863 -0.1189732 0
-0.033339806 2.3695669 -0.11787768 0
0.075949475 2.3882148 -0.11401193 0
0.15753536 2.3347397 -0.11395317 0
0.61033517 2.3315194 -0.10997391 0
-1.248 2.4200001 -0.141 0
-1.1498775 2.4577329 -0.13551196 0
-0.3893199 2.4581311 -0.10127472 0
-0.148 2.402 -0.118 0
-0.035 2.4579999 -0.115 0
0.079944246 2.4807093 -0.11104146 0
0.15111364 2.4586976 -0.10991115 0
0.63267034 2.4190388 -0.10594784 0
-1.1423829 2.5516355 -0.13130249 0
0.19779864 2.514286 -0.10709618 0
0.65500551 2.5065579 -0.10192175 0
-1.1774786 2.6327944 -0.12887812 0
-1.2301222 2.7545328 -0.12524155 0
-1.2827657 2.876271 -0.12160499 0
-1.306 2.9300001 -0.12 0
2.112 -6.934 -0.033 0
2.084636 -6.8491716 -0.02154769 0
2.0572722 -6.7643437 -0.01009538 0
-0.447 -5.0869999 -0.0020000001 0
-0.199 -4.7690001 -0.0020000001 0
-0.086999997 -4.6950002 -0.001 0
2.7449999 0.63599998 -0.098999999 0
2.6451802 0.771559 -0.099147961 0
2.7317705 0.79833853 -0.096721947 0
2.5891421 0.89109367 -0.099439085 0
2.6470001 0.80800003 -0.098999999 0
2.8183608 0.82511806 -0.094295926 0
2.9482462 0.86528736 -0.090656899 0
2.5334713 0.95907122 -0.099220671 0
2.6590166 0.9502877 -0.097022235 0
2.759284 0.95018733 -0.094878167 0
2.8443551 0.97973412 -0.092597701 0
3.0781314 0.9054566 -0.087017871 0
3.1647217 0.93223614 -0.084591851 0
3.251312 0.95901567 -0.08216583 0
3.3379023 0.98579514 -0.079739809 0
2.7280931 1.0109134 -0.094847806 0
2.8545032 1.0573808 -0.091790736 0
2.9294262 1.0092809 -0.090317242 0
3.0570328 1.0536013 -0.086896554 0
3.1846395 1.0979214 -0.083475865 0
3.4000001 1.005 -0.078000002 0
2.408 1.186 -0.1 0
2.9809129 1.1038482 -0.088733666 0
3.065186 1.1348265 -0.086695619 0
3.1494594 1.1658049 -0.084657565 0
3.2549036 1.1494894 -0.081731804 0
2.596 1.224 -0.1 0
0.35506862 1.4694512 -0.0037599131 0
0.087870292 1.5918391 -0.0040014982 0
0.13415468 1.5592928 -0.00045718998 0
0.37483877 1.5556233 -0.016008817 0
0.073064744 1.6787379 -0.011641886 0
0.12839824 1.6436352 -0.011263259 0
0.39460894 1.6417954 -0.028257713 0
0.077113107 1.7686003 -0.022570565 0
0.13979775 1.7367451 -0.028195616 0
0.41437909 1.7279675 -0.040506616 0
-0.0019999999 1.83 -0.1 0
0.076056868 1.8553691 -0.02024872 0
0.13240181 1.835754 -0.040497918 0
0.43414927 1.8141396 -0.052755512 0
1.3651042 1.885525 -0.099127419 0
1.4058323 1.8658792 -0.099442236 0
1.5703564 1.8626623 -0.094271243 0
1.6295813 1.8751968 -0.082122058 0
2.2582455 1.8319503 -0.098114587 0
2.3603663 1.8701177 -0.094924763 0
0.062097482 1.9443471 -0.04285495 0
0.14790338 1.9514415 -0.061358135 0
0.46380448 1.9433978 -0.07112886 0
1.3978418 1.9504232 -0.092345327 0
1.4379364 1.9474041 -0.08556965 0
1.5460058 1.9521223 -0.090494372 0
1.6462198 1.9521226 -0.075947367 0
2.2964966 1.907508 -0.096111707 0
2.3657961 1.9650097 -0.093534052 0
2.4314396 1.9263412 -0.092309713 0
2.5025129 1.9825647 -0.089694664 0
-0.059259437 2.0487275 -0.019759782 0
0.065081239 2.0339561 -0.054212455 0
0.15021122 2.0674164 -0.077099271 0
0.4934597 2.0726557 -0.0895022 0
1.4719197 2.0503521 -0.075030297 0
1.540413 2.043077 -0.065547824 0
1.6528842 2.0413232 -0.076391384 0
1.7415638 2.0461545 -0.051241878 0
1.8044534 2.0734921 -0.038805127 0
2.4350953 2.0225112 -0.09095639 0
2.5389905 2.0594006 -0.087729171 0
2.6446595 2.0950117 -0.084464565 0
-0.062611468 2.1418889 -0.070636444 0
0.068064988 2.1235647 -0.065569967 0
0.11854812 2.1325357 -0.067000598 0
1.066 2.184 -0.0050000027 0
1.5461807 2.1495943 -0.054170027 0
1.6490319 2.1403322 -0.052494351 0
1.7611115 2.1438487 -0.054843474 0
1.8627441 2.1395905 -0.024366155 0
2.573694 2.1375146 -0.085801072 0
2.6429935 2.1950161 -0.083223417 0
2.7408664 2.1711178 -0.080924757 0
-0.06654676 2.2638581 -0.052944571 0
0.071048744 2.2131736 -0.076927476 0
0.12366109 2.2226517 -0.077500448 0
1.0747842 2.2030859 -0.0072471127 0
1.1113112 2.2824502 -0.016591221 0
1.6323814 2.2372315 -0.037484635 0
1.7566293 2.2454371 -0.044458508 0
1.8442429 2.2483842 -0.040417943 0
1.9118617 2.2465205 -0.0064232871 0
2.6489999 2.2 -0.082999997 0
-0.33640462 2.3958349 -0.095698066 0
-0.070149824 2.3716283 -0.060731471 0
0.075524375 2.3475869 -0.093963742 0
0.12877406 2.3127677 -0.088000298 0
1.1478381 2.3618145 -0.025935333 0
1.6620878 2.3185782 -0.028300282 0
1.7362863 2.3816423 -0.012312842 0
1.8669519 2.347712 -0.043333225 0
1.9440209 2.3589945 -0.018962888 0
-0.41056022 2.4434099 -0.087338656 0
-0.34660691 2.4797525 -0.08204709 0
-0.072956778 2.4566703 -0.060134634 0
0.13388702 2.402884 -0.098500147 0
1.184365 2.4411786 -0.035279445 0
1.635 2.447 -0.097000003 0
1.7542884 2.4629045 -0.02005396 0
1.8936243 2.4122829 -0.017199554 0
1.9295 2.4265001 -0.033 0
-0.41938812 2.5572262 -0.077576965 0
-0.35680923 2.5636702 -0.068396121 0
0.67734069 2.5940773 -0.097895667 0
1.2391555 2.560225 -0.049295612 0
1.454 2.559 -0.090999998 0
1.6811345 2.518434 -0.093279481 0
1.7606344 2.554934 -0.050779477 0
-0.43488014 2.6425409 -0.064613372 0
-0.36701152 2.6475878 -0.05474516 0
0.69967586 2.6815968 -0.093869589 0
1.293946 2.6792715 -0.063311778 0
1.4934556 2.625874 -0.087879211 0
1.5329114 2.6927481 -0.084758416 0
1.7734035 2.6613021 -0.08583843 0
-0.45037216 2.7278557 -0.051649787 0
-0.37721381 2.7315052 -0.041094191 0
0.72201103 2.7691162 -0.089843504 0
1.3304729 2.7586358 -0.072655894 0
1.5723672 2.7596221 -0.081637628 0
1.819538 2.7327361 -0.082117908 0
-0.46561599 2.8382666 -0.041444637 0
-0.38699999 2.812 -0.028000005 0
0.73786986 2.8382833 -0.049891058 0
1.367 2.8380001 -0.082000002 0
1.6214114 2.8427482 -0.077758417 0
1.8656725 2.8041704 -0.078397378 0
1.9118071 2.8756044 -0.074676856 0
-0.48813981 2.9372621 -0.021049436 0
0.76555777 2.9456062 -0.051082402 0
1.9450001 2.927 -0.071999997 0
-0.486 3.007 -0.031999998 0
0.79380745 3.0522037 -0.067628212 0
0.81778383 3.1443977 -0.072579719 0
-0.37937865 3.3297131 -0.0052947775 0
-0.38925245 3.4184754 -0.014863186 0
-0.40900001 3.596 -0.034000002 0
-0.39912623 3.5072377 -0.024431594 0
-1.0776635 3.8212981 -0.00074796751 0
-1.3419548 3.9977615 -0.00078868121 0
-1.1174977 3.9502234 -0.015310973 0
-1.371466 4.081821 -0.016591508 0
-1.2606877 4.0325055 -0.010445975 0
-1.1573317 4.0791492 -0.029873984 0
-1.4009774 4.1658807 -0.032394342 0
-1.2852657 4.1181293 -0.023334481 0
-1.1838878 4.1650991 -0.039582655 0
-1.4304887 4.2499404 -0.048197173 0
-1.3221328 4.2465644 -0.04266724 0
-1.210444 4.2510495 -0.049291328 0
-1.46 4.3340001 -0.064000003 0
-1.359 4.375 -0.061999999 0
-1.237 4.3369999 -0.059 0
2.0299082 -6.6795154 0.0013569333 0
1.9751804 -6.5098591 0.024261549 0
2.0025444 -6.5946875 0.012809239 0
1.9478165 -6.4250312 0.035713859 0
1.9204525 -6.3402028 0.047166169 0
1.8930886 -6.2553749 0.058618471 0
1.8657247 -6.1705465 0.070070781 0
1.842 -6.0970001 0.079999998 0
-0.439037 -5.0002918 0.0050782226 0
-0.43107399 -4.9135833 0.012156446 0
-0.42311099 -4.8268752 0.019234668 0
-0.41514799 -4.7401671 0.026312891 0
-0.40718499 -4.6534586 0.033391114 0
-0.19353281 -4.6487217 0.012099609 0
-0.085494146 -4.617126 0.0086804722 0
-0.39922199 -4.5667505 0.040469337 0
-0.18806562 -4.5284433 0.026199216 0
-0.083988294 -4.5392523 0.018360944 0
-0.38762951 -4.4405212 0.050773781 0
-0.18442082 -4.4482579 0.035598956 0
-0.082482442 -4.4613781 0.028041415 0
-0.18038802 -4.3595362 0.045999348 0
-0.080488294 -4.358252 0.040860943 0
0.36050001 1.4555 0.0044999998 0
0.064013831 1.5604742 0.015141818 0
0.12800001 1.503 0.0090000033 0
0.39256057 1.5559845 0.017335366 0
0.076415636 1.6528167 0.025753601 0
0.41312113 1.6439688 0.025670733 0
0.077486172 1.7597408 0.011304034 0
0.4336817 1.7319533 0.034006096 0
0.45424229 1.8199377 0.042341467 0
0.48508313 1.9519143 0.054844514 0
0.51592398 2.0838909 0.067347564 0
-0.28546336 2.1912475 0.059712157 0
0.53648454 2.1718755 0.075682938 0
-0.29522291 2.28071 0.053649411 0
0.5570451 2.2598598 0.084018305 0
1.9793254 2.2717874 0.0045117885 0
-0.30451909 2.3659251 0.047874507 0
0.57760566 2.3478441 0.092353672 0
1.9579296 2.3548312 0.012520693 0
2.0478082 2.349443 0.021475382 0
-0.31381527 2.4511399 0.042099603 0
0.59399998 2.418 0.099000007 0
0.63489354 2.4569309 0.048535313 0
1.7739373 2.4657254 0.01185324 0
1.8364908 2.4329128 0.0090198889 0
1.999 2.405 0.024000004 0
-0.32311147 2.536355 0.036324702 0
0.66418862 2.5671291 0.029561795 0
1.8657743 2.5112641 0.022859218 0
-0.33240765 2.6215701 0.030549802 0
0.68659025 2.6513963 0.015052967 0
-0.33120996 2.7549813 0.038972639 0
0.70899189 2.7356637 0.00054413825 0
-0.61321771 2.8370125 0.053361189 0
-0.57700002 2.8410001 0.071999997 0
-0.33000976 2.8859019 0.042547256 0
-0.62953299 2.9567058 0.04243743 0
-0.58888477 2.9167898 0.062453225 0
-0.33988354 2.9746642 0.032978848 0
-0.77899998 3.085 0.074000001 0
-0.6432212 3.0536973 0.032363307 0
-0.34975731 3.0634265 0.023410443 0
-0.79111952 3.1474493 0.065920323 0
-0.62572122 3.1516974 0.032863304 0
-0.35963109 3.1521888 0.013842035 0
-0.80608964 3.224587 0.055940241 0
-0.63800001 3.23 0.023 0
-0.36950487 3.2409511 0.0042736307 0
-0.82854486 3.3402934 0.040970117 0
-1.1648868 3.4934034 0.094028331 0
-0.96471965 3.4557486 0.040543362 0
-0.85100001 3.4560001 0.026000001 0
-1.1402057 3.5380754 0.070703529 0
-0.99799532 3.5634472 0.028378054 0
-1.2239095 3.6615229 0.062422656 0
-1.1500864 3.6471989 0.04755231 0
-1.0245514 3.6493974 0.018669382 0
-1.2534208 3.7455826 0.046619825 0
-1.1869534 3.7756345 0.028219551 0
-1.0511074 3.7353477 0.008960709 0
-1.2472318 3.8454502 0.023074012 0
-1.3124435 3.913702 0.015014149 0
-1.2361096 3.9468818 0.0024425313 0
-4.862 9.4779997 0.088 0
-1.15 3.451 0.10200001 0
-4.5700002 8.9820004 0.17900001 0
-4.6053786 9.0420952 0.16797447 0
-4.6695342 9.1510715 0.14798084 0
-4.7336893 9.2600479 0.12798724 0
-4.7764597 9.3326979 0.11465815 0
-4.8192296 9.4053488 0.10132908 0
