# .PCD v0.7 - Point Cloud Data file format
VERSION 0.7
FIELDS x y z intensity
SIZE 4 4 4 4
TYPE F F F F
COUNT 1 1 1 1
WIDTH 77
HEIGHT 1
VIEWPOINT 0 0 0 1 0 0 0
POINTS 77
DATA ascii
-30.526981 5.6313477 11.584797 14
-29.759623 6.8159184 17.735947 19
-29.475399 7.3085213 12.540428 15
-29.374722 7.579196 11.272661 14
-9.0245152 11.848605 3.0824196 9
-6.4724679 22.975082 12.425742 18
-5.6819854 11.838068 2.4244723 9
-5.489974 11.737494 4.5295048 13
-5.4779038 11.742465 4.6485152 14
-5.3439069 11.733704 4.0455837 12
-4.8758249 11.838574 2.0679142 8
-4.9395881 11.80824 2.9678586 10
-4.4388576 11.828593 2.6481314 9
-4.0995169 3.8738794 0.40082464 5
-3.7923162 9.1349993 0.82653791 6
-3.5668089 9.2422266 0.73074204 5
-3.2184184 4.9628034 0.098577656 4
-3.1382017 4.8987708 0.45258254 6
-3.0701525 2.7286246 0.85747838 9
-2.6185732 1.6844445 0.45664722 8
-2.6861639 11.40269 2.131628 9
-2.7902951 11.743912 3.8948095 13
-2.7219784 11.696774 4.2788053 14
-2.5586402 1.6313969 0.1156341 4.5
-2.5296679 1.6104007 0.31363341 6
-2.5560989 1.5612766 0.66254663 10
-2.3634632 11.802976 2.038003 8
-1.6648378 11.690275 4.3071485 14
-1.4455279 11.747339 2.4132426 9
-1.2552656 11.703705 3.8702614 13
-0.77423799 7.0327759 3.7285459 18
-0.6456815 6.9857759 3.9365597 19
-0.55053461 7.1200423 3.6046693 17
-0.16404165 -0.58128053 0.16282445 12
0.15798181 -0.8124764 -0.047956806 2
0.19900569 -0.84268278 0.025123879 4
0.69080245 4.0937734 0.34770307 5.5
0.98867542 4.8491077 1.716614 13
0.9866671 4.4797034 2.4374154 18
1.096276 4.777257 1.7625686 14
1.2458787 3.9229355 0.35209513 6
1.213226 3.8565741 0.78906524 9
1.3420997 4.6092749 2.3064468 17
1.9949911 3.7044933 0.362719 6
2.0940461 4.3741794 1.4580663 12
2.0127518 4.4109325 1.5811259 13
2.0161204 4.3098793 1.7250652 14
3.0906866 -3.626646 4.3652325 25
3.4507105 3.6926165 1.1580511 10
3.9323332 -2.2070498 4.2443995 26
4.1658378 3.2989478 0.58178157 6
4.9363747 -2.5486078 0.31220636 4.5
4.804915 -2.7728274 0.49267623 6
5.0921235 -4.092598 0.49988499 5.5
5.3650112 -3.5484686 0.96638471 8
5.222806 -3.7963116 1.8643414 12
5.3610678 -3.4902265 2.1062953 13
5.2484837 -3.7547724 3.1713617 17
5.5317588 -3.4332142 1.2186909 9
5.4527583 -3.412276 1.6604401 11
5.9587054 -2.5466614 1.1285907 8
5.9177012 -2.6324494 1.6436065 11
5.9243703 -2.7507665 1.9108046 12
5.8062968 -2.8212306 2.0945766 13
6.1172042 -2.2814779 0.93363267 7
6.1287007 -2.4365189 1.3029054 9
6.0513244 -2.539407 3.1588523 17
6.3493285 -1.890871 1.4746813 10
6.3202214 -1.9689791 2.7497284 15
6.4820361 -1.6852027 0.55572253 6
6.5283465 -1.6294109 1.85077 11
6.5317483 -1.6548272 2.1018221 12
6.5304193 -1.6615286 2.2328303 13
6.7691107 -0.89963424 2.1362309 12
6.963686 -1.0354136 1.3260158 9
6.9914594 -0.83114392 1.5437437 10
6.9822621 2.8175848 1.743175 10
