# .PCD v0.7 - Point Cloud Data file format
VERSION 0.7
FIELDS x y z intensity
SIZE 4 4 4 4
TYPE F F F F
COUNT 1 1 1 1
WIDTH 415
HEIGHT 1
VIEWPOINT 0 0 0 1 0 0 0
POINTS 415
DATA ascii
-53.0103 -29.994965 12.571954 9
-52.908928 -30.164724 14.278093 10
-52.77087 -30.189465 11.896199 9
-52.718533 -30.293499 15.949281 11
-51.743301 -31.152836 18.140333 12
-51.43454 -30.850189 9.6334162 8
-51.581478 -31.039631 11.709394 9
-51.583679 -31.028812 14.157389 10
-51.458286 -31.131571 15.824527 11
-50.891724 -22.029213 14.320873 11
-50.498238 -22.318188 15.852179 12
-50.18 -22.677795 16.417461 12
-50.275406 -22.498533 18.323359 13
-50.116268 -22.747337 21.565519 14
-49.371346 -24.079178 14.275349 11
-49.523506 -23.062067 18.941971 13
-49.462227 -23.070499 19.777012 14
-48.988724 -23.532352 12.620436 10
-48.953819 -24.233137 15.783664 12
-49.116501 -23.521208 17.210352 12
-41.41301 -12.605078 10.997115 11
-41.227627 -9.1633863 14.274324 13
-41.257149 -12.134074 14.461187 13
-41.040699 -11.950854 9.714303 10
-41.094406 -12.065497 12.035275 11
-41.145763 -11.951126 12.677247 12
-41.156544 -11.94065 15.21824 14
-40.631134 -10.959337 14.179532 13
-40.422535 -10.779944 14.903647 14
-31.491009 4.1619506 10.149435 13
-31.33005 4.4252014 10.954668 13
-31.054272 4.8459105 10.049052 13
-31.19496 4.534224 11.042801 13
-30.71855 5.5268884 9.9856329 13
-30.532612 5.7231154 10.784851 13
-30.792179 5.2381711 10.936423 13
-30.739315 5.367393 11.693526 14
-30.158907 6.355082 10.714443 13
-30.332405 5.9111176 10.81507 13
-30.132217 6.2872901 11.470411 14
-30.379616 5.9873481 11.628094 14
-30.365871 5.9295149 12.216066 15
-30.022415 6.5464964 15.974637 18
-29.93498 6.6916142 8.9847775 12
-29.848104 6.8208346 9.8129063 13
-29.968649 6.5890813 10.734692 13
-29.987921 6.5893021 11.55368 14
-29.698856 7.0602527 11.433145 14
-29.95211 6.5584426 12.075681 15
-29.875456 6.7437057 16.871845 18
-29.44352 7.5950289 10.593635 13
-29.296164 7.9330301 10.609946 13
-29.235628 7.8143287 11.856895 14
-29.18955 8.0256176 8.8760662 12
-29.106703 8.0908089 9.695158 13
-28.83042 8.5509968 10.512628 13
-29.099997 8.236166 11.222261 14
-28.884893 8.4292793 11.759512 14
-29.146664 7.9164586 12.425014 15
-22.393171 -2.313374 -0.35000396 3
-16.491148 -2.378839 -0.1811371 3
-16.334431 -3.2862287 -0.12726904 3
-15.096021 -0.7381956 -0.18989901 3
-12.969436 -11.646711 -0.44503564 2
-11.588366 -9.5835085 -0.4581818 2
-10.791114 23.036745 13.086912 18
-10.49465 23.052637 13.44407 18
-10.039355 -3.5477722 -0.3751173 2
-10.197268 23.016579 13.62419 18
-10.270111 22.973366 14.301123 19
-9.2688131 11.857532 3.0592673 9
-9.273736 11.851456 3.5152595 10
-9.0672178 -5.4641781 -0.019282661 3
-9.1748333 11.875694 2.2993441 8
-9.0865488 11.88659 3.1154106 9
-8.8751268 23.015882 12.750803 18
-8.6446381 -4.6100974 -0.44024751 2
-8.6108494 -0.72566259 -0.061762691 3
-8.7508945 23.011808 12.963855 18
-8.5382452 22.995478 13.909936 19
-8.3793459 22.98271 13.259996 18
-7.6468024 22.974983 12.560296 18
-7.5246048 23.002956 12.652366 18
-7.2270541 22.9928 13.076475 18
-7.4080129 22.958572 13.662381 19
-6.4376311 11.77525 4.1719847 12
-6.5026045 11.7541 4.636929 13
-6.5025487 11.756557 4.8034306 14
-6.2270021 11.743058 5.1320848 14
-6.3075461 22.991318 11.859812 17
-6.3333178 22.988108 12.374801 18
-6.3237739 22.954659 13.461783 19
-5.6058245 11.833068 2.5425119 9
-5.7138519 22.990368 11.820011 17
-5.8247366 22.976156 12.310966 18
-5.7801538 22.929712 13.359953 19
-5.2341127 -1.0247788 -0.26831967 2
-5.3470721 -0.66070586 -0.27219489 2
-5.3510642 -0.29164967 -0.27698442 2
-5.5679178 11.851226 2.092546 8
-5.4124494 11.838108 2.7086232 9
-5.5796118 11.818928 3.0355153 10
-5.4409022 11.788568 4.3885713 13
-5.4598889 11.730474 4.6345167 14
-5.2554216 11.718451 4.9516211 14
-4.8330455 4.3647294 -0.095263764 3
-5.0029182 11.822405 2.3838341 9
-4.9367838 11.819414 2.4508681 9
-4.8248763 11.719801 4.3908544 13
-4.8358068 11.743741 4.5688653 14
-4.4616294 -2.6436296 -0.29319894 2
-4.4085636 -2.3342378 -0.29120126 1
-4.446207 2.6671674 -0.19871479 2
-4.5422835 11.829749 2.0580802 8
-4.4167752 2.8205342 2.7234716 18
-4.6482825 11.812536 2.5080132 9
-4.4333167 2.6923985 2.8143215 18
-4.634079 11.811394 2.9390194 10
-4.7337666 11.780926 4.159946 12.5
-4.6533675 11.730713 4.8599524 14
-4.5444555 22.980467 11.763352 17
-4.6963778 22.94573 12.26379 18
-4.7229109 22.91181 13.191261 19
-4.2160378 3.7976944 0.39965305 5
-4.1318827 3.8881848 0.57081288 6.5
-4.1031995 11.679427 0.77419263 5
-4.0640283 11.683368 1.0062144 6
-4.2733788 2.7060184 2.9032094 19
-4.2022882 2.8086681 2.8396251 19
-4.146215 22.953781 12.211939 18
-4.2092781 22.931852 13.13541 19
-3.9823885 -1.4220637 -0.26690856 1
-3.8092215 -0.76788557 -0.26156992 1
-3.6888123 4.5099421 -0.049214866 3
-3.759577 9.0862455 0.1145207 4
-3.6600649 9.3663254 0.34778067 4
-3.6918249 9.1394501 0.70159775 5.3333335
-3.9760635 11.812651 0.45334601 4
-3.7011557 9.1130648 0.80657315 6
-3.9177976 11.749508 0.89732999 5
-3.9657638 22.950525 11.730481 17
-3.3701744 2.2500584 -0.11332256 2.5
-3.3490252 2.6326785 -0.12087212 2
-3.3709154 3.3861747 -0.2150739 2
-3.2237122 4.845747 -0.073531933 3
-3.2278798 2.3333647 0.34289327 6
-3.2042799 4.9787803 0.33460286 5
-3.2488246 2.3246639 0.57886535 7.6666665
-3.2115774 4.8266325 0.46046031 6
-3.1841316 2.5943255 -0.076771863 3
-3.1050527 2.8017359 -0.14047137 2
-3.1899107 3.5215604 -0.21377879 2
-3.0018921 3.6499519 -0.211487 2
-3.0958066 4.1683245 -0.045058649 3
-3.0257246 5.0411282 -0.081204511 3
-3.1811759 5.0188708 0.16865642 4
-3.163465 2.2698429 0.773875 9
-3.1653628 2.5798085 0.59797776 7.75
-3.1633601 4.8587108 0.46252692 6
-3.1745369 2.2625701 0.83535713 9.5
-3.1205807 2.5789783 0.85426569 9.5
-2.7418826 -5.1071553 -0.19422036 2
-2.6419041 -2.3583441 -0.2622388 1
-2.5493267 -1.7898602 -0.23780669 1
-2.6295493 1.4911634 -0.11980776 2
-2.5627992 1.6063281 -0.021401672 3
-2.4718406 2.6204002 -0.21659742 1
-2.668541 5.0655923 -0.10191333 3
-2.6002698 1.5400516 0.1215637 4.5
-2.5312436 1.6795406 0.074720278 4
-2.5329669 1.5683239 0.68657643 10
-2.5803752 1.6935194 0.5406934 8
-2.605026 11.551821 1.9917561 8
-2.5544047 11.422633 2.446691 9.333333
-2.6139393 11.697165 4.2633452 13.666667
-2.2777958 2.793993 -0.20772269 1
-2.0897083 2.9941037 -0.19983582 2
-2.3784544 7.9721851 -0.08653041 3
-2.0254686 8.1655807 -0.089227937 3
-2.121511 11.727592 2.0845358 8.5
-2.20017 11.722345 2.5100062 9.5
-2.1911478 11.703219 3.869998 13
-2.1659205 11.551031 4.2759099 14
-2.2585082 11.640409 4.0989342 13
-2.0916157 11.607962 4.5129695 14
-1.7416509 1.3058392 -0.1955024 0.66666669
-1.7136164 2.6048338 -0.19637333 1
-1.9097121 3.1901815 -0.1959728 2
-1.6996756 3.3677752 -0.18811823 2
-1.6144931 3.9454241 -0.17404675 2
-1.7589445 11.754278 2.1578288 8.666667
-1.8181753 11.752063 2.5256438 9.5
-1.736475 11.716445 3.8878944 13
-1.7835827 11.679216 4.3076081 14
-1.8380623 11.694084 4.5261021 14
-1.3468732 -2.1943634 -0.22145452 1
-1.4392962 -1.9100659 -0.2167134 1
-1.5640931 1.4067295 -0.19066013 1
-1.255574 2.1282341 -0.1813976 1
-1.3555331 11.768046 2.1170266 8.25
-1.2722129 11.517413 2.4461448 9
-1.4326121 11.712604 3.8882234 13
-1.3952863 11.702415 4.3012271 14
-0.92653048 -2.1033804 -0.10437833 2
-0.85744852 1.7448587 -0.16684213 1
-0.9424051 2.9000397 -0.16685501 2
-1.0674282 7.1023803 -0.078515284 3
-0.49654046 -0.81792396 -0.013362532 3
-0.41161326 -0.79352361 -0.012897537 3
-0.44222245 1.5342965 -0.1580127 0
-0.58289194 1.8005397 -0.16144466 1
-0.62371278 2.9083908 -0.15807937 2
-0.4283314 -0.54893571 0.13841517 10
-0.52389866 6.0667953 0.15403885 4
-0.55631661 6.0855956 0.45770529 5.5
-0.58808368 7.0149202 3.7604272 17.833334
-0.37820733 1.5926899 -0.15787402 0
-0.22466217 1.7230474 -0.15491833 0.66666669
-0.24513121 2.6748929 -0.15094803 2
-0.39516047 2.8144929 -0.15296568 2
-0.16002826 4.0023289 -0.1280759 2
-0.16441898 -0.6294443 0.12754075 9.6000004
-0.23905347 5.5422382 0.0048163794 3
0.17421894 -0.8225714 -0.024303339 2.5
0.16962433 1.8035721 -0.14532626 1
0.36063516 2.7557588 -0.14056325 2
0.17111151 2.8671629 -0.14258452 2
0.027974606 4.0997238 -0.12294389 2
0.23292159 4.566093 -0.10261691 3
0.20807046 -0.8108657 0.018067058 4
0.0017928166 -0.72365373 0.12486907 9
0.66652822 1.5550202 -0.13497876 1
0.53979588 1.695218 -0.13530478 1
0.53416914 2.6133566 -0.13757928 2
0.74220735 4.7169647 -0.056458727 3
0.60238123 -1.5067482 0.0028935277 3
0.73260361 4.1055231 0.26004583 5
1.1780388 -2.973 -0.20355782 1
0.92951941 -1.706846 -0.062459547 2.3333333
1.1159017 -1.336763 -0.17240541 0
0.88592583 1.1145852 -0.14459616 1
0.95882392 1.2670796 -0.13404885 1
1.0570893 3.2628238 -0.11772536 2
1.0407323 4.5155668 -0.055570073 3
1.1534493 -1.8232781 0.012551094 3
0.98737335 -1.3657268 0.068377681 4
1.0495561 3.9585564 0.31949982 5.6666665
0.84562802 4.0371246 0.30918199 5
1.0376034 4.8324976 1.7452689 13.333333
1.0626386 4.5321269 2.3299389 17
1.0499657 4.4867997 2.4304159 18
1.4369706 -3.4026542 -0.16981189 2
1.4239824 -2.950124 -0.19702332 1.5
1.3620391 -2.6908021 -0.19757095 1
1.4186069 -1.8002748 -0.17688692 1
1.5915356 -1.5157171 -0.16097358 1
1.4656007 -0.15618198 -0.15877317 0
1.3407292 0.2823562 -0.15393013 0
1.2781513 0.41056508 -0.15104967 0
1.5431855 0.85871732 -0.13959925 1
1.315039 1.3856453 -0.12674305 1
1.5014893 1.948496 -0.11545123 2
1.3243545 3.1790214 -0.11430785 2
1.4257438 4.2943873 -0.075743452 3
1.3824201 -1.9676838 0.017315052 3
1.2732812 -1.5073415 0.077263467 4
1.2809356 3.8835173 0.68606842 8.5
1.2589755 3.8821006 0.84807122 9.5
1.3111455 4.5658083 2.4482057 17.333334
1.6815382 -1.3569248 -0.16254307 1
1.6982589 -0.85821021 -0.15998296 1
1.6619358 -0.60395974 -0.15688437 1
1.6175638 -0.24431378 -0.15286648 1
1.8121639 0.6455462 -0.13818721 1
1.6473817 1.1192533 -0.1305652 1
1.6690844 1.9281608 -0.11915445 2
1.7585095 4.1480703 -0.055920314 3
1.6973927 -2.184099 0.022422904 3
1.9559778 3.7044911 0.28548884 5.5
2.2987764 -3.9813404 -0.18834177 2
2.280611 -2.618958 -0.15942356 2
2.2854993 -2.1567895 -0.15314108 2
2.181973 -0.041946426 -0.14952527 1
2.2039018 0.47943819 -0.13280052 1.5
2.1229002 1.3281721 -0.12852611 2
2.2332149 2.3074732 -0.10519227 2
2.1102777 4.3541164 1.5740466 13
2.0195231 4.4919724 1.4861705 12
2.0917287 4.3323131 1.7190421 13.333333
2.508579 -3.1446567 -0.1850342 2
2.6874013 -2.2723505 -0.17790303 2
2.588088 -1.8071057 -0.16758837 2
2.7840791 -0.96346033 -0.16039041 2
2.607832 -0.60529667 -0.15057975 2
2.5036747 0.29391423 -0.13541193 2
2.7233546 3.0989187 -0.10784145 3
2.6093609 3.2785554 -0.10485306 3
2.4998231 3.3510845 0.0031610758 3
3.1624265 -4.3503261 -0.17155741 2
3.0843093 -1.5394028 -0.15803929 2
3.0880585 -0.35831428 -0.15324491 2
3.0574851 -3.6688068 4.2404552 25
3.1880929 -3.444241 4.1802273 25
3.2222843 -1.7940609 -0.16823617 2
3.2483783 3.3113568 -0.061536532 3
3.4013915 3.7599089 1.0086581 9
3.2877603 -3.2884011 4.1337671 25
3.4660032 -3.0195551 4.2159281 25.6
3.8983302 -5.9310603 -0.19537422 2
3.8625731 1.7281659 -0.11237969 2
3.710494 2.2621715 -0.10382323 3
3.6225216 -2.8836355 4.1249123 25
3.7718327 -2.5848279 4.2044311 25.5
3.8476415 -2.2895784 4.233294 26
4.3594408 -0.16116685 -0.13252516 2
4.1996703 1.4897829 -0.10020553 3
4.2081685 3.4284542 0.18154894 4.5
4.1076221 3.347789 0.55943733 6.5
4.1138783 -2.2078955 4.1449032 25
4.0408711 -1.9554209 4.2433019 26
4.4750652 -5.0202713 -0.11505049 3
4.7950177 -2.3476579 -0.1159994 3
4.5816684 0.21514028 -0.1081496 2
4.4736066 1.3601069 -0.098043203 3
4.7808232 -2.7127583 0.067016751 4
4.7741261 -2.7669466 0.42458084 5
4.4284735 -1.2836688 4.3767715 26
4.9600129 -4.1536078 -0.11690275 3
5.1170535 -3.9080052 -0.10880744 3
4.8355184 -2.5587704 -0.056063168 3
5.0069208 -2.1221898 -0.12975526 2
5.0068307 -4.1288376 0.31619558 5
4.8660827 -2.6294467 0.18888038 4.5
5.0454206 -4.0723677 0.60522604 6
4.9350438 -2.5567987 0.45521593 5.5
5.1639891 -3.7610726 0.96812183 8
5.3988786 -3.278008 -0.12691444 3
5.2992654 2.8655853 0.036748532 3
5.2363715 -3.7647374 1.1673315 9
5.3764424 -3.5181284 1.1553746 8
5.2217155 -3.8040338 1.4963477 10
5.4317088 -3.4973917 1.3881681 9.666667
5.2172618 -3.7966714 1.6803254 11
5.3978171 -3.5032229 1.7857497 11.666667
5.4155755 -3.3593919 2.1072614 13
5.8948402 -2.5242174 -0.082630239 3
5.8386703 0.26793858 -0.085614473 3
5.6927657 0.51858073 -0.088545762 3
5.8023367 -2.7884984 0.074506506 4
5.903491 3.1512733 0.33194673 5
5.9678698 -2.5311947 0.65359074 6.5
5.8002706 3.1376626 0.67065412 6
5.7573347 3.2391214 0.70075083 6.5
5.8146858 3.182354 1.129588 8
5.8894024 -2.6710119 1.8225856 11
5.8874788 -2.8793328 2.0438924 12
5.9048586 -2.6152935 2.0892134 12.666667
6.1599751 -2.2657332 0.21805905 4
6.2983665 -1.9578921 0.048635397 3
6.0682831 -2.5451598 0.45889527 5
6.1695313 -2.2843993 0.59695047 6
6.376853 -1.8442508 0.65068024 6.5
6.0564013 -2.5445881 1.1938645 9
6.1304049 -2.3400393 1.1107612 8
6.3400598 -1.9018357 1.0276697 7.5
6.2216597 -2.2124946 1.3604228 9.3999996
6.0434036 -2.419369 1.8246402 11
6.205585 -2.2027354 1.8044312 11.166667
6.3322444 -1.9282285 1.744693 10.5
6.1586533 -2.606276 2.2802527 13
6.142509 -2.2236166 2.14062 12.666667
6.3506274 -1.877515 2.0986667 12.5
6.1449356 -2.6285834 2.5922496 14
6.2427735 -2.1068215 2.7417259 15
6.263916 -1.9844191 2.5285926 14
6.3201165 -1.9949721 3.198772 17
6.5866804 -1.3480881 -0.081537642 3
6.7917633 -1.0705268 -0.084422171 3
6.4641662 -1.7785236 0.24381995 4.25
6.6379385 -1.4112929 0.24771495 4
6.4311438 -1.8133984 0.61328405 5.6666665
6.6504402 -1.361378 0.59446907 5.5999999
6.4312692 -1.7522616 0.93368852 7
6.6868067 -1.3368493 0.93773377 7
6.530354 -1.7218199 1.3960887 9.333333
6.4889827 -1.778704 1.863732 11.333333
6.5829678 -1.6562356 2.3779716 13
6.9015384 -0.97394556 0.23972709 4
6.9052172 -0.97213745 0.59406966 5.6666665
6.9631715 -0.9608292 1.0708845 7.5
6.9726725 -0.98417473 1.4559538 9.25
6.9300632 -0.93091953 1.8037425 10.5
6.8876772 2.8827682 1.8407267 10
6.844378 2.752197 2.3439119 12
6.8806581 2.7717729 2.5689783 13
7.4836469 1.8610168 -0.033122707 3
7.6021552 2.7275674 0.13727587 4
8.1370306 2.4988987 0.16141862 4
9.9096928 1.9768718 -0.032191049 3
11.30564 1.7019932 -0.024546811 3
12.504035 8.7106771 14.519887 26
14.261616 1.3088497 0.38579661 4
16.871229 0.77791131 0.48330417 4
23.573759 0.032313589 0.25390086 3
23.440424 -0.11293526 1.7997712 5
23.541801 0.079665415 3.3537455 7
23.413162 -0.082620122 3.6216512 8
23.915417 0.019360784 0.72390866 4
23.601555 -0.10144188 2.4462192 6
26.307837 -1.7316039 0.26867121 3
26.358189 -1.784214 0.86190325 4
26.271673 -1.775647 2.8136508 6
26.383944 -1.8133914 3.7880392 7
26.307852 -1.8204683 4.1758342 8
26.67099 -1.987312 1.6811318 5
