# .PCD v0.7 - Point Cloud Data file format
VERSION 0.7
FIELDS x y z intensity
SIZE 4 4 4 4
TYPE F F F F
COUNT 1 1 1 1
WIDTH 151
HEIGHT 1
VIEWPOINT 0 0 0 1 0 0 0
POINTS 151
DATA ascii
-9.264926 -1.8181294 0.44203007 5
-9.3041992 -1.7309459 0.9665668 6
-9.3650055 -1.8108917 1.2460577 7
-9.1859589 -2.0029898 0.093889765 4
-8.2127171 1.9518776 0.73317224 6
-8.3605843 2.6791611 2.8779664 13
-8.2774572 2.6954148 6.38908 22
-8.1334124 2.0827582 0.22473375 4
-8.1696434 2.0118265 0.4764336 5
-8.1690025 2.0634713 0.95964688 7
-8.1882286 1.9964352 1.4123708 8
-8.1946297 1.976742 1.6442899 9
-8.1908226 2.1596634 1.80703 10
-8.1195641 2.8651266 2.4467213 12
-7.675139 3.9584324 6.3553877 22
-7.7496305 5.2017946 6.8957095 22
-7.5491543 3.2355824 -0.031863138 3
-7.4431772 3.5811687 1.8102649 10
-7.5514908 4.3454213 2.8684769 13
-7.521194 4.2060499 6.6921067 23
-7.4187179 5.9400578 7.4643006 23
-7.2757149 3.8405595 1.4110615 8
-7.3715715 4.974524 2.5670896 12
-7.2505231 5.189302 3.0625815 13
-7.3751168 5.9955392 7.0474014 22
-7.3909879 5.9161901 7.6782422 24
-7.3289375 5.3959303 8.1570864 25
-7.3416314 5.4360914 8.43818 26
-7.0884509 4.247776 0.095203586 4
-7.0708752 4.3070698 0.43036243 5
-7.0836158 4.2495785 0.74321055 6
-7.1852412 4.0316553 0.94961232 7
-7.0978503 4.2537374 1.6662251 9
-7.1062956 6.7092161 3.247668 13
-5.881649 5.1659026 0.58411509 5
-5.9515014 5.1883526 0.70718884 6
-4.6420879 6.4312663 0.47637463 5
-4.6624236 6.3999882 1.1893517 8
-4.5718122 6.514987 1.5034186 9
-3.712934 -1.584921 0.66141158 8
-3.1268716 -1.6888586 0.048349787 4
-3.1261115 -1.6937714 0.20631434 5
-2.8964567 -1.6726818 0.45834967 8
-2.5274754 3.3377068 4.1440496 27
-2.4605753 3.5158694 4.0632858 26
-2.2911129 -1.265002 2.9493573 29
-2.3055131 -2.0278375 3.0278308 27
-2.2337396 -1.920735 3.0766692 28
-2.1454382 -1.8487751 3.126179 29
-1.9738503 4.9755964 -0.027440034 3
-1.6455966 -1.8731003 0.33552063 7.5
-1.7001969 4.9656382 3.8051701 22
-1.4205532 4.7404118 0.66155559 7
-1.2767229 4.6676388 0.89777839 8.5
-1.0900625 -1.6330416 -0.12309021 1.5
-1.0337847 4.5485001 0.18381 4
-1.0977929 4.5737882 0.28092864 5
-1.1144351 -1.3276808 1.7709126 28
-1.0704811 -1.2752765 1.8692968 29
-0.8727932 4.496686 0.90551943 9
-0.89282721 4.5341892 2.3090813 17.5
-0.79164732 -1.8088417 0.23242769 7
-0.76165402 -1.7835988 0.25356436 8
-0.74085802 4.4264531 1.3962575 12
-0.7988227 4.4686465 1.4823818 13
-0.5142749 -1.8765638 0.035922304 4.5
-0.48734266 -1.9128379 0.25102043 7.5
-0.48386016 -1.8651329 0.76994932 15
-0.4066453 4.252605 0.66859424 8
-0.47396293 -1.8899035 0.83970052 16
-0.42712921 -1.7742571 1.8591005 27.5
-0.53971314 4.3648839 2.0408914 16
-0.25148708 4.1632419 0.31928045 6
-0.21565725 -1.9674594 0.45016381 10
-0.32253119 4.2202988 0.60443568 7
-0.083857596 -2.1261845 0.046381224 4.5
-0.065180875 4.0962391 0.73693335 9
-0.013066097 4.1896644 4.3679104 27
0.16525155 3.9842956 1.265486 12
0.18629839 3.9929149 1.8914571 17
0.18528937 3.9958122 2.0854614 18
0.063451253 4.3144097 3.0708652 22
0.24387378 -1.7837017 -0.11777439 1.5
0.32383886 1.67524 -0.035930544 2.5
0.32663792 1.6478689 0.10039438 5
0.38417161 1.5910594 0.23001978 7
0.2765463 3.9224179 0.58326793 8
0.22641166 3.9661474 1.3233756 13
0.48519528 1.7449855 -0.086509608 1.5
0.49428201 1.7569827 0.035986494 4
0.45566368 1.5483112 0.29665074 8.666667
0.78145385 -1.8459548 -0.12465537 2
0.69234467 -2.2458162 1.4963444 20
0.77508366 3.8163514 4.0044069 27
0.8719036 2.4331141 0.16876115 5
0.8423335 3.796536 3.7772903 26
1.0319438 3.8679631 3.6010208 25
1.0150265 3.717031 4.023983 28
1.3432467 2.2063828 0.10128872 4
1.3278803 -1.9112175 2.4960067 27.5
1.2494363 -1.8360255 2.6337242 29
1.4089586 -1.8059049 2.6427963 28
1.454126 3.5068998 3.7032533 27
1.6501929 2.2675214 -0.041998275 3
1.6697503 2.2198994 0.18200216 5
1.90482 2.0712817 -0.02110322 3
1.8805835 2.0781796 0.028909663 4
1.8810732 3.4282436 3.6256475 26
2.1568141 1.4995799 -0.039648615 3
2.1427455 1.6338909 -0.12582585 2
2.1967237 1.1127653 0.1590271 5
2.1038306 1.5411668 0.039311711 4
2.187577 1.7463629 0.18201867 5
2.0988517 -2.5637794 1.5067639 16
2.1547282 3.0824559 1.9403105 17.5
2.1362345 3.0072231 3.8653412 28
2.2782466 1.0559357 -0.20386252 1
2.3268383 1.0417017 -0.076837026 2.5
2.3749499 1.3896941 -0.067542382 2
2.3505521 1.4054836 -0.039562229 3
2.3476124 -2.2967143 0.12693281 5
2.3292797 1.07286 0.047092453 4
2.3105848 1.4208764 0.10992439 4.5
2.2196124 1.126995 0.20299344 6
2.2567093 1.4560854 0.26588467 6.5
2.2104132 1.7715882 0.26797894 6
2.3868709 3.0765808 3.584053 26
2.2398999 2.9750969 3.8652334 27
2.4207499 2.9149508 0.35206071 6
2.4388394 2.9163105 0.585042 8
2.6050949 2.8344884 0.48091081 7
2.6017969 2.8766088 0.69889635 9
2.7198265 2.8211608 1.9518108 17
2.7765422 2.9187353 3.9547124 27
2.8497019 2.7775445 2.1127188 18
2.9377849 2.836374 3.8576088 26
3.4695599 0.87135321 -0.046591245 3
3.5424199 0.83671975 0.12249319 4
3.5076978 0.87351084 0.25239679 5
9.6632757 -1.2780058 0.57960659 5
9.6423559 -1.2726027 1.0345953 6
17.533998 -3.4833093 2.9699478 8
17.526905 -3.4596293 3.7408557 9
18.523998 -1.3992407 3.541326 9
18.78779 -0.8892898 2.7524097 8
43.729019 -3.7147877 12.615521 12
43.668049 -3.9488907 15.88041 14
43.980087 -3.3384004 18.301134 15
44.498386 -2.273253 10.200195 10
44.493221 -2.1486599 11.262774 11
44.755562 -1.3263282 14.93494 13
