# .PCD v0.7 - Point Cloud Data file format
VERSION 0.7
FIELDS x y z intensity
SIZE 4 4 4 4
TYPE F F F F
COUNT 1 1 1 1
WIDTH 489
HEIGHT 1
VIEWPOINT 0 0 0 1 0 0 0
POINTS 489
DATA ascii
-11.743453 -3.3701012 0.57046139 5
-11.814857 -3.2722657 0.93808907 6
-11.813971 -3.3366013 1.3676803 6.5
-11.74428 -3.1808853 1.6777123 7
-10.822858 -1.3062599 0.28652188 4
-9.2460337 -1.9652925 0.066109113 4
-9.2405367 -1.8848059 0.70462739 6
-9.3829231 -1.9469324 1.1182024 7
-9.300622 -2.0602448 1.3115181 7
-9.3478718 -1.848192 1.3128328 7
-9.092761 -1.6759986 -0.087043203 3
-9.1613207 -2.0118463 0.39684695 5
-8.9763966 1.7633622 0.18378282 4
-8.9261436 2.0146339 0.24211378 4
-9.1164398 -1.9235436 0.46741813 5
-9.0974588 1.449664 0.47361022 5
-8.9363661 1.7951623 0.59798759 5.4000001
-9.0495272 1.6766542 0.9109655 6.3333335
-8.9163971 2.0136778 0.93412006 6.5
-9.0963774 1.5940225 1.2972568 7
-8.8898878 1.8657901 1.398016 7.5
-9.1001434 1.4983684 1.7991707 9.333333
-8.9273195 1.890975 1.7806085 9.333333
-8.9525156 1.9423836 2.2433183 10.5
-8.9428167 2.0796616 2.1353903 10
-9.0829363 2.5190792 3.0684228 12.666667
-8.7410297 -2.0296094 -0.19115959 3
-8.0830889 2.1594548 -0.032940857 3
-8.0690231 2.232929 0.15485291 4
-8.0906668 2.202991 0.6290291 5.5999999
-8.068512 2.2208986 1.0668161 7
-8.1143951 2.1917605 1.4491816 8.5
-8.032836 2.4048796 1.4820462 9
-8.1163988 2.2286127 1.7777275 9.6000004
-8.0405273 2.436054 1.9201652 10
-8.1747942 2.0399268 2.1555593 11
-8.0815258 2.8595579 2.2007124 11
-8.2767277 2.7352808 2.9602025 13
-8.1795712 3.007798 2.968955 13
-8.2576294 2.7508702 6.3732896 22
-7.9541497 2.4747691 -0.20067097 2
-7.7311401 2.8818014 -0.033112969 3
-7.7943454 5.1310406 -0.19547763 3
-7.7430444 5.2650113 -0.025157288 3
-7.8649883 2.6266079 0.19152403 4
-7.6829486 3.0066195 0.18708161 4
-7.8448176 5.0241704 0.185509 4
-7.716538 5.3221631 0.18547568 4
-7.8967943 2.5903277 0.63738275 5.5999999
-7.7085657 2.9593723 0.62136394 5.5999999
-7.8522744 5.0481501 0.59698826 5.3333335
-7.7285314 5.3192973 0.6303038 5.3333335
-7.6007905 5.6210842 0.62864602 5
-7.9861555 2.3736331 1.1779425 7
-7.8599257 2.6323459 1.0022004 7
-7.6794438 3.0341985 0.97755843 7
-7.8393693 5.0642543 0.93976218 6.4000001
-7.7247477 5.3233418 0.96748167 6.5
-7.895803 2.6471093 1.4518328 8.666667
-7.6896567 3.0399289 1.4201988 8.25
-7.8500228 5.0116014 1.3472346 8
-7.7209263 5.3171086 1.3604645 8
-7.9816132 2.3866818 1.6364976 9
-7.8972726 2.6586337 1.7605439 9.6000004
-7.7433124 2.9902065 1.7559333 9.6000004
-7.6111293 3.2465544 1.7196676 9.5
-7.8670411 5.0522132 1.7827375 9
-7.6833129 5.4156308 1.7446928 8.75
-7.6499882 4.1532197 3.062269 13.666667
-7.7428536 3.9045134 6.3812218 22
-7.6547155 4.0012155 6.7160158 23
-7.6487126 5.3926435 6.920146 22
-7.8262339 5.0584898 7.2606144 23
-7.645895 5.4374208 7.3297491 23
-7.446332 3.4835966 -0.10005158 3
-7.3328977 3.7076547 -0.16834377 3
-7.483459 3.4042113 0.13869166 4
-7.2936573 3.7953608 0.16554435 4
-7.5722971 5.4507179 0.27224967 4
-7.5798268 3.1994367 0.4770132 5
-7.4749165 3.441973 0.61161453 5.5999999
-7.2785816 3.8489153 0.58137184 5.5
-7.2122498 4.0285993 0.78560191 6
-7.5798712 5.5063848 0.64238024 5.5
-7.4735599 3.4306557 1.0366151 7.3333335
-7.2888379 3.8026824 1.0621951 7.5
-7.5533862 5.5140004 0.96789211 6.5
-7.5099363 3.4006121 1.4371818 8.5
-7.3409357 3.7686687 1.4885873 8.75
-7.5226173 5.7168021 1.3773373 8
-7.3294849 6.1296864 1.3986483 8
-7.463089 3.4886739 1.7039725 9.25
-7.3052592 3.8475933 1.7299538 9.5
-7.5864463 5.5855227 1.8055643 9
-7.5098376 5.7922797 1.7725995 8.8000002
-7.2988582 6.2161136 1.7766109 8.8000002
-7.2859063 5.0299006 2.3092098 11
-7.5543885 4.2160873 2.6051164 12
-7.5068021 4.5344777 2.6459835 12
-7.2943664 4.9965463 2.6781263 12
-7.4350934 6.098155 2.7956293 12
-7.5845432 4.2579389 2.998235 13
-7.5226645 4.5502901 3.0508251 13.4
-7.2911248 5.0595345 2.9389486 12.666667
-7.2433095 5.2137775 3.1636372 14
-7.3364096 6.3340707 2.9870667 12.5
-7.3557358 6.6265988 2.8866439 12
-7.2272515 6.8241677 2.9039454 12
-7.3581996 6.1496549 3.3804541 13.5
-7.2037992 6.520577 3.4603679 14
-7.4519234 4.4111071 3.6606574 15
-7.548245 4.1178017 6.6998568 23
-7.5607848 5.592607 6.9605842 22
-7.4523435 5.8573747 7.0023837 22
-7.3041883 6.1610212 7.0727139 22
-7.5640497 5.5746741 7.3075461 23
-7.4547396 5.825181 7.3760653 23
-7.486753 5.7221241 7.6558547 24
-7.3757997 5.3096981 8.1988993 25
-7.207284 5.6790814 8.2806768 25
-7.1928387 3.9969959 -0.099489413 3
-7.0594459 4.2700295 -0.14907208 2.6666667
-7.1954689 3.9944406 0.23150457 4
-7.137414 4.1235166 0.16536532 4
-7.1198964 5.3800611 0.26098037 4
-7.1542306 4.1077118 0.57682288 5.3333335
-7.1232772 4.1581159 1.0699635 7.5
-6.8671398 7.0833178 1.1821806 7
-7.1533551 4.1193805 1.4401903 8.333333
-7.1231303 6.5455918 1.4228685 8
-6.9154348 6.9796205 1.4530319 8
-7.1549625 4.116673 1.7148519 9.5
-7.0953126 6.662797 1.813324 8.75
-6.9409471 6.989058 1.8950669 9
-7.1899681 5.2235932 2.3226471 11
-7.1751637 5.2169375 2.8146293 12
-6.9738436 6.896904 2.8699288 12
-7.1042767 6.6315651 3.3506873 13
-7.0036969 6.9270649 3.2769992 13
-7.1989412 6.4011331 4.1311369 15
-7.1234298 5.8569341 8.2987719 25
-7.0309782 6.0534906 8.3753862 25
-7.1251621 5.8089752 8.5199251 26
-7.0304084 6.0100198 8.5882978 26
-6.7432156 6.5862713 8.5147438 25
-6.7364588 6.6292567 8.824316 26
-6.5397091 7.0185008 9.0768518 26
-6.5764074 6.9247084 9.2357235 26
-6.2087197 5.1601801 0.23922624 4
-6.2287064 7.0767922 1.139709 7
-6.2219005 7.0581326 1.3996744 8
-6.0848284 7.2358952 1.4098375 8
-6.227931 7.1147041 1.7914338 9
-6.0981278 7.2059102 1.9208039 9
-5.8677402 4.4103842 -0.016517686 3
-5.7309127 5.2336082 0.23318399 4
-5.8615012 5.8832793 0.25446254 4
-5.7664142 8.5059471 0.34026799 4
-5.8055301 5.2619023 0.60827303 5.5
-5.7198896 8.6311979 0.65537 5
-5.7149715 8.6258898 0.89835852 6
-4.8977346 6.389452 0.61555618 5.5
-4.8563347 6.3896413 0.98251909 7
-4.8554955 6.3824253 1.5175083 9
-4.9012227 6.4095635 1.2085886 8
-4.5351152 -1.2765589 -0.11131682 3
-4.6101799 3.8458798 -0.13008679 3
-4.6981845 6.3765292 0.60110265 5.5
-4.553812 6.5282183 0.6096679 5.5
-4.6472068 6.4282184 0.97537553 7
-4.6921344 6.3736115 1.4611768 8.5
-4.0524917 -1.3348589 -0.10371086 3
-4.1692648 3.1441758 -0.24279201 2
-3.7028143 -5.1052508 -0.045851845 3
-3.8322828 2.6107159 -0.22117083 2
-3.7164841 3.3860338 -0.0053294585 3
-3.7191954 -1.5153776 0.2407271 5.4000001
-3.7648804 -1.5366518 0.5470345 7
-3.8130317 -0.50453895 4.1031036 28
-3.3095946 -3.0780892 -0.068032347 3
-3.5869474 -1.378135 -0.077073358 3
-3.5846782 -0.63921201 -0.16180363 2
-3.2398951 1.5665817 -0.19925161 2
-3.316164 3.3230879 -0.0015923143 3
-3.2441804 -3.6499417 0.12500356 4
-3.2296894 -3.2753198 0.067193687 4
-3.5086055 -2.9476705 0.079290509 4
-3.5643187 -2.7308135 0.047151208 4
-2.9353054 -1.0276392 -0.16655082 2
-2.9038527 -0.72038925 -0.1652721 2
-2.9641795 1.5963223 -0.20404647 1
-3.1500201 1.7042053 -0.20174851 2
-3.0942864 2.6949618 -0.21600117 2
-2.9335978 3.0833437 -0.2212154 2
-2.9292715 3.9392111 -0.18772246 2
-3.0309069 -1.7218931 0.16892762 5
-2.8801322 -2.9904199 0.55377489 7.6666665
-2.8715971 -1.6851448 0.4494797 7.5
-3.039957 3.5580974 4.2992249 25.5
-2.9790814 3.5311935 4.4356451 26
-2.6675503 -1.4468807 -0.15397486 2
-2.7870755 3.3737075 -0.22474156 2
-2.4167333 3.9921699 -0.16407034 2
-2.7872934 4.1468754 -0.18352632 2
-2.5457091 4.7483487 -0.0069812606 3
-2.5136244 3.4185812 4.1388688 26.6
-2.2061939 -2.2988241 -0.061301161 3
-2.1812971 -1.5008507 -0.13311553 2.25
-2.143013 1.0128937 -0.19678976 1
-2.2358885 4.1956534 -0.11498787 2
-2.0297897 5.0026097 0.24066278 4.5
-2.0431764 5.0351315 0.57771385 6.5
-2.2780321 -2.0321772 3.0127547 27
-2.1738019 -1.8665354 3.1190619 28.666666
-2.2994065 -1.2480748 2.9675055 29
-1.6066663 -2.327513 -0.022178812 3
-1.7837869 -1.4946916 -0.1010925 2
-1.9160881 -1.0943737 -0.16512044 1
-1.8985988 -0.57122612 -0.17348616 1
-1.9555365 1.1856123 -0.20103247 1
-1.9373183 1.4131453 -0.20803285 1
-1.8410729 1.8399109 -0.21910304 1
-1.6827149 2.1573989 -0.22543454 1
-1.6419344 3.9765222 -0.24090724 2
-1.7132939 4.8407397 -0.13793188 2
-1.609575 -1.9020053 0.33018568 7.5
-1.7519275 5.0275803 3.7078018 22
-1.2132713 -1.6261303 -0.12420392 2
-1.4906447 -1.5997093 -0.10681798 2
-1.5014957 2.3489103 -0.22815594 1
-1.3430212 2.4707036 -0.22905336 1
-1.5144551 3.6728835 -0.25838789 1
-1.3960901 4.7043619 -0.13251303 2.5
-1.5682251 -2.0314806 0.23342127 6.3333335
-1.4719807 -1.9609244 0.20517838 6
-1.3983861 4.7156601 0.23630062 4.8000002
-1.5814141 -1.8739688 0.46088693 9
-1.2506716 4.6657171 0.70573819 7.5
-1.2562218 4.6624603 0.9307434 9
-0.96214551 -1.6599796 -0.11847412 1.8
-1.0216988 1.470754 -0.20562416 0
-0.89676994 1.6439865 -0.20753525 0
-0.87490577 2.387008 -0.22548898 1
-1.007445 4.5172396 -0.12850703 2.5
-0.98153877 4.5162616 0.23621665 5
-0.94023585 4.5135965 0.6737206 7.3333335
-0.96511322 4.5187621 0.87092996 9
-1.0788151 -1.3293017 1.8223042 28.333334
-0.9062134 4.5335217 2.1881015 16.5
-0.4874965 -1.7588145 -0.097260125 2
-0.72876668 1.830092 -0.20878962 0
-0.78225631 2.4989831 -0.22743675 1
-0.710482 3.1407492 -0.24187501 1
-0.58002311 4.3111 -0.13233654 2.5
-0.60305238 -1.8586855 0.1747814 6.375
-0.61903507 4.3442612 0.24782027 5
-0.44954079 -1.9030744 0.76550114 15
-0.58035731 4.3390837 0.71093565 8
-0.4571009 -1.8888723 0.8319869 16
-0.58828235 4.3412943 0.83769971 9
-0.7478174 4.440505 1.3805293 12.5
-0.4099465 -1.7331387 1.887906 28
-0.55170864 4.3520174 2.1976707 17.25
-0.67430848 4.4242988 2.191484 17
-0.21037968 -2.8899169 -0.015771499 3
-0.1091724 -2.0909956 -0.019743998 3
-0.19446208 -1.7371857 -0.1242499 1.5
-0.20245019 2.6852026 -0.22311653 1
-0.14074413 4.1080627 -0.10743644 2.5
-0.13310032 -2.1139276 0.13926543 5.5
-0.19192418 4.1395211 0.19481353 4.75
-0.16662669 4.1375504 0.70302612 8.3999996
-0.3783026 -1.7667001 1.8559986 28
-0.11122961 4.1655068 1.9610546 16
-0.15057054 4.1755075 2.105876 17.5
-0.031092942 4.1987181 4.3129463 27
0.15155585 -1.7728876 -0.12689802 1.5
0.38230613 1.5520709 -0.15698597 0
0.31385756 1.6718025 -0.07409285 2
0.28702193 2.3435719 -0.21963035 0
0.19212791 2.5559185 -0.2194148 1
0.25350672 3.9186444 -0.088780239 2.5
0.38823676 1.5930599 0.13801828 6
0.36690351 1.6179122 0.13900542 5.6666665
0.21143213 3.9481497 0.21843047 5
0.041138582 4.0279937 0.21784042 5
0.2112148 3.955853 0.66922736 8.5
0.23642997 3.9502051 1.1813498 12
0.012945042 4.0529513 0.80777752 9
0.2474734 3.9630995 1.344839 13
0.11139417 4.0184116 1.2693449 12.5
0.17303185 -1.90398 1.8895121 27
0.26926216 3.9605448 1.8965529 16.5
0.28705752 3.9558768 2.0291045 17.5
0.12005845 4.2973676 3.0202594 22
0.72996104 -1.84767 -0.11531687 2
0.48256445 1.7367982 -0.10194642 1.5
0.79667121 2.6270065 -0.088105589 2
0.56742585 3.7621799 -0.087290086 3
0.47130883 1.5543432 0.26836085 8
0.45423883 1.7390186 0.055508722 4
0.47679144 3.8163676 0.24855056 5.3333335
0.47986549 1.5595613 0.5320574 12.5
0.4620575 3.8369036 1.1419188 12
0.68415594 -2.2654376 1.4832031 20
0.50837958 3.8334992 1.240176 12.5
0.5413059 3.8289564 1.8546207 16.5
0.51722282 3.8425703 2.0298338 18
0.69379067 3.8571694 4.0405569 27
1.0006109 -2.6164155 -0.063365333 3
0.8731342 -2.3260047 -0.008735368 4
1.1047734 -1.7220925 -0.17773043 1
1.0024372 -1.2181962 -0.19201751 0
1.1844481 -0.85959435 -0.19721472 0
1.1725959 -0.59669942 -0.17595094 0
0.9840591 2.3871684 -0.22036679 1
1.0629551 2.3342409 0.14104551 4.8333335
0.93838394 2.4487016 0.12419007 4.5
1.0366393 3.8533356 3.5673409 25
0.99519521 3.7748995 3.7519145 26.166666
1.0913656 3.6753113 4.0018487 28
1.4143511 -1.8282679 -0.17376865 1.6
1.340232 -0.73585236 -0.17637886 0.5
1.3479443 1.0095447 -0.19926557 0
1.3192132 1.3634803 -0.20720172 0
1.4031458 3.3816202 -0.1217064 2
1.3322802 2.2170022 0.10225533 4.3333335
1.3497206 -1.8633358 2.568239 28
1.5141447 3.5875144 3.5786865 26
1.4127184 3.5389576 3.7748232 26.833334
1.2918334 3.6487124 3.8086994 27
1.7580551 -2.4798284 -0.072297238 3
1.6874022 -1.0222585 -0.18788463 1
1.898773 1.4714479 -0.20902075 1
1.8019669 1.78238 -0.21147682 1
1.7794237 2.1464961 -0.10240268 2.2857144
1.7577382 2.1673234 0.099613436 4.125
1.7747786 3.4402544 3.5747921 26
1.7593466 3.3858161 3.7090559 26.75
2.1146424 -1.9898814 -0.17430028 2
2.2523227 -0.94842887 -0.20263416 1
2.0451953 -0.22416399 -0.14911342 1
2.310473 0.1823891 -0.18734162 1
2.380981 0.7133978 -0.19998595 1
2.2587628 1.0616252 -0.12509611 2
2.2033796 1.3878434 -0.10844973 2.125
2.1948287 1.7287407 -0.069963314 2.6666667
2.3471813 2.0526385 -0.11338165 2
2.2283962 2.9957814 -0.091748714 2.5
2.3362591 -2.3395097 0.15475896 4.8000002
2.2134628 1.1337824 0.14023159 5
2.2190442 1.4158772 0.16350469 5.0666666
2.1587181 1.6659 0.20104414 5.5
2.3414993 2.0477912 0.14492618 4.5999999
2.1562507 -2.5643506 1.4737229 15.5
2.2979877 3.0396168 1.9457262 17.6
2.2574594 3.0327876 2.0077038 18
2.2573712 3.12712 3.5675206 26
2.2038398 3.0516751 3.8156171 27.285715
2.4897757 -2.0739214 -0.10010164 3
2.7758429 -1.8960422 -0.17442122 2
2.4530995 -0.094712369 -0.18391633 1
2.4111571 0.53953809 -0.19694442 1
2.4719882 2.299952 -0.0081669949 3
2.6223149 2.6511641 -0.075510927 2.5
2.6343362 2.80902 -0.12260491 2.5
2.4187255 2.2232916 0.16442752 4.5
2.5817499 2.5674362 0.16590372 4.5
2.5903127 2.845412 0.30742174 5.5
2.5355101 2.877923 0.61608589 8.25
2.5988212 2.890003 1.938394 17
2.6825833 2.8576193 2.0647192 18
2.7836082 2.9127846 3.9267085 27
3.1877289 -2.1680872 -0.10483728 3
2.8905203 -1.7726563 -0.17620881 2
3.1333103 -1.4785783 -0.19518603 2
3.0499012 1.0742221 -0.09293846 2.5999999
2.9875333 1.1124785 0.19038375 5
2.8232932 2.8151047 2.0457213 18
2.897645 2.8680184 3.9638767 27
3.2693841 -1.355171 -0.19782561 2
3.4087501 0.89960968 -0.12275549 2.4000001
3.4078152 0.91472638 0.23570824 5.2857141
3.4022324 0.92179877 0.52953625 8
3.7484937 -2.2345858 -0.11119948 3
3.9635463 -0.62350595 -0.18802777 2
3.6229098 -2.9789619 0.12969397 4
4.0440001 -3.6581087 -0.064543672 3
4.3335643 -2.3101115 -0.11854372 3
4.0592914 -1.4399174 -0.18189357 2
4.0774961 -0.25362527 -0.19223136 2
4.153748 0.13764438 -0.20731163 2
4.1275907 0.52792692 -0.21017762 2
4.0277972 0.8127147 -0.20853335 2
5.082109 -2.4008462 -0.12782755 3
5.7153435 -3.0534949 0.11209844 4
5.6729579 1.0377381 1.0694674 8.5
5.6617641 1.0565208 1.4314198 10.5
5.6153984 1.0826784 1.7193605 12
6.3369222 -2.5606625 -0.13522077 3
6.1189857 1.2589575 -0.083242692 3
6.5959163 1.016686 0.0382974 3
6.7837095 -2.9635136 2.3641536 12
6.9110994 -2.9714935 2.1161923 11.333333
7.793829 -2.7362123 -0.15241681 3
9.3615541 -3.2261782 0.068189293 4
9.5069027 -1.0791935 0.11934642 3.5
9.8578844 -1.3371814 -0.13122423 3
9.8529587 -1.3351623 0.16577168 4
9.6624126 -1.1249876 0.61531717 5.3333335
9.6182432 -1.2017756 1.1973149 7
9.6677742 -1.0579466 1.0257146 6
14.224786 1.5620586 0.10077918 3
17.708281 -1.4925143 -0.067113899 3
17.872467 -3.3355584 0.16916168 3
17.746092 -3.4688945 1.4867889 6
17.731028 -3.5108113 2.2569809 7
17.836987 -3.3130422 2.5641017 7.5
17.734165 -3.1159422 2.9983168 8
17.933332 -2.7386687 3.0306907 8
17.692829 -3.2788038 3.3500192 9
17.886166 -2.8843637 3.3468051 9
17.700724 -3.0688381 3.7471392 9
17.891737 -2.6808436 3.7604764 9
18.06016 -2.9410233 2.575969 7.5
18.198704 -2.5475969 2.5773256 7.5
18.11759 -2.3566236 3.0600977 8
18.297913 -1.9686948 3.0885293 8
18.021469 -2.540859 3.4218652 9
18.24439 -2.0976188 3.3990467 9
18.344395 -1.7832042 3.4978116 9
18.780462 -1.1849072 1.7879602 6
18.492361 -1.7308785 2.7165632 8
18.46323 -1.5690116 3.118969 8
18.468767 -1.6018672 3.3540914 9
18.830242 -1.0084507 2.3108175 7
18.893024 -0.98947519 2.4507327 7
19.281836 -0.80689889 0.1189677 3
19.369049 0.11505256 0.10283559 3
22.696247 -4.1537981 0.80077934 4
27.674978 1.4863054 0.12242968 3
43.996773 -3.03109 13.658004 12
43.800404 -3.9287908 14.731293 13
43.974373 -2.9481831 18.769749 15
43.923687 -3.0217323 20.01403 16
44.154896 -2.7411757 12.717931 12
44.048229 -3.2036989 14.640609 13
44.33466 -2.2592907 14.766219 13
44.199722 -2.9169445 14.816551 13
44.149773 -2.9719148 15.989767 14
44.633865 -1.7977568 7.5635176 8
44.402786 -2.3483348 11.725492 11
44.480106 -2.0726652 13.816532 12
44.604042 -1.8723594 14.904822 13
44.55962 -1.9739141 16.084187 14
44.412632 -2.4107277 18.389746 15
45.042286 -1.0935062 6.598043 8
45.09026 -0.80479246 7.6530857 8
44.945728 -1.2925427 10.248751 10
44.802345 -1.3046231 11.811836 11
44.874615 -1.1003506 13.95015 12
45.230709 -0.65693021 8.1355667 9
45.20187 -0.48065081 8.7360058 9
45.363316 -0.30223936 10.297396 10
45.401917 -0.23885125 11.358184 11
45.575527 0.28737557 13.118473 12
45.36541 -0.12103315 14.117831 12
45.494667 0.092800491 16.325127 14
45.843803 -6.2023988 11.945195 11
45.88446 -7.2124352 12.052147 11
45.919838 -6.793571 12.296478 11
45.876133 -6.244235 14.268366 12
45.625359 0.26886702 15.183529 13
45.677807 0.59112245 15.319504 13
45.754898 -7.3396931 16.899734 14
45.686882 -7.4181833 19.466095 15
45.628094 -7.3219218 20.984739 16
46.253216 1.585772 5.7762585 7
46.125656 1.2290926 7.8663826 8
46.173523 1.5314848 8.281455 9
46.190395 1.6660435 9.3610477 9
46.209652 1.7638018 10.403754 10
46.224003 1.759311 11.43977 11
46.055573 -6.329011 15.282642 13
50.182907 2.2545903 7.3652349 8
50.303753 2.7249668 9.8528357 9
50.454933 2.8796906 9.0433426 9
50.518742 3.0601132 11.335816 10
50.493408 3.0256073 12.434927 11
