# .PCD v0.7 - Point Cloud Data file format
VERSION 0.7
FIELDS x y z intensity
SIZE 4 4 4 4
TYPE F F F F
COUNT 1 1 1 1
WIDTH 393
HEIGHT 1
VIEWPOINT 0 0 0 1 0 0 0
POINTS 393
DATA ascii
-46.661335 -6.2139769 7.7130857 8
-46.41684 -5.7432556 8.8287773 9
-46.524136 -7.1997113 11.319859 10
-46.189548 -5.0165586 7.595643 8
-46.341808 -5.3983603 7.7079687 8
-46.373737 -7.1339374 8.7637177 9
-46.123955 -4.9692531 8.6930847 9
-46.170002 -6.4865251 9.8467379 9
-46.316639 -5.5350251 9.7539158 9
-42.086903 -4.0750585 2.6948998 5
-42.21463 -4.219656 7.9765825 9
-42.057659 -3.5739639 7.9154062 9
-31.485598 -4.692625 4.5504103 7
-31.148548 -4.6569414 2.9973037 6
-30.380806 -4.4771481 -0.37757289 3
-29.208166 -5.6506028 -0.35941505 3
-17.205101 1.4044749 0.78189242 5
-15.435862 -0.65107352 0.024363199 3
-14.503991 1.6307657 2.6471043 9
-14.029433 2.6517456 2.7073064 9
-14.093307 2.5382292 2.9901998 9.5
-13.978353 2.7271657 3.0871961 10
-13.905279 2.9036756 2.9469292 9.5
-9.4886484 -2.3189716 -0.06668622 3
-8.7462978 -2.6205966 0.086829133 3
-6.5202012 1.3766434 0.2230075 4.25
-6.5288754 1.4581201 0.57100785 5.5999999
-6.5548978 1.5642377 1.0941427 8
-6.6077509 1.5519019 1.4674125 10
-6.05163 3.2270231 -0.078306608 3
-6.2307143 2.6845965 1.1240515 8
-6.1165009 2.6423552 1.3623537 9.5
-5.8870778 -1.726576 -0.21186748 2
-5.9450011 -1.4489932 -0.216764 2
-5.997478 2.85448 -0.072970144 3
-5.597024 2.3014009 -0.13492478 3
-4.6475525 2.4865146 0.18119735 4
-4.4057317 -1.2054631 4.5386877 27
-4.4965782 -1.1856793 4.5098815 26
-4.1092229 -0.38891 -0.19354492 2
-4.3749762 2.4871035 0.79436415 8
-4.3389263 2.5095875 0.89817262 8.5
-3.9844706 -0.65042126 -0.18568791 2
-3.6479716 1.4981779 -0.17198801 2
-3.9576139 2.5059607 0.74006355 8
-3.9685812 2.5756004 0.96735632 9.5
-3.7713721 -0.69848001 4.013463 28
-3.5418322 1.7549316 -0.173401 2
-3.3443773 2.6118975 -0.027928537 3
-3.3668756 2.5650611 0.1417696 4.5
-3.0509038 2.2494972 -0.14857139 2
-2.8186228 2.7643652 -0.054517306 3
-2.8507915 3.4454567 -0.067993909 3
-2.8340838 3.7710276 -0.073664777 3
-2.5190709 -1.1074016 -0.10183977 1.8
-2.7299643 -0.64956385 -0.18171018 1
-2.7824008 2.2508733 -0.14823827 2
-2.7842784 2.5115817 -0.093946949 2
-2.5374835 -0.95121485 0.20301445 5.4285712
-2.6225193 -0.85792792 0.47212207 8.5
-2.1821368 -1.245751 -0.083940282 2
-2.3408642 -1.1789315 -0.04942745 2.5
-2.2405241 -0.29709509 -0.18046972 1
-2.0533137 1.8167741 -0.1806975 1
-2.2559412 2.2426372 -0.12734509 2
-2.3028691 3.3722887 -0.065556943 3
-2.212069 -1.2372948 0.056411296 3.3333333
-2.2921915 2.8996584 0.052800916 4
-2.1602097 -1.2606703 0.60054278 10.333333
-2.3782053 -1.1771697 0.62205315 10.333333
-1.850407 -1.3604923 -0.082360469 2
-1.62008 1.1731402 -0.17892405 1
-1.7599446 2.2347174 -0.15261519 2
-1.8486804 -1.3605994 0.11294629 4.4000001
-1.8673955 -1.3673558 0.42141289 8.5
-1.2069176 -1.6141599 -0.06663999 2
-1.4722872 -1.5081048 -0.06808871 2
-1.5444156 1.2327186 -0.17726628 1
-1.4244391 2.1723325 -0.14735983 1.6666666
-1.2095286 -1.6209437 0.1833902 6
-1.4500818 -1.5220413 0.22815436 6.375
-1.5947925 3.3447652 0.018030999 3
-1.2206434 -1.6231967 0.46008968 9.5
-1.3675648 -1.5542626 0.53295439 10.625
-0.96541816 -1.7012799 -0.063934527 2
-1.0973908 1.8966614 -0.16215335 1
-1.0501009 2.2278988 -0.10384518 2
-1.0314089 4.0518084 -0.077627882 3
-0.96807235 -1.7109219 0.22958218 6.6428571
-1.0301723 2.7837181 0.005738446 3
-0.99915105 -1.6994592 0.53515655 11.125
-0.93136603 -1.6750625 1.7863184 25.857143
-0.97707754 -1.5635662 1.8734893 27
-1.135353 2.9948459 3.0449636 26
-0.59596169 -1.8473192 -0.065245539 2
-0.56578356 1.7038835 -0.16819981 0.66666669
-0.63833237 2.2197859 -0.10042953 2
-0.66900814 2.6066952 -0.049347982 3
-0.51375109 3.2499406 -0.062326003 3
-0.60307539 -1.8476748 0.1940816 6
-0.75676465 2.9110124 0.11775649 4
-0.58208239 -1.8606485 0.49583709 10.5
-0.5922842 -1.7905301 1.7771583 26
-0.37173313 1.5827124 -0.161063 0
-0.28995684 1.7648469 -0.16446853 0.66666669
-0.14192502 2.207108 -0.10460853 2
-0.16532804 3.270123 -0.024831196 3
-0.011598506 4.2037458 -0.038448259 3
-0.14372176 2.454236 0.044977203 4
-0.39746636 -1.915634 0.61944181 12
-0.1008914 -2.0044899 1.7508146 24
-0.073885843 -1.9560061 1.7972709 25
0.27584574 -0.63839591 -0.025809692 2.25
0.31644452 1.4560579 -0.19053583 0
0.24355699 1.8549767 -0.15083675 1
0.18724437 2.197047 -0.099083886 2
0.23695581 3.4071882 -0.056681361 3
0.24422428 -0.62881207 0.095552258 7.090909
0.25135362 2.5300727 0.079724528 4
0.29875794 -0.95749491 1.0625484 26.6
0.23548768 2.6163759 2.4365981 26
0.73318541 -0.83389592 -0.060971268 2
0.55819762 -0.76222336 -0.049693141 2
0.61207074 1.457546 -0.17290305 0.5
0.56757247 1.7204988 -0.15125832 1
0.60113728 2.1903369 -0.090733372 2
0.46972331 3.3136632 -0.06756077 3
0.75556082 3.7852631 -0.075354338 3
0.76982206 -0.84283125 0.091811366 5.5
0.54209393 -0.7512598 0.050985377 4.7777777
0.45133677 2.3043919 0.070465326 4
0.48550913 -0.85495454 1.0316365 26
0.49966034 2.3984492 2.5394893 27
0.45006806 2.4307504 2.5683215 27
1.0067042 1.4602618 -0.15486655 1
0.89860612 2.1900737 -0.070098609 2
0.95277047 3.4698095 -0.070486814 3
0.85297966 -0.87364858 0.1478999 6.5
1.0858591 2.5890269 0.0029570996 3
1.5287912 0.84237343 -0.14998057 1
1.2389444 1.2969693 -0.15164544 1
1.426348 2.1677322 -0.083883971 2
1.4583817 2.4472163 -0.039684888 3
1.5220844 2.6407285 0.22874486 5.5
1.2637548 2.2101347 2.3920298 26
1.4455423 2.1447947 2.5968792 27
1.7096797 -0.90898716 -0.1708205 1
1.9427142 -0.63351005 -0.15593322 1
1.9096388 -0.24404047 -0.15397103 1
1.6750277 0.59054476 -0.14922753 1
1.8118641 1.8960862 -0.13922022 2
1.6914988 2.0414402 -0.140333 2
1.7601532 2.6119261 -0.022956969 3
2.2768025 -1.448217 -0.17591125 1
2.2564418 -0.013891225 -0.14654009 1
2.3268664 0.3388409 -0.11238147 2
2.1938045 0.55746555 -0.11600429 2
2.1135268 1.3890095 -0.14300928 1
2.2538576 1.6402993 -0.14094372 2
2.2908952 2.1643658 -0.051101994 3
2.0972915 2.5323665 0.080237046 4
2.1947281 2.9395952 1.9739538 18
2.7079978 -1.6934035 -0.16616029 2
2.7737818 -1.555401 -0.1683888 2
2.7523403 -0.58574766 -0.13543944 2
2.5280194 1.5039626 -0.14827231 2
2.6277041 2.1566086 -0.052541655 3
2.609081 3.1825602 -0.023089241 3
2.6547177 2.3467128 1.9332677 18
2.5930481 2.4009247 1.9259976 18
2.9101498 -0.94130164 -0.14469282 2
3.1681385 -0.32860434 -0.14366066 2
3.029537 0.30420309 -0.14469393 2
3.0437624 2.7678258 0.097864412 4
2.8197975 2.5403292 1.4674995 14
3.3171649 2.4504514 0.066137038 4
3.9411292 -2.450784 -0.1300855 3
3.8323781 -1.7140409 -0.14133602 2
3.6310382 2.7016561 0.0047359345 3
3.8544929 3.127846 0.064830057 4
3.982513 2.4286582 0.50711364 6
3.7955637 1.4169604 3.9326627 26
3.6544502 1.3548653 4.0570917 27.5
3.9461234 2.1382222 4.3733501 26
3.7951012 1.9441195 4.4936452 27.5
3.8326623 2.0408585 4.5046425 27.5
4.0434256 2.1313188 -0.091367595 3
4.0570226 2.4488628 0.20505273 4.5
4.9064188 -2.7278345 -0.15601447 3
5.1344347 1.8143866 -0.10314726 3
5.0714917 2.1065278 -0.10554518 3
5.4128146 -1.6052999 -0.11041716 3
5.5749722 -1.3820107 -0.10957661 3
5.5515671 0.66898453 -0.10022376 3
5.3590269 1.6283717 -0.099450603 3
5.6661205 -1.1348007 -0.10792732 3
5.720181 0.29592285 -0.10240331 3
6.5502191 -3.1626391 -0.14762825 3
6.7553329 2.3703351 0.13164851 4
6.7433519 2.2978265 0.6221652 5.5
6.7035079 2.3189979 1.0370491 7.5
6.9859476 -2.9029603 -0.10156161 3
7.0176654 1.7381954 -0.068362795 3
6.853713 2.8218274 0.23856954 4
7.1149135 2.2143481 1.3986602 9
7.4995031 -2.6686838 -0.0026016152 3
7.2063289 -1.0883486 -0.084235445 3
7.5162454 2.2710803 0.17764126 4
7.2856116 2.3930538 0.64498985 6
7.2405581 2.2969782 0.89643145 6.5
7.2250257 2.2918255 1.2108949 8
8.0773115 1.6068178 -0.071745306 3
8.7684717 -5.7212806 1.5600536 8
8.9374475 -5.5066233 0.36594659 4
8.8350983 -5.6476717 0.75252795 5.5
8.8169632 -5.6585202 1.1778628 7
9.886467 -5.3357615 0.42306647 4
10.061362 -4.8461919 0.42365599 4
10.157637 -4.242723 0.47924566 4
10.326469 -4.2767568 11.244871 27
10.223576 -4.1645145 11.733188 28
10.575047 -4.0807614 0.61880255 5
10.585458 -4.1077757 1.1707623 6
10.550319 -4.1231046 1.2486289 7
10.48408 -4.2150078 11.24427 27
10.518156 -4.7901907 12.228971 28
10.4778 -4.5878081 12.572989 28
11.109256 -6.0359354 1.3866979 7
11.164987 -5.9070086 1.8457249 7.5
11.184643 -6.0089664 3.4038966 11
11.131327 -6.0546393 3.6959624 12
11.011301 -4.3030725 11.483933 26.5
10.976175 -4.9081392 12.117453 27
11.547545 -3.4335105 0.27687517 4
11.419809 -2.9948046 0.32298827 4
11.417317 -2.9713898 0.64353693 5
11.525603 -2.6553454 0.61608344 5
11.318307 -3.2035818 0.81180859 5
11.407262 -2.9575133 0.82454199 5
11.21919 -5.7533407 1.3723632 7
11.343795 -5.4335246 1.5014167 7
11.427079 -5.1861286 1.3436557 7
11.318045 -3.2252014 1.2817637 6
11.416456 -2.9412496 1.4399319 6.6666665
11.531293 -2.6177671 1.3992522 6.5
11.2686 -5.6401792 1.8491185 7.5
11.345545 -5.3873081 1.9399062 8
11.418063 -2.8880038 1.8657106 8
11.54619 -2.5891337 1.8192612 8
11.497211 -5.1618929 2.0097666 8
11.331903 -5.8696637 3.0528336 10
11.416123 -5.3777184 3.0902481 10
11.588226 -5.1270347 3.0935965 10
11.28055 -5.6688156 3.4230199 11
11.441771 -5.3096194 3.3718896 11
11.473839 -5.0635319 3.4639854 11
11.201824 -5.7934976 3.6202526 12
11.396239 -5.2686009 3.6292048 12
11.493474 -5.0096288 3.636168 12
11.536244 -2.0284064 11.521565 27
11.554799 -1.7556553 11.484022 27
11.49055 -5.1345329 11.639637 26
11.340244 -0.83374578 11.805687 27
11.676166 -2.378468 -0.014718855 3
11.675244 -2.4006779 0.35624135 4
11.656142 -2.3134277 0.27334642 4
11.896109 -1.7018384 0.30637562 4
11.948869 -4.3691211 0.56665778 5
11.716664 -2.1438341 0.57077152 5
11.897782 -1.7173954 0.64585727 5
11.961086 -1.4971602 0.589311 5
11.615192 -2.4703593 0.85197574 5
11.709457 -2.1557472 0.85273892 5
11.870673 -1.8260548 0.84663576 5
11.993377 -4.3484221 1.3553314 6
11.698775 -2.1815376 1.4566706 6.6666665
11.85076 -1.7499375 1.2841974 6
11.88788 -4.510479 1.7436368 7.5
11.981688 -4.2967439 1.8599359 8
11.703657 -2.2142854 1.7916318 8
11.868396 -4.6346617 2.0527577 8
11.95335 -4.3695378 2.0656774 8
11.67251 -2.2065797 2.029068 8
11.602974 -5.0841956 2.6338854 9
11.884989 -2.9147677 2.5338011 9
11.750512 -3.6294436 2.8929565 10
11.701025 -3.5638289 2.9959807 10
11.819217 -3.0301378 3.0535374 10.5
11.797497 -4.9818602 3.3986182 11
11.620918 -4.0129805 3.2327189 11
11.665854 -3.7746201 3.3924065 11.5
11.842146 -2.826859 3.4568713 12
11.967192 -2.4091277 11.049957 25
11.623443 -4.6609097 11.278098 25
11.823421 -2.199537 11.563716 26
11.830545 -1.7636096 11.571659 26
11.929504 -1.2323521 11.576595 26
11.931079 -0.95965624 11.542917 26
11.758235 -0.4508681 11.36869 26.333334
11.789372 -0.18698101 11.387648 26.333334
12.164872 -0.97005737 0.27842864 4
12.218466 -0.78468436 0.16275093 4
12.064748 -4.1782651 0.50093824 4.5
12.172655 -3.8379433 0.58153087 5
12.201316 -0.93262333 0.64805442 5
12.05857 -4.1385193 0.8500188 5
12.184443 -3.8583663 0.84801155 5
12.042006 -1.3099272 1.0294921 5.5
12.24313 -0.8276481 1.1787645 6
12.081175 -4.0699387 1.3977518 6
12.188087 -3.7877727 1.39469 6
12.075745 -1.2474259 1.5373999 7
12.219641 -0.77101946 1.3007694 6
12.062132 -4.1766057 1.7144395 7.25
12.183371 -3.8205895 1.7681034 7.5
12.090416 -1.3638135 1.8257891 8
12.070719 -1.1778584 1.8499728 8
12.057319 -4.1134109 2.0825882 8
12.172115 -2.2077854 3.026258 10.5
12.326357 -1.7567009 3.112807 10.5
12.129172 -2.1824238 3.4496963 11.5
12.249601 -1.7791442 3.4415996 11.333333
12.389795 -1.4421313 3.3223879 11
12.299938 -1.5658115 3.8200166 12
12.157595 -2.0881267 11.013603 25
12.210617 -1.7637002 10.943548 25
12.045776 -1.3840574 11.578177 26
12.022254 -1.0668151 11.550008 26
12.774957 3.2250311 0.29828644 4
12.739696 3.402128 0.69914073 5
12.407711 -1.6298193 3.1961799 11
12.434974 -1.3724612 2.9630816 10
12.410023 -1.3096694 3.8586044 12
13.065787 -0.43240681 0.29804301 4
13.051978 -0.44443843 0.65500093 5
13.056119 -0.44346511 1.0150114 6
13.161143 -0.15941545 1.0304911 6
12.836436 3.6072958 1.1173025 6
13.048106 -0.47230464 1.4799676 6.5
13.07801 -0.27108806 1.2432095 6
13.049688 3.1402092 1.2049817 6
12.882593 3.3621514 1.421005 6
13.033519 -0.45445362 1.7029506 7
13.068814 -0.2525124 1.8327019 7.5
12.917647 3.1439693 1.7286586 7
12.92395 3.3804321 1.7645977 7
13.158118 -0.059659652 2.1935613 8.5
12.833923 3.1430986 2.1004546 8
12.848059 3.4581351 2.1203871 8
12.932738 -0.9274078 2.650254 9
13.028794 -0.30713946 2.6570675 9
12.96134 -0.97113955 3.0697718 10
12.911025 -0.76382279 3.1473758 10
13.142963 -0.20824684 3.0954118 10
12.930582 -1.0464919 3.6746211 11.5
13.11588 -1.2232782 10.975359 24
12.984547 -1.3013511 11.571963 25
12.912225 -1.1963888 11.627918 25
13.475535 2.3423164 2.5261252 9
13.226938 0.041172914 3.0037937 10
13.235095 0.1626395 3.2168961 10
13.475674 2.4524615 3.3281209 10
13.259851 0.05633698 6.9328823 18
13.784682 2.7997098 0.31782997 4
14.375122 2.1313601 0.67125505 5
14.376383 2.3760786 1.1982692 6
14.269196 2.2042494 1.5110092 6
14.325475 2.1823294 1.9071414 7
14.364726 2.1784282 2.2902334 8
14.449976 2.4811518 0.76744467 5
14.540862 2.1796632 1.0056461 5
14.60307 2.0925424 1.2792902 6
14.470211 2.4870517 1.6574931 7
14.954454 1.960609 0.34160155 4
15.095884 1.8987843 0.71992415 5
15.02894 1.9505838 1.5877757 6
14.946683 1.9279667 2.2175782 7.5
15.056492 1.947643 2.7848389 9
15.737381 1.6871964 0.35838175 4
15.865127 1.6331846 0.79916602 5
15.852568 1.6492486 1.756142 6.5
15.708544 1.6875687 2.1823149 7
15.796957 1.6688489 2.4915173 8
15.721058 1.6887902 2.8903451 9
15.677043 1.7013869 3.8322442 10
16.027752 1.5730277 1.3040293 6
17.454271 1.0585362 0.39814985 4
17.513266 1.0372981 0.8862763 5
17.437414 1.0782379 2.5931203 7.5
17.34013 1.1022006 3.1509061 9
17.433857 1.0523797 4.245101 10
17.638214 1.0078259 1.8595524 6
18.023872 0.84400934 0.40636209 4
