# .PCD v0.7 - Point Cloud Data file format
VERSION 0.7
FIELDS x y z intensity
SIZE 4 4 4 4
TYPE F F F F
COUNT 1 1 1 1
WIDTH 410
HEIGHT 1
VIEWPOINT 0 0 0 1 0 0 0
POINTS 410
DATA ascii
-47.988785 -12.397773 14.275886 12
-47.912247 -12.031417 15.55722 12
-47.820713 -11.775393 16.824797 13
-47.919098 -11.966202 17.897083 14
-47.898247 -11.661591 18.214489 14
-43.646744 -8.6253452 16.325708 14
-43.470249 -7.6157465 15.95007 14
-32.079197 -8.045475 -0.26251984 3
-17.040276 -3.4526503 -0.15814662 3
-16.211414 -1.5167718 -0.095488697 3
-9.4085751 1.4489669 0.65577376 5
-9.3301239 1.3993329 0.91185462 6
-6.5180364 1.6860278 -0.036353827 3
-6.202642 0.9537288 -0.14516482 3
-6.2211719 1.2480203 -0.15517357 3
-6.3844261 1.9629717 -0.039057087 3
-5.7891512 2.0736766 -0.039263293 3
-4.9530067 -1.524143 -0.073520578 3
-5.1431403 2.5024893 -0.016867511 3
-4.5962486 0.69155598 -0.18363133 2
-4.3977013 0.90328944 -0.17941311 2
-3.9349093 2.1678791 -0.030498335 3
-3.6098058 2.4515753 -0.045321908 3
-3.2485926 -0.88577205 -0.18164457 2
-3.3531473 -0.58807039 -0.18819594 2
-3.4456561 -0.22905962 -0.18669242 2
-3.5263922 1.0088139 -0.18142116 2
-3.284992 1.2024779 -0.17495711 2
-3.5904443 1.9640297 -0.17028777 2
-3.2540252 2.0128241 -0.14159472 2
-3.323245 2.6453202 -0.023725484 3
-3.4495876 3.2278898 -0.087906383 3
-2.9165576 0.58706588 -0.18199238 1
-3.1109607 1.4007182 -0.17195314 2
-2.9769387 2.0376463 -0.13999781 2
-2.6231396 2.0864637 -0.13159506 2
-2.5694692 3.3733103 -0.076797411 3
-2.0452168 -0.75224388 -0.088322535 2
-2.1376109 -0.1826776 -0.17514984 1
-2.3340662 0.73533189 -0.18423286 1
-2.1625919 0.98102003 -0.17940068 1
-2.170119 1.4105709 -0.17431556 1
-2.2922533 2.1262388 -0.11616252 2
-2.0777469 -0.76245373 0.27383411 7
-1.7253109 -0.84670663 -0.038160931 2.5999999
-1.9184442 -0.70042348 -0.12298164 1.1666666
-1.967782 -0.23403208 -0.17845021 1
-1.9809892 0.3024717 -0.18413793 1
-1.7080259 0.63586557 -0.17784026 0
-1.6234518 2.1852503 -0.13289545 2
-1.7779477 -0.8372733 0.13119912 5.5
-1.9572709 -0.78650123 0.1674829 6
-1.5289693 0.89181042 -0.17274041 0
-1.262536 1.8074425 -0.16001697 1
-1.3350567 2.220423 -0.12365318 2
-1.4815741 -0.92491961 0.24002051 7.5
-1.4990349 -0.92637879 0.56350809 12.6
-1.3583653 2.6578255 0.44805741 8
-0.94113702 -2.5416329 -0.15878265 1
-0.80343461 -1.8807662 -0.12445876 1
-0.83832699 -1.0894588 -0.051038969 2.5
-0.84818447 1.5441046 -0.16372879 0
-0.99896598 1.8191193 -0.1681343 1
-1.0027803 2.223119 -0.13389416 1.75
-1.0043175 -1.0535334 0.11651286 5.4545455
-0.83745509 -2.5732675 0.58286995 9.5
-0.85725176 -2.5647893 0.96340138 13.6
-0.88279855 -2.5667722 2.091825 23
-0.67280263 -2.5906637 -0.075240724 2.2857144
-0.49915585 -2.1079228 -0.15321785 1
-0.64724743 -1.8979853 -0.1118254 1.5
-0.52910733 -1.2269509 -0.052015662 2
-0.6624558 1.4969852 -0.18062061 0
-0.58464789 1.9089379 -0.18715833 1
-0.60375285 2.2647378 -0.13878208 2
-0.5995599 2.643033 -0.00012789715 4
-0.67968196 3.2070975 -0.08130189 3
-0.67680407 -2.6004968 0.16074531 5.1111112
-0.69305098 -1.131049 0.068913668 4.5
-0.64934736 -2.6087458 0.56700903 9.4444447
-0.79749268 -2.5712729 1.0763884 15
-0.63848186 -1.1478064 0.98173678 23
-0.58030552 -2.6320193 1.4553986 18.5
-0.67932194 -2.6128516 2.074302 23
-0.58474535 -2.630306 2.6496613 27
-0.37276074 -2.2595515 -0.1522938 1
-0.17621394 -1.7096628 -0.065888278 2
-0.21734339 1.9168923 -0.18625394 1
-0.1710625 2.3137047 -0.1301897 2
-0.21741267 3.1020052 -0.034090683 3
-0.20947683 3.2694139 -0.061840661 3
-0.24387431 -1.7047249 0.08452633 4.7142859
-0.32976097 2.6664679 0.062953845 4
-0.2028653 3.0728538 0.075359225 4.5
-0.24772152 -2.7044895 1.0108838 14
-0.18915942 -2.6395762 1.463396 18.5
-0.17743741 -2.6195078 1.956811 22.333334
-0.32750735 -2.6981089 2.0442989 23
-0.22865306 -2.709486 2.6595023 26.5
0.24862157 -2.8353872 -0.12832291 2
0.3505719 -2.5666711 -0.16681564 1
0.05670248 -1.8219588 -0.022591528 3
0.38551301 1.5433393 -0.18850154 0
0.22526462 1.6613358 -0.18870112 0
0.20931301 2.259439 -0.15413186 1.6666666
0.21873383 -1.7442476 0.12293622 5.375
0.22208887 2.7117612 0.31505781 7
0.23480998 2.6572092 0.40988335 8
0.22869033 -2.8256428 1.5642626 18.5
0.24629886 -2.8296375 2.1041367 22.5
0.67773658 -2.9174654 -0.12922217 2
0.5717057 -2.2546856 -0.16501044 1
0.45129079 1.4894524 -0.1882423 0
0.64796376 1.6544225 -0.18952006 1
0.43937236 2.0539587 -0.18203144 1
0.59603935 2.429224 -0.15489911 2
0.46320963 -1.7603633 0.13236086 5.25
0.45046225 -2.8840241 1.559971 18
0.52343261 -2.8906772 1.6550399 18.666666
0.48226759 -2.9521935 3.3601341 28.5
0.86320198 -2.9408617 -0.15544023 2
1.1724776 -2.6006777 -0.16414009 1
1.0739614 -2.0231695 -0.064544491 2.5
0.98215145 -1.9930847 -0.10351343 1.6666666
1.1513747 -1.2206169 -0.17044298 0
1.1780586 -1.0845942 -0.16923921 0
1.1582334 1.2967291 -0.19896817 0
1.0917656 1.8825663 -0.1902498 1
1.0254329 2.5647345 -0.096492261 2.8
1.0070899 -1.9810289 0.016159013 3
0.94149351 2.6464286 0.20990025 5.7142859
0.88237643 2.6648409 0.41407141 8
1.0049888 -3.0148067 1.1360415 13.5
0.97189164 -3.003696 1.2175682 14
1.1598907 -3.0393398 1.885323 19
1.1895748 -3.0553453 2.6098175 23.5
1.0585321 -3.090405 3.7759373 28.75
1.3993835 -2.0766878 -0.16116704 1
1.2067521 -0.96054864 -0.16903897 0
1.4110662 0.77731276 -0.17992431 0.5
1.3260989 1.0057025 -0.18834789 0.40000001
1.5914978 1.5690321 -0.1971533 1
1.494679 1.7138212 -0.19675645 1
1.2813301 2.3959312 -0.19451416 2
1.4570476 2.4272516 -0.19464217 2
1.5062484 3.1306858 -0.10223365 3
1.3519651 -2.1132152 0.016628716 3
1.24932 -3.0774429 1.1542532 13
1.2242272 -3.0631773 1.2667615 14.5
1.2156783 -3.0529623 1.8992515 19
1.2522923 -3.0707986 2.4422345 22
1.9632074 -2.6923175 -0.16808225 2
1.9957157 -2.0400414 -0.1709989 1
1.6534766 -1.3358862 -0.17304274 1
1.6880969 -1.0334554 -0.17395374 1
1.682822 -0.69081724 -0.17363687 1
1.8287257 -0.13710545 -0.17074713 1
1.7695584 0.042351957 -0.17000878 1
1.8611132 0.72020143 -0.18453676 1
1.8648945 0.8352195 -0.18972845 1
1.6577293 1.4728341 -0.19743219 1
1.6684021 2.4879475 -0.19724084 2
1.7159461 3.1714878 -0.095631942 3
1.9011427 -3.2222495 2.1798868 19
1.8256679 -3.3442791 3.7007885 26.5
1.7442707 -3.1856065 3.86095 27.5
2.1382546 -3.2702053 -0.14240253 2
2.2223814 -2.5126107 -0.17476633 2
2.0810392 -2.33356 -0.1800015 2
2.0392714 -1.8957303 -0.17386387 1
2.3770835 1.8811846 -0.20007703 2
2.2309287 2.0515897 -0.20269339 2
2.2058389 2.6302171 -0.12018286 3
2.0438118 2.9933765 -0.12027034 3
2.0354538 3.3123302 -0.12358227 3
2.3403032 -3.3392859 0.26224115 5
2.2929449 -3.3223937 0.51382786 7
2.3872297 -3.3483219 1.3911414 13
2.0771971 -3.3598554 3.8211529 26.5
2.0041935 -3.240473 4.0239286 28
2.618818 -3.4044385 -0.09541934 3
2.4813502 1.7742766 -0.19944754 2
2.6148386 2.6532128 -0.15380636 2.5
2.6327574 -3.3996382 0.19101837 4.5
2.5547504 -3.3781483 0.50339752 6.8000002
2.7551441 -3.4241443 1.0522203 10
2.531678 -3.3838425 1.5028141 13.666667
2.5435448 -3.3773446 1.6797522 14.666667
3.1364768 -3.5353286 -0.073679209 3
2.837451 -1.2782764 -0.19014452 2
2.9756467 -0.93076146 -0.19824079 1
2.9777501 0.32276809 -0.21452992 1
2.9266648 0.61467469 -0.20999171 1.25
2.9892204 0.86967993 -0.19977173 2
3.1914799 2.755537 -0.11906172 3
2.8002765 -3.4461503 0.27514416 5
2.8939247 -3.460109 0.55937922 7
2.8916852 -3.4632635 0.97340673 9.5
2.8656039 -3.6060019 3.5316198 23
2.8092697 -3.5897059 3.7057462 24
3.5957358 -3.6310804 -0.082978189 3
3.3136556 -2.9160354 -0.18470424 2
3.4232895 -0.16760164 -0.18762098 2
3.4498775 0.27886558 -0.18765968 2
3.3452699 0.5197317 -0.19029979 2
3.5861492 2.8039134 -0.11342866 3
3.339184 -3.5695932 0.21822676 4.5
3.5300298 4.1157508 0.024095522 4
3.3850939 4.8673635 0.10489368 4
3.5160627 -3.6175823 0.60577816 7
3.3509634 -3.5714998 0.58619583 7
3.5262928 -3.6195071 1.0532557 9
3.3131135 -3.5659218 1.0923225 9.5
3.4917021 -3.5910814 1.2012632 10
3.2632053 3.5563595 1.3217853 11.5
3.9003859 -3.5927022 -0.07635536 3
3.7329016 -2.8025141 -0.15356755 2
3.7970629 -2.5857227 -0.15001529 2
3.7784951 -2.0193441 -0.19218621 2
3.8880198 -0.55510688 -0.20396781 2
3.7786338 -0.35974693 -0.20194963 2
3.700362 0.03227238 -0.1928263 2
3.9774148 -3.7140532 0.18191022 4
3.9503632 -3.713835 0.56702423 6.3333335
3.952003 -2.8865409 0.63292074 7.5
3.9428995 -2.8151467 0.91158938 8.5
3.7828398 3.0721827 1.3515959 11.333333
3.9316027 -3.620054 4.0522265 23
3.9415505 -3.4273157 4.2351055 23.666666
4.2053785 -1.5338877 -0.18345825 2
4.0509987 -3.740906 0.31374398 5
4.228744 -3.4946201 0.009816546 3
4.0546217 -2.9790549 0.48494896 6
4.1575537 -3.7598202 1.3484237 10.5
4.1277719 -3.7601857 1.7565536 12.5
4.1687832 -3.7691886 2.0114357 14
4.1019177 -2.9407747 4.0986214 24
4.2506733 -2.0490961 4.6168194 26
4.2765965 -1.9396831 4.618505 26.5
4.0499578 2.507786 4.8337097 27
4.7831936 -1.45754 -0.16299607 2
4.4295077 1.6663218 -0.18497919 2
4.7125812 2.1674612 -0.1959088 2
4.4905057 -3.7166131 0.052812889 4
4.4539962 -2.0538931 4.1033239 24
4.9067216 -2.6221809 -0.082045257 3
4.9447393 -2.1905618 -0.079412341 3
4.9750748 -1.787796 -0.037705459 3
4.8627362 1.8380111 -0.17188378 3
6.2696319 -1.5857583 -0.21090727 2
7.9318743 -2.418931 -0.06871286 3
7.9233561 -2.8321199 0.093158461 4
7.8416004 -0.23247074 0.18706626 4
7.9447703 -4.148006 0.56487638 5.5
7.7796206 -0.090902671 0.54623282 5.5
7.9270144 -4.2215962 0.90040731 6.5
7.6869378 -0.047952905 0.89538884 7
7.7835078 -0.11129601 1.2064164 8
8.089879 0.034361072 -0.0065255566 3
8.0275698 -4.1565952 0.41102311 5
8.5661106 -4.918695 1.9539447 9
8.5773649 -4.9161139 2.2438853 10
8.6923885 -4.8803515 2.5646448 11
8.5636816 -4.8699956 2.8567019 12
8.9840326 -1.413409 -0.18617097 3
9.0632095 -0.99109876 -0.19688983 3
9.1530228 -0.41395339 -0.16002926 3
9.15938 4.4402385 -0.11352199 3
8.9256067 -1.8170846 0.18946522 3.75
8.9485683 -1.3790874 0.1386458 4
9.0647097 -1.0101497 0.1049358 3.6666667
9.1193142 -0.60953021 0.17026263 4
8.9433889 -1.7526325 0.59340495 5.25
9.0129375 -1.3177288 0.56780654 5
9.1044426 -0.95509601 0.55088741 5
9.1343775 -0.60418278 0.56816071 5
9.1966991 -0.39702302 0.56312895 5
8.9369173 -1.7384033 1.006768 6.6666665
8.9749699 -1.3677591 0.96857977 6.5
9.0873919 -0.98073614 0.96345174 6.5999999
9.1309032 -0.62212801 0.99884158 6.5
8.8827963 -1.7417912 1.4264333 8
9.0293007 -1.0027792 1.4044576 8
9.0776424 -0.95037782 1.7833002 9.25
9.1582584 -0.58724123 1.7089406 9
9.1815195 -0.80662429 2.0006056 10
9.3280888 0.28365591 0.15917371 4
9.3893366 0.52930361 0.16488764 4
9.2570105 -0.5912109 0.53488916 5
9.4010983 0.32810047 0.62525457 5.3333335
9.4522123 0.58694458 0.63440448 5.4000001
9.2508373 -0.54537475 0.98306954 7
9.4022331 0.2852639 1.0888056 7
9.436204 0.51631099 1.0906286 7
9.5689631 -3.0107493 1.3389188 7
9.2186794 -0.58731616 1.4149362 8
9.2921076 -0.39213151 1.2076036 7
9.4158792 0.34631097 1.4387251 8
9.5821972 4.7664671 1.4271752 7
9.2442417 -4.7603045 1.7437778 8
9.3482122 -4.2815399 1.8508632 8.5
9.5120087 -3.6066415 1.9462373 9
9.529212 -3.5639184 1.6608591 8
9.3172894 0.23566437 1.6162152 9
9.417346 0.48081464 1.8385758 9
9.5206823 4.6235242 1.6582623 8
9.4034882 4.851212 1.7312366 8
9.2745504 -4.7649565 2.193922 9.5
9.4580126 -4.2530031 2.3146565 10
9.4041414 -2.2844913 2.3216951 10
9.4598532 -1.3851999 2.2926731 10
9.2358742 -0.59038639 2.0035675 10
9.2781248 -0.36823714 2.0065196 10
9.3410187 -4.7316475 2.6491642 11
9.5430365 -4.304543 2.6595674 11
9.3734283 -2.2310455 2.592479 11
9.4061031 -1.4592965 2.6550469 11.5
9.5633774 -0.28144726 2.6252904 11
9.2842579 -4.6912479 2.995208 12
9.3576002 -2.3042955 2.9661098 12
9.3940382 -1.3795166 3.0115132 12.5
9.5720978 -0.29142419 3.1043479 13
9.3091326 -4.570406 3.4293721 12.5
9.3957977 -4.2957015 3.2562592 12
9.5101652 -3.6965787 3.4818866 13
9.3461533 -2.2387428 3.2167053 13
9.3439522 -1.8037189 5.878623 20
9.4212027 -2.9462559 8.0884848 24
9.4994078 -1.3180681 9.0992336 26
9.5763922 -2.5161958 11.380797 29
9.8260441 -2.4557338 -0.22839378 3
9.6395617 -2.9119143 0.25282902 4
9.7588263 -2.4613423 0.24101909 4.3333335
9.7993793 -2.2433 0.31072688 4.5
9.6397753 -2.9281905 0.56745243 5
9.7974777 -2.2591612 0.69236791 5
9.6706705 4.5452867 0.71640146 5.5
9.6882915 -2.942107 0.95581049 6
9.7619152 -2.5154078 1.0094205 6
9.8460169 -2.3319087 1.0426546 6.5
9.6718111 4.7413697 0.96544909 6.5
9.6020269 -3.6294975 1.2839067 7
9.6332541 -3.4718087 1.4597105 8
9.7252007 -2.9780118 1.3768822 7.5
9.8609877 -2.4898038 1.2927258 7
9.810215 -2.3105514 1.3246999 7
9.6618414 4.3483958 1.4659501 8
9.634922 4.521266 1.4193624 7
9.6532516 -2.9620364 1.7194892 8.333333
9.7915735 -2.3973854 1.6034385 8
9.638917 -2.9983323 2.1865005 10
9.7082968 -0.16303882 2.3285053 10
9.6394787 -3.5750914 2.5484009 10.5
9.664093 -0.55662823 2.5990078 11
9.6883659 -0.21170183 2.5990279 11
9.6792126 -3.7630885 2.9544446 12
9.6483555 -0.51350552 3.0242603 12.5
9.6812887 -0.1306168 2.9512434 12.333333
9.6068897 -3.6018858 3.205766 12
9.6186132 -0.54321092 3.3781798 13
9.8162756 -2.7024934 5.9466519 19
9.6413374 -0.49949828 6.0318213 20
9.6902304 -0.23161095 6.3983679 21
9.8393488 0.054480691 10.132348 27
9.6372986 -2.2250316 11.388135 29
10.121493 1.1119114 -0.23186311 3
10.27072 1.6035516 -0.25308949 3
10.021383 4.3034525 -0.091518559 3
10.183969 1.1386453 0.084579885 4
10.163997 1.0148884 0.58881336 5
10.183827 1.2147551 0.67743158 5.5
10.126598 0.98648578 0.93953437 6.5
10.206693 1.2116131 1.0818582 7
10.145604 0.97972906 1.3495938 7.3333335
10.259382 1.4113393 1.4017985 7.5
10.335555 1.6864166 1.4012309 7.3333335
10.140849 0.74324733 1.9664022 9
10.090482 1.0737302 1.8292463 8.5
10.296651 1.447005 1.9623061 9
10.299239 1.6890417 1.8450909 8.5
10.239975 0.83902317 2.2030404 10
10.193157 -1.048607 2.5656087 10.5
10.190784 0.70795202 2.6421423 10.666667
10.1273 0.96229404 2.7265851 11
10.137263 -1.0666981 2.9225688 11.666667
10.157219 0.64855802 2.9726911 12
10.193646 1.0275514 3.0201638 12
10.286591 1.4143783 2.9207041 11.5
10.122706 -1.0034529 3.3341646 13
10.117609 0.61475754 3.2357118 13
10.127805 1.0375547 3.3394473 13
10.086139 0.1224246 9.8614292 27
10.533907 0.44349501 2.5279145 10
10.482754 0.38060096 2.8107455 11
10.45523 0.43341067 3.1054549 12
10.436125 0.36229077 3.4691865 13
11.829233 3.7097306 -0.02202959 3
12.060364 3.7418535 1.6725547 7
12.035495 3.7339509 2.0097783 8
12.118605 3.7563672 3.3802085 11
12.095462 3.7726228 3.7261922 12
12.605994 3.6109595 1.7984655 7.5
12.696793 3.6202161 3.5124977 11
12.636547 3.6421428 3.8606238 12
13.117425 3.4372075 -0.019168498 3
13.695495 3.3511803 0.96815491 5.5
13.853424 3.3361857 1.4899919 7
13.971606 3.3065262 2.1971853 8
14.079541 3.3383632 3.841907 11
14.654119 3.10677 -0.015182987 3
