# .PCD v0.7 - Point Cloud Data file format
VERSION 0.7
FIELDS x y z intensity
SIZE 4 4 4 4
TYPE F F F F
COUNT 1 1 1 1
WIDTH 162
HEIGHT 1
VIEWPOINT 0 0 0 1 0 0 0
POINTS 162
DATA ascii
-4.9377656 2.1031806 -0.082071193 3
-4.884222 -2.9838674 3.0001073 18
-4.6026082 -1.5756024 0.16388461 4
-4.602603 -1.5634167 0.25685936 5
-4.5896544 -1.5740223 -0.092119485 3
-4.575592 -1.5770242 0.45588771 6
-4.045774 -2.1243148 0.10611898 4
-3.9892416 -2.9733114 2.5432346 17
-3.9421108 -3.0641081 2.6144807 18
-3.0242581 2.3431194 -0.089833133 3
-3.0859177 -3.3100915 1.5743965 13
-3.0939219 -3.3000057 1.6193659 14
-2.8693733 -2.2772272 0.32167003 6
-2.9904113 -3.3350875 2.1130042 16.5
-2.978925 -3.3210347 2.3344705 18
-2.6721678 -1.8349061 -0.051423766 3
-2.7125528 -2.4134922 0.092068307 4
-2.6766698 -2.373204 0.15997095 5
-2.7011003 -1.7916541 0.073464148 4
-2.616749 -3.3809102 0.21878374 5
-2.6985159 -2.439081 0.27814123 6
-2.7569587 -1.801478 0.23348086 5
-2.7479682 -1.7993315 0.29347697 6
-2.7668662 -1.9052472 0.43173864 7
-2.7519286 -1.7396374 0.59933007 9
-2.6899674 -1.8428316 0.98759627 12
-2.6560397 -1.808534 1.0695161 13
-2.7403729 -3.3728409 1.2507102 12
-2.6549928 -1.8813473 1.2016997 14
-2.5398729 -3.3929584 0.10785289 4
-2.5777822 -3.3865316 0.33181792 6
-2.4838569 -2.4839036 0.57432932 8
-2.5616918 -3.4045732 0.71987832 8
-2.4414365 -2.4784675 0.71432918 9.5
-2.5147502 -3.4061637 0.83190525 9
-2.5883818 -3.4031577 2.1898677 17
-2.2731254 -3.4460158 0.59313786 7
-2.2827399 -3.4618587 2.3081856 19
-2.0044124 -3.5033898 0.90945053 10
-2.1391542 -3.4768329 1.3093007 13
-1.7896407 -3.5499575 1.1887132 12
-1.7087078 -3.5619078 1.4837985 14
-1.6896664 -3.5628312 1.8718144 17
-1.4180019 -3.7958436 3.7276902 26
-1.4525039 -3.6262608 4.0041623 27
-1.2027892 -3.6765089 4.2244787 28
-1.0281391 -3.698519 3.9146643 27
-0.60406423 2.7338927 0.33183199 7
-0.65853459 -3.7693546 4.3701444 29
-0.56985289 2.7169151 0.29586509 6
-0.50428456 2.8089871 1.1369512 15
-0.43740368 -3.7946992 2.1373711 19
-0.34418619 2.8050764 0.027123831 4
-0.21120884 2.8890803 0.76828521 11
-0.083987102 -2.7443039 -0.15106866 1.5
-0.15138732 -3.824652 0.010661679 3
-0.10422677 -3.8989396 3.8184383 26.5
0.098931141 2.9221537 0.35263959 7
0.068727121 2.9730868 0.71661359 10
0.15782484 -3.9071372 1.9701451 17
0.17682461 -3.9118307 2.0361736 18
0.036372419 -3.6723659 4.0683537 28
0.041717421 -3.5472913 4.0809774 29
0.35762799 3.0428567 1.1979514 14
0.36568895 3.0158441 1.2219565 15
0.48398063 -3.9590781 0.15952615 4
0.48178488 -3.9739118 3.0555825 23
0.78767884 -4.010201 0.23988888 5
0.65553653 -3.9919679 3.0257568 22
0.88060093 -4.0233498 0.34399068 6
0.98619419 3.4514487 0.87370801 10
0.97383785 -4.0505843 1.3311388 12
0.96908653 -4.050561 2.2601397 18
1.0936011 -1.8899839 0.03246532 3.5
1.1045297 -4.0701675 0.62127829 8
1.0390192 -4.0730605 1.9802524 16
1.1402067 -4.081356 3.2113464 23
1.3426416 -4.1192579 1.5165781 13.5
1.2404723 -4.1168675 4.0645213 26
1.5321962 -4.1474175 0.39176983 6
1.4473444 -4.1381168 0.63069355 7
1.547368 -4.1560082 0.92530733 9.5
1.571561 4.0294061 3.4494109 23
1.559328 -4.1635699 4.4068537 27
1.4968759 -3.913456 4.5300431 28
2.1419101 -4.2652359 3.6394694 23
2.3572369 -2.7948501 1.3977975 14
2.3023727 5.8767519 1.5714583 11
2.2310274 -4.3071284 3.5006423 22
2.2040594 -4.1124868 4.5480208 26
2.434983 -2.7400911 0.91162747 10.5
2.4539051 -2.6682236 1.09139 12
2.4240677 -2.7936482 1.3248075 13
2.4268506 5.8375607 1.5495751 10
2.4129179 -2.5466008 4.1909885 29
2.6572142 -2.7683399 0.70076191 9
2.7671444 5.7644234 0.82289135 7
2.6657825 5.6949749 1.7957817 12
2.7137978 -2.6023173 4.1952224 28
2.9481618 -2.6963141 0.92855334 10
3.18172 -4.4459238 3.0994611 19
3.3178513 -4.4871597 3.049639 18
3.6763885 -4.5653539 4.1960068 22
3.6613891 -4.5535626 4.4349656 23
4.1809635 -3.7648249 0.53838384 6
4.3322382 -2.9477232 0.34148407 5
4.3716888 -2.764931 0.41681027 6
4.4448514 -2.7856317 0.60788369 7
4.9130716 -1.8590479 0.10922164 4
4.9215212 -1.9011899 0.30839169 5
4.9164653 -1.8885087 0.47334296 6
4.9483633 -1.6604259 0.59540677 7
4.9525561 -1.6712347 0.86845261 8
4.9785609 -1.3472958 1.1560971 10
4.9644051 -1.63912 1.3273212 11
4.9468527 -1.6722457 1.6904649 12.5
4.898778 -1.757005 1.9818258 14
4.8814831 -1.7206975 2.0706823 15
5.1668234 4.861207 0.49254224 5
5.0026884 -1.4719539 1.0066141 9
5.1887512 -0.36025923 1.5496725 12
5.0695572 -0.81413358 1.9617685 14
5.1774154 -0.31690669 1.8484788 13
5.0029707 -1.1517701 2.0712643 15
5.3914943 0.75259668 0.35922226 5
5.3597517 0.73303556 0.50933194 6
5.2969346 0.35422426 0.7792325 8
5.3679118 0.72378033 0.65537786 7
5.26512 4.731647 0.69954818 6
5.329247 4.7353725 0.81558847 7
5.3477726 0.56634784 1.0721751 9
5.3624902 0.73877555 1.2878121 10.5
5.2876358 0.12379777 1.4283595 11
5.376224 4.8013597 1.750646 10
5.3110919 4.778409 1.8465965 11
5.3676252 -4.7850628 3.8890641 18
5.3871546 -4.7119622 4.1098137 19
5.2612791 -1.3875415 5.426229 27
5.4324288 0.75524622 0.21819495 4
5.4050565 0.7444604 1.5702746 12
5.4302344 -4.8016062 2.3501194 13
5.579618 -3.7864606 2.5495245 14
5.4119496 -4.7485886 2.6309352 14
5.492753 -4.1354074 3.8487904 18
5.564868 0.16996779 5.9291 28
5.6080956 4.3211327 0.93454927 7
5.7007341 -3.3159485 2.2877774 13
5.680234 -3.2408381 2.5704994 14
5.6193228 -3.6183765 2.685909 15
5.6527524 0.18162383 5.9180155 27
6.0364623 0.95223022 2.5160515 15
6.0225458 1.0441626 2.6965921 16
6.3456182 8.6913776 1.3816595 7
6.2843127 1.5207727 1.4505411 10
6.2762861 1.5265504 1.618546 11
6.4379101 8.4602861 1.0746663 6
7.1436114 4.4966421 0.56639779 5
7.3470559 3.9378362 0.23309563 4
7.3720746 3.862354 0.48604855 5
7.3498759 3.9064717 2.0665739 10.5
15.37811 24.622789 16.813185 19
15.625423 24.472473 17.613354 20
