# .PCD v0.7 - Point Cloud Data file format
VERSION 0.7
FIELDS x y z intensity
SIZE 4 4 4 4
TYPE F F F F
COUNT 1 1 1 1
WIDTH 593
HEIGHT 1
VIEWPOINT 0 0 0 1 0 0 0
POINTS 593
DATA ascii
-46.970592 -9.1986351 5.7622657 7
-46.83926 -8.5303364 6.965003 8
-46.960526 -9.1094294 8.2460995 8
-46.960201 -8.8506308 8.4986134 9
-46.950642 -8.2681179 9.5015278 9
-46.972183 -8.765275 10.508458 10
-46.702904 -7.9731994 5.6879573 7
-46.760601 -7.9754038 8.1409693 8
-46.55257 -6.845355 8.0318947 8
-46.707458 -7.6383505 8.4013462 9
-46.630745 -7.0977554 9.4013596 9
-46.571091 -6.5322213 10.381339 10
-46.781197 -7.6422706 10.444364 10
-46.609951 -6.9253058 11.386048 10
-46.455677 -5.8594222 11.358139 10
-9.3480253 1.3159151 -0.22217195 3
-9.0834522 -1.9753534 1.111407 7
-9.0447884 -2.0291359 1.8430088 9
-9.1293907 -1.9645779 1.6373906 8.5
-9.022872 -1.9493691 2.1998556 10
-8.1588717 -0.64581537 -0.16053879 3
-8.1330671 -0.67186815 0.12550436 3.5
-8.0766525 -0.83401787 0.46076575 5
-8.0887375 -0.69436908 0.74153483 6
-8.1318092 -0.56052595 0.99165535 7
-8.154706 -0.63346714 1.3714427 8
-6.7188907 1.6821128 -0.086740285 3
-6.1259198 -1.2580022 -0.067662232 3
-6.1496339 -2.7522876 3.3594515 17
-6.1085978 -2.7615891 3.6824753 18
-5.6240816 -1.3710674 -0.089482248 3
-5.8261862 1.7483039 -0.17182197 2
-5.6070518 -1.3694912 0.22851421 4.5
-5.6348534 -2.8414311 3.1526868 17
-5.6798024 -2.8368621 3.3353398 17.666666
-5.4671874 -1.3770452 -0.28848058 2
-5.2215085 1.8269264 -0.16488326 2
-5.525804 -1.3846596 0.47653919 5.5
-5.4471965 -2.8795466 1.3027873 10
-5.4492331 -2.8267791 1.6676632 11
-5.5399323 -2.8700147 2.73476 16
-5.4729052 -2.8821068 3.1217961 17
-5.451396 -2.8729961 3.4027772 18.5
-4.94244 -1.48481 -0.16479266 2.5
-4.8076797 -0.97868019 -0.25428417 2
-4.9865379 -0.48713124 -0.26012787 2
-4.9216986 2.1303058 -0.042087972 3
-4.9843545 -1.4912126 0.24397297 4.5
-5.0173049 -1.4788326 0.49669963 6
-4.9821858 -2.9776261 2.7490783 17
-4.8362436 -2.9962621 2.9931445 17.5
-4.7600169 -2.880918 -0.26213801 2
-4.6588554 -2.1773448 -0.15154676 2.5
-4.6072216 -1.8323261 -0.1215655 2.75
-4.5646591 -1.596947 -0.059071731 3
-4.651485 -0.23480368 -0.24556704 2
-4.4461293 0.88795859 -0.25904289 2
-4.6842957 -2.2067616 0.19780354 4.1999998
-4.6161466 -1.811138 0.16799363 4.125
-4.5935969 -1.5763243 0.30988625 5
-4.6997561 -2.2194746 0.48663315 6
-4.6111712 -1.7785028 0.49369496 6.25
-4.668879 -3.0329456 2.6920111 17
-4.6315627 -3.0335231 2.987936 18.166666
-4.0590343 -2.1371331 -0.16185234 2.25
-4.3857369 1.0995212 -0.26025656 2
-4.1848354 1.9786553 -0.22892329 2
-4.1798048 2.494621 -0.089188375 3
-4.0809965 -2.1139445 0.073841803 3.5
-3.6422577 -2.1847889 -0.068696409 3
-3.8420694 2.0396037 -0.21691175 2
-3.8132243 -2.1806824 0.31677553 5.25
-3.8264039 -2.211736 0.4563491 6
-3.6384139 -3.2247276 1.0649797 10
-3.6574545 -3.1968284 1.0298995 10
-3.685118 -3.1895208 1.4343737 11.5
-3.7284501 -3.18119 1.7170074 13.5
-3.9547517 -3.0102634 2.2973371 16.5
-3.9467645 -2.9816923 2.626266 18
-3.3574669 -3.2416298 -0.13664161 2.25
-3.299042 1.9637977 -0.22177839 2
-3.2639897 -3.2635791 0.23457506 4.75
-3.2799327 -3.2590418 0.49218324 6
-3.3053753 -3.2701628 1.4447085 12.333333
-3.3294914 -3.262115 1.6438457 13.5
-3.0340831 -3.3024614 -0.071609519 2.6666667
-2.8574264 -2.3182716 -0.15822156 2
-3.0336263 2.2175207 -0.1701308 2.3333333
-2.9781964 -3.3137259 0.2724171 5.1666665
-2.8355682 -2.1597526 0.19537477 4.7142859
-2.8247075 -1.9996743 0.35696641 6
-2.9595377 2.3468919 0.067688257 3.5
-2.9548149 2.4254699 0.021171635 3
-2.9372964 -3.3267431 0.5218311 6.3333335
-2.8447433 -1.7374754 0.62631333 9
-3.1798294 -3.2878623 1.5703009 13
-3.148349 -3.2946119 1.6421647 13.5
-2.8832772 -3.3503108 2.1998405 17
-2.5436718 -3.3885138 -0.12353609 2.5
-2.7334869 -2.3610258 -0.10182755 2.5
-2.6749234 -1.8197361 -0.098712057 2.5
-2.6846578 -0.95366669 -0.21046048 1
-2.4772456 0.74560499 -0.22396539 1
-2.4393756 0.93309206 -0.22360215 1
-2.6187201 2.2338355 -0.19265921 2
-2.7153502 2.6732252 -0.086769737 3
-2.5578928 -3.391535 0.2226426 4.8000002
-2.6331081 -2.496027 0.027814165 3.5
-2.7425907 -2.3502808 0.17370902 4.5
-2.7197843 -1.817901 0.19794387 4.8333335
-2.4766171 5.277514 0.11048456 4
-2.5572364 -3.4029589 0.55037642 6.6666665
-2.5825009 -2.4172843 0.69178534 9
-2.7289519 -2.254878 0.53315097 7.6666665
-2.7228346 -1.7976886 0.57876337 8.7142859
-2.471137 -3.4122646 0.87427694 9.333333
-2.6743057 -1.8784925 1.0546901 12.6
-2.5236247 -3.4094286 1.3943306 12.666667
-2.5984173 -3.4076631 1.84821 15.333333
-2.6043527 -3.4020474 2.2272515 17.714285
-2.2034307 -3.4528577 -0.091745175 2.5
-2.0557678 -1.6885419 -0.20067982 1
-2.2470307 -0.59163857 -0.19895183 1
-2.3594425 1.1046416 -0.22020151 1
-2.2245333 1.3917555 -0.21655172 1
-2.0760286 1.6793395 -0.21234138 1
-2.3269155 2.2985909 -0.17954329 2
-2.0083017 4.8819098 -0.091166124 3
-2.2150424 -3.4565654 0.19981733 4.7142859
-2.0040424 3.7344618 0.025698598 3
-2.0302925 4.2476668 0.027734185 3
-2.2005918 -3.4653165 0.67886627 8
-2.1624541 -3.4735081 0.86527675 9.5
-2.1355402 -3.4794102 1.392912 13
-2.1715078 -3.4811299 2.1418216 17.875
-1.8216207 -3.5240588 -0.073136702 2.5
-1.9616086 -2.5645745 -0.19699632 1
-1.905037 -2.0706801 -0.20161022 1
-1.9679914 -1.8610678 -0.19869994 1
-1.958897 1.834836 -0.20831572 1
-1.860085 2.3656764 -0.16328678 2
-1.7211778 4.8202271 -0.083917238 3
-1.8464549 -3.5270867 0.23206761 5
-1.9797688 3.3082583 0.023677787 3
-1.8366469 -3.5319843 0.68900883 8.333333
-1.7527339 -3.5563245 0.99425393 10.666667
-1.7669958 -3.5441413 1.4088771 13.5
-1.7620209 -3.5552931 1.9909992 17
-1.7316298 -3.5573878 2.1369405 18.5
-1.3135444 -3.6084237 -0.10373452 2.5
-1.4888682 -3.554662 -0.10084257 2.5
-1.3387872 -2.21929 -0.19694456 1
-1.414613 1.8558514 -0.18925953 1
-1.4257592 2.4358332 -0.14122421 2
-1.5001426 5.9096632 -0.088537455 3
-1.3150101 -3.6146958 0.25641823 5.1999998
-1.5033334 -3.5808368 0.20160268 4.75
-1.4059817 4.657537 0.12135354 4
-1.3364048 -3.6217198 0.65656018 8.5
-1.4902176 -3.593518 0.69219267 8.666667
-1.3321029 -3.630867 1.0309088 11
-1.5335577 -3.5929451 1.0334979 11
-1.382635 -3.6202195 1.3848785 13.5
-1.5272547 -3.5914984 1.3838741 13.5
-1.3706472 -3.6214354 1.9563928 17.333334
-1.57481 -3.5877657 1.9219604 17
-1.3617185 -3.6224999 2.0597577 18.333334
-1.5288543 -3.5917225 2.1077516 18.5
-1.3675658 -3.7028296 3.8339062 26.4
-1.0245265 -3.657048 -0.10066233 2.5
-1.0373824 -3.3438311 -0.19142634 2
-0.97247148 -3.1005254 -0.19211279 1
-0.9866668 -2.0281062 -0.19131447 1
-1.0535314 -1.9302406 -0.19263755 1
-0.84453607 1.4109071 -0.18262482 0
-1.1687517 1.7973121 -0.18483888 0.5
-1.0921413 2.0168908 -0.18175378 1
-0.95192856 2.4655318 -0.16206048 1.6666666
-1.0427619 3.4225862 -0.055494092 3
-0.99694997 -3.6716812 0.17514169 4.5
-1.0048946 3.9267445 0.079626732 4
-1.0338944 -3.671726 0.66655296 8.3999996
-1.0157064 -3.686492 1.0297915 11
-1.0006472 -3.6899648 1.3603274 13.6
-1.0107427 -3.6885462 1.9452885 17.5
-1.0412946 -3.6847277 2.1436064 19
-1.0725785 -3.7703965 3.8001492 26.4
-0.63521075 -3.7216566 -0.1129203 2.5
-0.78272778 1.4630814 -0.18156403 0
-0.54483259 1.6286178 -0.17480564 0
-0.64155 2.2992194 -0.17678323 1
-0.6043191 2.5633254 -0.14494716 2
-0.67878741 3.3259048 -0.045142971 3
-0.59677732 -3.7445951 0.16612662 4.5999999
-0.55576468 2.7099271 0.36337876 7
-0.62701714 -3.7446055 0.68171686 8.5
-0.61514741 -3.7533009 0.86477774 10
-0.47611055 2.793997 1.1809785 15
-0.61883098 -3.7607875 1.3057805 13.142858
-0.58289331 -3.7640831 1.9576385 17.6
-0.59203875 -3.7668447 2.0561736 18.333334
-0.57643217 -3.8545063 3.8174026 26.5
-0.72721118 -3.7553906 4.3093004 28.5
-0.2239172 -3.7892375 -0.074999101 2.5
-0.10642264 -2.7404375 -0.1625963 1
-0.2162592 1.9560941 -0.16438173 1
-0.39755586 2.0299351 -0.17007305 1
-0.1967756 2.6383924 -0.11399116 2
-0.23608829 -3.8164358 0.19169366 4.8333335
-0.2983551 2.820766 0.092843562 4
-0.23446505 -3.819324 0.69112104 8.6000004
-0.24561907 -3.8288393 0.87127596 10
-0.1314235 -3.8514779 1.3522633 13.4
-0.25115228 -3.8302884 1.9510812 17.333334
-0.20525922 -3.8402212 2.0745783 18.4
-0.15253058 -4.0234976 3.7232807 26
-0.24505524 -3.8835983 3.8413446 26.666666
0.37875101 -2.827558 -0.13399854 2
0.15080263 -2.64556 -0.15326425 1.3333334
0.24559911 1.5823286 -0.15139571 0
0.25508779 1.8798478 -0.15245338 1
0.2137475 2.6972582 -0.13676564 2
0.015422428 3.1402199 -0.029419059 3
0.16525608 -3.8932271 0.2233084 4.875
0.06117307 2.9156635 0.31109574 6.5
0.16144428 -3.9018791 0.69572985 8.5
0.082067899 2.9813318 0.73013008 10.5
0.17152058 -3.9039111 0.88464004 10
0.037513003 2.9590724 0.82457614 11
0.17070785 -3.9036276 1.3199322 13
0.31485239 3.0228639 1.2704003 15
0.14086066 -3.9104476 1.8991427 17
0.099380076 -3.8907235 2.0440531 18
0.20303568 -3.9192894 2.9714692 23
0.085846283 -3.8928256 3.8265584 27
0.12018491 -3.672811 4.0874162 28
0.14817715 -3.5181441 4.0835896 29
0.32662123 -3.9143455 4.4837985 29
0.54344368 -2.8673098 -0.0097694201 3
0.55558223 -2.6631749 -0.14088897 2
0.56002098 -2.1616151 -0.12818149 1.5
0.64216226 -1.9301761 -0.12560466 1.5
0.66573387 1.488683 -0.14542128 0.66666669
0.47234681 1.6597868 -0.14761598 1
0.57140458 2.7564931 -0.10751797 2.3333333
0.78038573 -4.0116878 0.30755556 5.3333335
0.52650058 -3.9647872 0.29205251 5.5
0.75673836 3.7849936 0.040509112 4
0.71834809 -4.0036864 0.51632392 7
0.56927001 -3.9745464 0.66359228 8.166667
0.60416377 -3.9812121 0.86992902 9.75
0.73024166 -4.0087972 1.390518 13
0.60911739 -3.9853575 1.3593644 13
0.50652289 3.6521006 1.481796 14.5
0.73117572 -4.0105109 3.0773649 22.5
0.57513267 -3.9807594 3.0333343 22.666666
0.51920766 -3.9531314 4.507864 28.25
0.83677918 -2.9157155 -0.0094408114 3
1.0753758 -1.7489001 -0.056998324 2.5
0.9566797 -1.4234476 -0.12010246 1
1.0040333 -1.1551123 -0.14999153 0
1.1906638 0.51173437 -0.13428769 0
1.1789345 1.0474384 -0.13153772 1
1.0543271 1.5737398 -0.13251439 1
1.0908049 1.7972091 -0.12994002 1.5
1.0522491 2.0677795 -0.12993345 2
0.86113352 2.7989717 -0.090524495 2
1.013072 2.8198369 -0.08735837 2
0.84713417 -4.0196676 0.3034572 5
0.96987635 -2.6293933 0.0057453732 3
1.1112324 -1.8573384 0.040866017 4
1.0525566 3.4967823 0.0007862465 3
0.87539136 -4.0304842 0.61784327 7.75
0.97309136 3.4915009 0.7967 10
0.98220605 -4.0506816 0.86492491 9.3999996
0.94195479 3.4423172 0.89932591 10.666667
0.96128249 -4.050437 1.4033586 13
1.0215366 -4.0628242 2.1597104 17.5
1.1437227 -4.0886149 3.1268709 22
1.1312394 -4.0844412 3.2033505 23
1.1656904 -3.9477491 4.5309567 28
1.3381402 -1.901212 -0.044675104 2.5
1.3458656 -1.3242003 -0.14554547 1
1.5053992 -0.83652848 -0.1421818 1
1.5020797 -0.7414934 -0.14155698 1
1.4058714 -0.079258479 -0.13767225 0.5
1.3371686 0.17115329 -0.13729025 0.33333334
1.3645889 0.64070064 -0.13246609 1
1.2493024 0.91291982 -0.13154157 1
1.4614484 2.0631874 -0.12754899 2
1.3864182 -4.1197038 0.31726646 5.3333335
1.338284 -1.9021258 0.02302292 3.3333333
1.383233 -4.1277914 0.56405193 6.8571429
1.3478104 -4.1195102 0.91199523 9.5
1.319862 -4.1155324 1.4431635 13
1.2211151 -4.0898528 3.2064223 23
1.3420008 -4.1253915 4.2425089 26.4
1.5942948 -4.1673427 4.4028845 27
1.3675694 -3.9207251 4.5313678 28
1.7620269 -1.7574098 -0.081058837 2.3333333
1.8835057 -0.18289785 -0.13059559 1
1.9356389 -2.4062819 0.13339953 4
1.6548676 4.1233506 3.3225117 23
1.6605281 -4.1844292 4.3192234 26
1.9671147 -4.0681496 4.5507708 27
1.8099891 -3.3971901 4.5332484 29
2.1127813 0.19775544 -0.1292686 1.5
2.1211507 0.57180804 -0.12396139 1.5
2.1736591 1.7646207 -0.11928731 2
2.2678256 -2.0782518 0.017334264 3
2.3980343 -2.8106611 0.57685465 8
2.3703914 -2.8278401 1.1159087 12
2.3033357 -2.876966 1.3245571 13.5
2.3495843 5.8016205 1.6434925 11
2.1759229 -4.2761593 3.5955198 22
2.2146358 -4.2872744 3.6769056 22.666666
2.3922026 -2.5758448 4.1800838 29
2.0907648 -4.2227979 4.4758153 26
2.3512824 -3.0176857 4.5465503 29
2.5394597 -2.1086361 -0.05654322 3
2.5980597 -1.7669814 -0.063779868 3
2.4375932 -1.3080158 -0.12549677 2
2.4269516 -0.98705345 -0.12727016 2
2.5191402 -0.17724763 -0.12832761 2
2.7708972 1.1385928 -0.1147386 2
2.6754916 1.4141099 -0.1149001 2
2.5146077 1.6567267 -0.11248416 2
2.4420304 -2.8152528 0.73738027 9
2.4147239 -2.7687047 0.79271901 10
2.5863709 -2.7806859 0.89364898 10
2.4073102 -2.8231695 1.223902 13
2.4047899 -2.7529047 1.3733337 14
2.5924978 5.7536182 1.5185548 10.333333
2.6266334 5.7231388 1.6517494 11
2.7473788 -2.5865912 4.1936154 28
2.4414237 -2.9306149 4.5292854 29
2.9236083 -1.7846657 -0.075738445 3
2.9789128 0.54070044 -0.11796722 2
3.068872 5.5428257 0.096128188 3.5
2.8263998 5.7306414 0.30694124 5
2.9425182 6.2137709 0.00014303395 3
3.1502514 8.6849318 0.01078868 3
3.1729562 5.5224867 0.68396854 6.5
2.8178389 5.7489252 0.68093663 6.5
3.1281164 -4.6135058 1.1609746 9.5
2.8717527 -2.8133295 0.87761492 9.5
2.9107506 -2.7597163 0.90876871 10
3.1225498 5.4967289 0.81316769 7
3.1478338 -4.5542269 1.3726243 10.5
3.1588616 -4.5641031 1.8441631 12.666667
3.1302426 -4.5576792 2.0592999 14
3.143822 -4.4596286 2.9844923 18
2.8299534 -2.5272443 4.2079725 28
3.2138722 -0.46217045 -0.11024442 2
3.3434272 -2.2584333 0.068993844 4
3.3161955 5.5499458 0.035352096 3
3.2263939 5.5157013 0.59176487 6
3.339103 -4.4987411 1.0310059 8.666667
3.3429601 -4.4892941 1.3050196 10.25
3.2835476 -4.4866662 1.8932869 13
3.3113785 -4.4820642 2.0924485 14
3.2488463 -4.476141 3.0515811 18.5
3.5642362 -4.5203953 4.3968287 23
3.829242 1.3729142 -0.094207413 3
3.8027942 2.819473 -0.099192984 3
3.8616359 4.6996188 -0.091416866 3
3.749017 5.0050139 -0.10441682 3
3.676451 5.4153504 -0.12036952 3
3.9075305 -2.3532336 0.10030859 4
3.6072698 -4.5354843 4.2908907 22
3.7846725 -4.4615855 4.556694 23
4.1260877 0.021546233 -0.10079198 3
4.1920481 -3.7833481 0.38744831 5
4.3258648 -2.904943 0.28732538 4.6666665
4.1992788 -3.7406819 0.59980232 6.5
4.3329215 -2.9302454 0.59850419 6.8333335
4.0621204 -4.6334987 4.4748325 22
4.5023146 -10.238238 1.5683322 7
4.49858 -10.271243 1.8654338 8
4.4800406 -10.336679 2.2141275 9
4.4838696 -10.295339 2.4455025 10
4.921649 -1.8206745 -0.064437918 3
4.9837394 -1.5158836 -0.082206957 3
5.1403198 -0.61659229 -0.0051604225 3
5.188591 -0.21165282 -0.11903598 3
4.9737401 4.460887 -0.038746681 3
4.9394779 -1.7405438 0.19023319 4.4000001
4.9976878 -1.4070305 0.21661559 4.5999999
5.0739775 -0.96976364 0.21299611 4.5
5.1445394 -0.58806348 0.20644581 4.5999999
5.1978478 -0.28254971 0.20169501 4.5
4.9293427 -1.7556961 0.5781337 6.5
4.9940062 -1.4002938 0.60677338 6.7142859
5.0630903 -0.98098135 0.57908928 6.5999999
5.1374664 -0.56570351 0.5626992 6.5
4.9368768 -1.919624 0.88946748 8
4.9859781 -1.4119637 1.0354629 9.1000004
5.0698686 -0.96798176 1.0011848 9
5.1440234 -0.57042688 0.99276447 9
4.9381552 -1.6102389 1.3362087 11
5.0015707 -1.331673 1.4240254 11.166667
5.0671072 -0.96604741 1.3643482 10.833333
5.1529102 -0.5029667 1.3719606 10.75
5.1878886 -0.37899053 1.3977575 11
4.9066572 -1.6400355 1.915344 13.5
4.986701 -1.3979037 1.8094358 13.125
5.0556788 -0.98124373 1.8403378 13.333333
5.1608253 -0.45097667 1.9151024 13.5
5.1697402 -0.34340304 1.9826052 14
4.917192 -1.6186281 2.1375883 15
4.9836855 -1.3272129 2.0750182 15
5.0596347 -0.86728179 2.0795076 15
5.1410856 -0.46931437 2.1021943 15
5.3061404 0.30640915 -0.033546716 3
5.3370886 0.58774626 -0.099942349 3
5.399713 4.3977976 -0.04652657 3
5.238266 -0.063041642 0.18137707 4.5
5.2995849 0.24949078 0.24066693 4.5999999
5.3680205 0.5753777 0.21502879 4.3333335
5.4492378 4.7130451 0.1761497 4
5.3064947 4.861856 0.17162952 4
5.223619 -0.14374019 0.62572408 6.8000002
5.2999196 0.24911475 0.62980986 6.8333335
5.3671985 0.56312996 0.64844018 6.8571429
5.4228983 4.6869431 0.56982142 5.4000001
5.225852 -0.20410225 0.80742604 8
5.2766862 0.18810046 1.0582979 9.25
5.3720174 0.71951014 0.80340004 8
5.5880136 4.3892903 0.90157336 7
5.4434743 4.6182628 0.936768 7.25
5.4707384 -4.6327906 1.5405314 9.5
5.2841592 0.21462569 1.4033581 10.875
5.3714204 0.60413003 1.4139009 10.833333
5.4605942 4.5602212 1.4385858 9
5.4537287 -4.6205029 1.7704883 10.5
5.5297689 -4.2301168 1.7001159 10.333333
5.2064266 -0.42108986 1.6904483 13
5.2981486 0.32285759 1.7763972 12.5
5.3770633 0.70476723 1.7999849 12.5
5.3626761 4.8249073 1.7621478 10.5
5.4304099 -4.8344116 2.1522315 12
5.4634237 -4.6291995 2.2145219 12.5
5.5292039 -4.2734442 2.0512722 12
5.2083902 -0.30426934 2.1494133 15
5.3060269 4.8282585 2.0576143 12
5.4237266 -4.6449313 2.7460766 14
5.5211034 -4.19519 2.5266626 13.666667
5.5890975 -3.7849054 2.5445175 14
5.4059591 -2.2339919 2.6596458 16
5.3850627 -2.1718307 3.0649052 18
5.4616899 -4.5502772 3.3212526 16
5.5908747 -3.7461574 3.5821338 18
5.334506 -2.1493082 3.3893278 19
5.4164901 -4.5622582 3.9270442 18
5.4884157 -4.2230392 3.8546023 18.5
5.5662131 -3.6790733 3.8731413 19
5.4025345 -4.6271462 4.1325197 19
5.3051677 -1.2718062 5.4527249 27
5.571455 0.30193749 5.8394604 27
5.6035776 -3.0127602 -0.013374039 3
5.8130441 -2.7268338 -0.011504918 3
5.8290071 -2.3765492 -0.07689023 3
5.7632442 -2.849669 0.3939825 5
5.8574352 -2.5065556 0.28852338 4.4000001
5.7841411 9.5977964 0.28242338 4
5.7522507 -2.8544526 0.64737922 6.25
5.844378 -2.5102546 0.59774232 6
5.8680625 -2.3593538 0.60103863 6
5.7565589 -2.8587954 1.0990239 8
5.8414912 -2.5388439 0.94663352 7.5
5.8708038 -2.3213549 0.81888765 7
5.7045197 -3.2324357 1.4027072 9.5
5.7225375 -2.9626937 1.3883289 9.3999996
5.8183889 -2.5828917 1.4193388 9.8000002
5.6409593 -3.7031517 1.8637139 11.5
5.7179489 -3.2397113 1.7999862 11.5
5.7619376 -2.9599226 1.7337499 11.333333
5.8719473 -2.4220865 1.6222963 11
5.8677888 -2.3895779 1.9741706 12
5.6333022 -3.6947367 2.3491857 13
5.6749139 -3.4200344 2.2691684 13
5.7443666 -2.8758097 2.0847647 12.333333
5.607769 -3.6845744 2.4341502 14
5.656754 -3.4158661 2.571455 14.4
5.9835501 1.0395174 2.6266263 15
5.9503984 0.71289062 6.2653255 27
6.0365362 0.94360161 -0.12093832 3
6.332541 4.2122426 -0.062149134 3
6.1246181 1.0352995 0.22581308 4.25
6.261961 1.3503885 0.26583079 4.3333335
6.3337994 1.7170515 0.26310769 4.3333335
6.1259975 4.5287976 0.20393106 4
6.1414227 1.0328187 0.61422181 6.0999999
6.2176824 1.3851342 0.67766511 6.4000001
6.3254328 1.6943154 0.52674741 5.5
6.3215656 8.8209724 0.79567575 5
6.124177 1.0448154 0.92499977 8
6.225358 1.3227412 0.94095808 8
6.3244009 1.6658627 0.80271536 7
6.1193914 4.5709805 0.99345028 7
6.3766508 8.8791046 1.1507359 6
6.1109643 1.0301806 1.3771611 9.75
6.1912742 1.3357482 1.4451762 10
6.0707436 4.5925355 1.5339364 9
6.3280129 8.937604 1.3237125 7
6.1280971 0.9889549 1.8173534 11.75
6.2210007 1.3118447 1.7852778 11.5
6.2623496 8.9114437 1.6856527 8
6.1080909 1.0529248 2.249964 13.333333
6.2712035 1.5165595 2.2695336 13
6.1566119 1.1170533 2.6692753 15.5
6.2174788 1.3489473 2.5754886 14.833333
6.2741446 1.6241534 2.6596582 15
6.2461128 1.5448333 2.8315616 16
6.1128464 0.66883248 3.4774601 19
6.6873407 3.5756052 -0.073425502 3
6.6734509 8.5725813 0.18737958 4
6.6973963 8.9928131 0.13302071 4
6.5147986 9.7624454 0.29908064 4
6.6102691 8.6138296 0.67984313 5
6.5927024 8.5924473 1.1728235 6
6.5551271 8.5457659 1.2529472 7
6.7726116 8.3829832 1.6738977 8
6.8013196 4.0718565 -0.072029665 3
7.0686746 3.9805019 0.35501751 5
7.0663905 4.1411123 0.21912785 4
7.1626616 4.5335426 0.22142987 4
6.8248091 8.4260893 0.28095028 4
7.0694385 4.1485701 0.59380132 5.3333335
7.109663 3.9624863 1.0630214 7
7.0992589 4.2067599 0.97585279 6.6666665
7.1660962 4.5467334 0.90793979 6.5
7.0365405 3.984479 1.2560077 8
7.1335335 4.463747 1.3093723 8
7.018456 3.9868112 1.8400019 10
7.0724564 4.2379403 1.8821974 10
7.1112943 3.9790902 2.2000334 11
7.0026994 4.099555 2.2084072 11.333333
7.3811026 3.8750811 0.30006126 4.5
7.3745704 5.9969444 0.25335902 4
7.4511375 3.824609 0.85904926 6
7.3508854 3.9527442 1.9001086 10
7.2757416 3.9754179 2.356096 12
7.9657779 3.811923 0.26122218 4
7.963758 3.8097126 0.42421979 5
7.9672041 3.8310449 0.9492383 6.5
7.9586515 3.8385358 1.3662417 8
8.1800385 3.813786 -0.088703461 3
8.1051025 9.8922758 0.17336024 4
8.3108749 3.7627866 2.5962975 12
8.2607317 3.7797737 3.4912953 14
8.1796274 3.7842426 3.7032721 15
8.6030302 3.7014871 3.5973387 14
8.5069132 3.722379 3.916327 15
8.430315 3.70929 4.1367912 16
8.8616524 3.6566441 -0.07162293 3
9.1373367 3.6049013 0.21291119 4
9.0547361 3.6052291 0.50938743 5
9.1252289 3.6102376 1.0874127 6.5
9.0216084 3.6400213 1.4944102 8
9.0886154 3.6522262 1.9454414 9
9.1636391 3.6285787 2.2304416 10
9.4815731 3.554225 0.3014608 4
9.3539495 3.5637429 0.5604338 5
9.5285244 3.5415888 1.004462 6
9.5850286 3.5195847 1.2244564 7
9.8793297 3.4880235 0.27850404 4
9.6421394 3.5122881 0.59846443 5
11.183893 3.2503254 0.67557621 5
11.196834 3.2455287 1.1855742 6
11.190798 3.235194 1.4135615 7
11.136693 3.2721069 2.2995899 9
11.249747 3.2003267 1.8455364 8
14.64942 22.694141 2.0120935 5
14.618343 22.885914 2.9861162 6.6666665
14.87355 21.611584 2.6729925 6
14.875591 21.891203 2.9297357 6.6666665
15.902905 24.458204 17.024578 19
16.133217 24.392115 17.631746 20
17.843685 24.061815 18.376015 20
18.197254 24.051117 17.475285 19
18.346376 23.939417 18.322363 20
20.132639 23.508341 19.217533 20
20.410103 23.57663 18.118753 19
20.711517 23.641922 18.069984 19
20.734421 23.504713 19.168955 20
21.883699 23.272455 19.98765 20
22.237234 23.278288 18.577383 19
22.373251 23.150116 19.773924 20
22.675631 23.218321 19.792147 20
22.966986 23.100204 18.895285 19
23.262342 23.111479 18.790478 19
23.242149 22.973076 20.11841 20
