# .PCD v0.7 - Point Cloud Data file format
VERSION 0.7
FIELDS x y z intensity
SIZE 4 4 4 4
TYPE F F F F
COUNT 1 1 1 1
WIDTH 1395
HEIGHT 1
VIEWPOINT 0 0 0 1 0 0 0
POINTS 1395
DATA ascii
-2.5171933 -0.62903452 -0.25571033 0
-2.431895 -0.60702592 -0.25428277 0
-2.3465967 -0.58501726 -0.25285518 0
-2.2612984 -0.56300867 -0.25142759 0
-2.1760001 -0.54100001 -0.25 0
-3.0539999 -0.102 -0.278 0
-3.0666015 -0.054926254 -0.27726802 0
-3.153862 0.1935176 -0.27791804 0
-3.0444489 0.13546596 -0.2787945 0
-3.4421122 0.2435282 -0.27542627 0
-3.3638349 0.24993384 -0.27751154 0
-3.2588398 0.25296482 -0.27935159 0
-3.1287591 0.26537186 -0.28164375 0
-3.0469999 0.257 -0.28200001 0
-3.5306518 0.36249816 -0.28396145 0
-3.4496298 0.38007873 -0.28540364 0
-3.3663039 0.369663 -0.2849229 0
-3.2829778 0.35924724 -0.28444219 0
-3.157989 0.34362364 -0.28372109 0
-3.033 0.32800001 -0.28299999 0
-3.4728632 0.46845186 -0.28305095 0
-3.368181 0.45692301 -0.28328153 0
-3.2458632 0.44345188 -0.28355098 0
-3.1493101 0.46467134 -0.28419802 0
-3.0476792 0.45906031 -0.28359595 0
-3.5216126 0.55854291 -0.28786349 0
-3.4241874 0.54190487 -0.28693914 0
-3.34115 0.52772391 -0.28615132 0
-3.2319694 0.54865927 -0.28308406 0
-3.1203694 0.56733173 -0.27860346 0
-3.0349131 0.55088782 -0.27640232 0
-2.9494567 0.53444391 -0.27420115 0
-2.8487306 0.550358 -0.2685501 0
-2.747 0.56400001 -0.26199999 0
-3.5239999 0.64499998 -0.289 0
-3.4621954 0.6331073 -0.28740808 0
-3.3644829 0.65583766 -0.28445414 0
-3.2785242 0.63825774 -0.28180349 0
-3.1793048 0.65757996 -0.27750099 0
-3.0496135 0.62950599 -0.27285069 0
-2.9451244 0.6438992 -0.26937139 0
-2.8842177 0.66557765 -0.26736161 0
-2.7550545 0.63439441 -0.26259041 0
-3.4465199 0.74367952 -0.28741601 0
-3.3147626 0.76952183 -0.28326565 0
-3.2286537 0.74873298 -0.28008485 0
-3.1425447 0.7279442 -0.27690405 0
-3.0564358 0.70715535 -0.27372321 0
-2.9845083 0.78112364 -0.27261651 0
-2.8557541 0.75156176 -0.26780826 0
-2.7509794 0.75078815 -0.26437229 0
-2.691 0.755 -0.26300001 0
-3.4445629 0.85822099 -0.28921464 0
-3.3278525 0.85995507 -0.28543848 0
-3.2420166 0.84024721 -0.28223297 0
-3.1334867 0.84921038 -0.27787516 0
-3.0485892 0.82706833 -0.27490011 0
-2.9428759 0.82872891 -0.27123368 0
-2.8514717 0.85105354 -0.26775593 0
-2.7224996 0.83460164 -0.26295573 0
-2.632 0.84000003 -0.26050001 0
-3.3633347 0.95180523 -0.28497824 0
-3.2511036 0.96062279 -0.28145105 0
-3.1673746 0.9350338 -0.2786009 0
-3.0564978 0.94100821 -0.27477869 0
-2.9630914 0.9498322 -0.27141589 0
-2.8711383 0.95694339 -0.26850662 0
-2.7458313 0.93815327 -0.26452395 0
-2.6601775 0.95525825 -0.26153263 0
-2.579 0.92500001 -0.259 0
-1.762 0.97799999 -0.22400001 0
-3.3119981 1.0224066 -0.28382295 0
-3.2479999 1.087 -0.28 0
-3.1582997 1.0560441 -0.27726436 0
-3.0352304 1.0135723 -0.27351105 0
-2.9442985 1.0611622 -0.27039683 0
-2.8225324 1.0157747 -0.2665979 0
-2.5504346 1.0538396 -0.25813687 0
-1.9194402 1.0687468 -0.22855556 0
-1.8407201 1.0233734 -0.22627778 0
-1.704 1.057 -0.221 0
-1.244 1.043 -0.204 0
-1.188 1.098 -0.20100001 0
-3.1676211 1.1444039 -0.27736419 0
-3.0660646 1.1065495 -0.27419579 0
-2.8264766 1.171717 -0.26609483 0
-2.7476075 1.1380378 -0.26382113 0
-2.6687384 1.1043586 -0.26154742 0
-2.4522619 1.1515331 -0.2540462 0
-2.0768805 1.1594936 -0.23311113 0
-1.9981602 1.1141201 -0.23083335 0
-1.8565956 1.1544497 -0.22553255 0
-1.7802979 1.1057249 -0.22326627 0
-1.3480799 1.1290374 -0.20772779 0
-1.2408717 1.1740719 -0.20309374 0
-3.0645421 1.2733774 -0.27295798 0
-2.9447803 1.2222359 -0.26950538 0
-2.7200952 1.2812649 -0.26136976 0
-2.6435714 1.2441987 -0.25927734 0
-2.5670476 1.2071325 -0.25718489 0
-2.3454602 1.2648817 -0.24629276 0
-2.2343206 1.2502403 -0.23766668 0
-2.1556005 1.2048669 -0.2353889 0
-2.0091913 1.2518994 -0.23006509 0
-1.9328935 1.2031746 -0.22779882 0
-1.5215466 1.2724333 -0.21394078 0
-1.45216 1.2150749 -0.21145558 0
-1.3546242 1.250008 -0.20757727 0
-1.2761962 1.2666407 -0.20462435 0
-1.1719774 1.2516346 -0.20111227 0
-2.9260001 1.381 -0.26699999 0
-2.873143 1.3553973 -0.26555467 0
-2.7966189 1.3183311 -0.26346222 0
-2.6113594 1.3861259 -0.25273508 0
-2.5400195 1.3470944 -0.25180131 0
-2.4695802 1.3472118 -0.24768379 0
-2.3917608 1.3409871 -0.24222225 0
-2.2380848 1.3980739 -0.23686391 0
-2.161787 1.349349 -0.23459764 0
-2.0854893 1.3006243 -0.23233137 0
-1.975 1.365 -0.228 0
-1.66032 1.3871499 -0.21891117 0
-1.5909333 1.3297915 -0.21642599 0
-1.4296579 1.3645252 -0.20924996 0
-1.3405445 1.329711 -0.20718655 0
-1.2465502 1.3511715 -0.20430236 0
-1.1743013 1.3802468 -0.20163561 0
-2.7079999 1.439 -0.25400001 0
-2.6543496 1.4505787 -0.25133443 0
-2.549201 1.4317338 -0.2467778 0
-2.3525314 1.4711611 -0.24026331 0
-2.1116662 1.461547 -0.23224024 0
-2.0433331 1.4132736 -0.23012012 0
-1.7297066 1.4445083 -0.22139637 0
-1.5545731 1.4324176 -0.21546999 0
-1.4714351 1.4499263 -0.21108156 0
-1.3579098 1.447538 -0.20844914 0
-1.2494754 1.4326869 -0.20444587 0
-1.1124771 1.442606 -0.20027259 0
-6.6042318 1.5962679 -0.26199201 0
-6.5169239 1.579201 -0.276494 0
-6.429616 1.5621339 -0.29099599 0
-2.5120001 1.573 -0.245 0
-2.4669783 1.5442485 -0.24366273 0
-2.2483325 1.5580941 -0.23648047 0
-2.1799994 1.5098206 -0.23436037 0
-1.8684801 1.5592248 -0.22636676 0
-1.7601453 1.5431461 -0.22296442 0
-1.6252254 1.5497442 -0.21706033 0
-1.5356084 1.5126648 -0.21366398 0
-1.4529833 1.5478966 -0.21250963 0
-1.368459 1.5674782 -0.20907643 0
-1.2572783 1.5503527 -0.20540822 0
-1.1677155 1.5134089 -0.20240888 0
-6.9534636 1.6645358 -0.20398401 0
-6.8661556 1.6474688 -0.21848601 0
-6.7788477 1.6304018 -0.232988 0
-6.6915398 1.6133349 -0.24749 0
-4.6021609 1.6992322 -0.27892816 0
-4.5217738 1.6681548 -0.27961877 0
-4.4413872 1.6370773 -0.28030938 0
-4.3610001 1.6059999 -0.28099999 0
-2.3652215 1.6406695 -0.2401071 0
-1.9399333 1.6182916 -0.22892597 0
-1.7556034 1.6732235 -0.22226721 0
-1.6639552 1.638142 -0.21882881 0
-1.5438422 1.6434418 -0.21578602 0
-1.4279506 1.6348739 -0.21139172 0
-1.367 1.682 -0.20200001 0
-1.2781925 1.6550149 -0.20668148 0
-1.1517155 1.6501901 -0.20182389 0
-5.6585531 1.7927527 -0.25198409 0
-5.5723691 1.7691685 -0.26498941 0
-5.4861846 1.7455842 -0.27799469 0
-5.4000001 1.722 -0.29100001 0
-5.164 1.779 -0.28299999 0
-4.8433213 1.7924645 -0.27685633 0
-4.7629347 1.7613871 -0.27754694 0
-4.6825476 1.7303096 -0.27823755 0
-2.223 1.789 -0.236 0
-1.9375951 1.7839037 -0.22014372 0
-1.8432392 1.7370731 -0.22681247 0
-1.7564634 1.756217 -0.22284186 0
-1.6389742 1.744204 -0.21987852 0
-1.5469344 1.7696652 -0.21602228 0
-1.4420288 1.7319446 -0.20942602 0
-1.3481306 1.7725339 -0.20760007 0
-1.2292339 1.7601364 -0.20475787 0
-5.9171066 1.8635055 -0.21296819 0
-5.8309221 1.8399212 -0.22597349 0
-5.7447376 1.816337 -0.23897879 0
-5.4129853 1.8742535 -0.2411005 0
-5.3299904 1.8425024 -0.25506699 0
-5.246995 1.8107512 -0.26903349 0
-4.9333544 1.827271 -0.27608287 0
-2.2918572 1.8446695 -0.22529849 0
-2.1199999 1.878 -0.234 0
-2.0031903 1.8458073 -0.21228744 0
-1.9373844 1.8797067 -0.21870229 0
-1.8621191 1.8327581 -0.21991085 0
-1.7543938 1.8300717 -0.22431259 0
-1.6564981 1.8485055 -0.21990743 0
-1.5501823 1.8610933 -0.21537121 0
-1.454957 1.8357372 -0.21117255 0
-1.3376671 1.8642048 -0.2068743 0
-5.5789757 1.9377559 -0.2131675 0
-5.4959807 1.9060047 -0.227134 0
-2.4295716 1.9560084 -0.20389546 0
-2.3607144 1.900339 -0.21459697 0
-2.2506313 1.9932774 -0.21182188 0
-2.1853156 1.9356388 -0.22291094 0
-2.0425265 1.9287144 -0.20353164 0
-1.96223 1.9494716 -0.21760347 0
-1.8353386 1.9500055 -0.21816634 0
-1.6583489 1.9419637 -0.21847141 0
-1.5706024 1.9712203 -0.21770188 0
-1.4583945 1.9481236 -0.2121418 0
-1.3357258 1.9606535 -0.20595205 0
-1.2632679 1.903561 -0.20109925 0
-2.3159471 2.0509162 -0.20073283 0
-1.9276773 2.046011 -0.21233267 0
-1.7550935 2.0517817 -0.21082838 0
-1.6551623 2.0346053 -0.21403326 0
-1.5712757 2.0782003 -0.20936227 0
-1.4592774 2.0334196 -0.21315093 0
-1.379591 2.077431 -0.20380443 0
-1.1859654 2.0770955 -0.20022944 0
-3.7138679 2.1772399 -0.23354305 0
-3.6370001 2.1300001 -0.244 0
-3.5632355 2.196198 -0.23246665 0
-3.49 2.1559999 -0.23800001 0
-3.3069999 2.188 -0.25400001 0
-2.0507956 2.1740184 -0.20455444 0
-1.9892364 2.1100147 -0.20844355 0
-1.8421633 2.1506181 -0.20394966 0
-1.7290224 2.1562068 -0.20481026 0
-1.653837 2.1320627 -0.20650968 0
-1.2312872 2.1537938 -0.20197257 0
-3.8676033 2.2717192 -0.21262915 0
-3.750221 2.2505369 -0.22224304 0
-3.636471 2.2363963 -0.2269333 0
-3.4543731 2.2888451 -0.23575772 0
-3.3461757 2.2517862 -0.23343951 0
-3.24 2.22 -0.227 0
-2.9920001 2.266 -0.21600001 0
-2.1123545 2.2380221 -0.20066532 0
-1.2766091 2.2304924 -0.20371573 0
-3.9369421 2.3580739 -0.20348606 0
-3.8561776 2.3569908 -0.21033326 0
-3.7829421 2.3167927 -0.21586661 0
-3.6017461 2.3896899 -0.21751542 0
-3.5280597 2.3392675 -0.22663657 0
-3.4549937 2.3554504 -0.21200044 0
-3.3833292 2.3103004 -0.21700029 0
-3.1370587 2.3711572 -0.21163577 0
-3.0645294 2.3185785 -0.21381789 0
-1.3445919 2.34554 -0.20633045 0
-3.9400001 2.4030001 -0.204 0
-3.6754327 2.4401126 -0.20839429 0
-3.5624905 2.4231758 -0.20450068 0
-3.2458527 2.4500251 -0.20836261 0
-1.4125745 2.4605877 -0.20894517 0
-3.427176 2.5814714 -0.20290731 0
-3.3546467 2.5288928 -0.20508943 0
-1.4619482 2.5441432 -0.21084416 0
-3.4997053 2.6340499 -0.2007252 0
-0.93300003 -2.8069999 -0.142 0
-0.89600003 -2.816 -0.13 0
-0.727 -2.8280001 -0.134 0
-3.6670001 -2.7249999 -0.117 0
-1.126739 -2.741039 -0.14536025 0
-0.96338367 -2.7603056 -0.14021699 0
-0.86944985 -2.7409317 -0.13754725 0
-0.71622318 -2.7850537 -0.13769951 0
-0.69568598 -2.7032113 -0.14474958 0
-3.6063178 -2.678328 -0.12978444 0
-3.5360603 -2.6242914 -0.14458618 0
-1.0803986 -2.6227317 -0.15860042 0
-0.95058239 -2.6555891 -0.14931464 0
-0.8642925 -2.6628923 -0.15017529 0
-0.74547362 -2.6698291 -0.11108802 0
-0.67514879 -2.6213691 -0.15179968 0
-3.8169999 -2.572 -0.116 0
-3.7496233 -2.5246179 -0.12851761 0
-3.4658027 -2.570255 -0.1593879 0
-3.395545 -2.5162187 -0.17418963 0
-1.0493188 -2.5433855 -0.16748032 0
-0.92346591 -2.5752711 -0.15845171 0
-0.83666468 -2.5560443 -0.16163905 0
-0.71443152 -2.5471804 -0.13236162 0
-0.65461159 -2.5395267 -0.15884976 0
-3.6394296 -2.4471252 -0.14898996 0
-3.3252876 -2.462182 -0.18899137 0
-1.0182391 -2.4640391 -0.17636025 0
-0.85846657 -2.4440863 -0.17360193 0
-0.77002072 -2.459805 -0.16581136 0
-0.65873194 -2.4411082 -0.15976752 0
-0.43440202 -2.4573143 -0.10415772 0
-3.5292363 -2.3696325 -0.16946232 0
-3.4557738 -2.3179708 -0.18311056 0
-0.97161961 -2.3450196 -0.18968013 0
-0.84211648 -2.3343177 -0.18586293 0
-0.75565851 -2.3405786 -0.18083507 0
-0.638116 -2.359304 -0.17038377 0
-0.41870099 -2.3741572 -0.11607887 0
-0.22863211 -2.3345149 -0.10494089 0
-3.3823116 -2.2663088 -0.19675881 0
-0.815 -2.2539999 -0.19499999 0
-0.75800002 -2.2609999 -0.191 0
-0.67050004 -2.26 -0.184 0
-0.59299999 -2.2939999 -0.18000001 0
-0.403 -2.2909999 -0.12800001 0
-0.39980337 -2.269356 -0.12780021 0
-0.22056606 -2.2472572 -0.11297045 0
-0.18191037 -2.2319171 -0.10593434 0
-0.3830021 -2.1555974 -0.12675014 0
-0.24779657 -2.1517169 -0.12267852 0
-0.16363126 -2.1432025 -0.11990538 0
-0.36620083 -2.0418389 -0.12570006 0
-0.24351922 -2.0408487 -0.12357497 0
-0.14333192 -2.0450692 -0.12040381 0
-0.076067083 -2.0568535 -0.11915245 0
-0.35499999 -1.966 -0.12499999 0
-0.22361615 -1.9514698 -0.123 0
-0.16097184 -1.9411987 -0.12144848 0
-0.07984025 -1.936112 -0.11969146 0
-0.21430808 -1.8747349 -0.123 0
-0.1445 -1.842 -0.122 0
-0.036163993 -1.83175 -0.10826433 0
0.19513388 -1.8379924 -0.10655901 0
0.3348015 -1.8294626 -0.10629493 0
0.40470594 -1.8639023 -0.10409802 0
0.53500003 -1.841 -0.102 0
1.0553652 -1.8066037 -0.1015076 0
-0.205 -1.798 -0.123 0
0.191 -1.795 -0.114 0
0.34915239 -1.7520497 -0.10650299 0
0.52708811 -1.7383165 -0.10377917 0
0.64539647 -1.7168832 -0.10300718 0
0.75949734 -1.7326252 -0.10461581 0
0.85922962 -1.7366323 -0.10782305 0
0.91189742 -1.7425779 -0.10499267 0
1.0545304 -1.743434 -0.11060385 0
1.2262399 -1.7150564 -0.10359299 0
0.29899999 -1.681 -0.114 0
0.45284694 -1.6643468 -0.10380072 0
0.56793875 -1.628739 -0.10444081 0
0.65856904 -1.6525143 -0.10283804 0
0.73778164 -1.6498268 -0.10865986 0
0.84704232 -1.6670702 -0.11560524 0
0.97068256 -1.6648018 -0.1247538 0
1.0091621 -1.6413139 -0.12676595 0
1.1433975 -1.6517397 -0.11369634 0
1.2666745 -1.6100942 -0.10581958 0
1.556376 -1.6509299 -0.10396834 0
1.7495 -1.6235 -0.1105 0
1.8524922 -1.6529711 -0.1027454 0
1.978 -1.636 -0.118 0
2.066484 -1.6691134 -0.10757849 0
2.1492753 -1.6479177 -0.11206803 0
2.25 -1.641 -0.118 0
0.38992345 -1.5594234 -0.10790037 0
0.4286716 -1.5657984 -0.1006642 0
0.5467844 -1.5571694 -0.1068987 0
0.66293901 -1.5411115 -0.11190835 0
0.74724591 -1.5442395 -0.11707466 0
0.84031004 -1.5617895 -0.12425605 0
0.94671118 -1.582279 -0.13737994 0
1.0645195 -1.5247791 -0.12970641 0
1.136472 -1.5621169 -0.1146779 0
1.2363455 -1.52514 -0.11033367 0
1.3434918 -1.5524392 -0.10403561 0
1.4459959 -1.5603609 -0.11176483 0
1.5226398 -1.5862731 -0.10484806 0
1.6425941 -1.5727448 -0.11577511 0
1.7405665 -1.5494063 -0.11527699 0
1.8539593 -1.5507133 -0.10634064 0
2.031812 -1.5732068 -0.11587709 0
2.149195 -1.5547963 -0.11679155 0
2.2434936 -1.5439396 -0.11292404 0
0.44749999 -1.4860001 -0.1125 0
0.5255 -1.49 -0.114 0
0.60799998 -1.498 -0.116 0
0.93949997 -1.4530001 -0.14950001 0
1.0354176 -1.4429251 -0.1333499 0
1.1407273 -1.4751254 -0.11562835 0
1.2528923 -1.4389763 -0.11722383 0
1.365319 -1.4488262 -0.12271354 0
1.4582804 -1.4576433 -0.11030141 0
1.5576531 -1.4479684 -0.11577517 0
1.6375775 -1.4812131 -0.11991112 0
1.7536354 -1.4507604 -0.12034334 0
1.8590603 -1.4428992 -0.10892352 0
1.9462137 -1.4562658 -0.11990775 0
2.0558774 -1.4439287 -0.12062728 0
2.144326 -1.4412279 -0.11814531 0
2.2389145 -1.4286106 -0.1068467 0
2.3473473 -1.4433534 -0.1044091 0
2.5627842 -1.4481281 -0.10333592 0
0.977 -1.3310001 -0.147 0
1.0385756 -1.3457085 -0.13554278 0
1.1439131 -1.3534657 -0.1296567 0
1.2495139 -1.3420417 -0.12576795 0
1.3415085 -1.3563465 -0.129437 0
1.4493537 -1.3650631 -0.12771101 0
1.5270022 -1.3532172 -0.12259103 0
1.6470766 -1.359058 -0.12713994 0
1.7365992 -1.3504304 -0.1237845 0
1.833643 -1.3561434 -0.12115774 0
1.9421301 -1.3424902 -0.12248573 0
2.0478213 -1.3379521 -0.11816844 0
2.1686287 -1.3562592 -0.11588248 0
2.2701735 -1.3991767 -0.11070455 0
2.5050001 -1.364 -0.106 0
0.99400002 -1.258 -0.145 0
1.046643 -1.2366849 -0.14387384 0
1.1232706 -1.2620718 -0.13592423 0
1.2012627 -1.2535198 -0.13115549 0
1.3875 -1.2579999 -0.13249999 0
1.4710698 -1.2713892 -0.12928456 0
1.5538392 -1.2481499 -0.12815891 0
1.6404597 -1.2559475 -0.12620102 0
1.7479851 -1.2454268 -0.12546724 0
1.8510795 -1.2586595 -0.12277322 0
1.9519911 -1.2344999 -0.1197443 0
2.0535119 -1.2586088 -0.11788776 0
2.168313 -1.2602736 -0.11407656 0
1.0620829 -1.1499343 -0.14242902 0
1.1411313 -1.1912599 -0.13607775 0
1.4400219 -1.1776239 -0.13091706 0
1.5383576 -1.1426202 -0.12830742 0
1.6551293 -1.1305131 -0.12549134 0
1.7565502 -1.1534042 -0.12319238 0
1.8484799 -1.1482055 -0.12149525 0
1.9588039 -1.1267188 -0.11881714 0
2.0544748 -1.1479311 -0.11651873 0
2.1478102 -1.1520765 -0.11424159 0
2.2079999 -1.164 -0.113 0
2.4838469 -1.1348493 -0.10583732 0
2.516 -1.149 -0.105 0
1.046 -1.092 -0.14300001 0
1.4446665 -1.0566667 -0.12966667 0
1.5317366 -1.0655711 -0.12808073 0
1.61831 -1.0422112 -0.12485909 0
1.7251433 -1.0530444 -0.12402576 0
1.8370935 -1.0477813 -0.12155026 0
1.9490708 -1.0310069 -0.11866876 0
2.0400076 -1.0563624 -0.1166066 0
2.1326787 -1.0424844 -0.11406091 0
2.2385645 -1.0268996 -0.11222488 0
2.3203254 -1.0628828 -0.11009569 0
2.402086 -1.098866 -0.1079665 0
2.527 -1.0140001 -0.105 0
1.4809999 -0.93099999 -0.12899999 0
1.55681 -0.9777112 -0.12735908 0
1.6588794 -0.93500906 -0.12550648 0
1.7538629 -0.93952572 -0.12291579 0
1.8638216 -0.96403557 -0.1206613 0
1.9675919 -0.93419617 -0.1180328 0
2.0795574 -0.94922656 -0.11501952 0
2.1459019 -0.96495813 -0.11367703 0
2.3546066 -0.94681418 -0.1091046 0
2.4797277 -0.99557698 -0.10612552 0
1.5513368 -0.85265779 -0.12810031 0
1.6768146 -0.89425313 -0.12529601 0
1.7493695 -0.83396024 -0.12374023 0
1.8357158 -0.8561812 -0.12105644 0
1.9459512 -0.83518493 -0.11804865 0
2.0362198 -0.85164833 -0.11547423 0
2.1269217 -0.84467882 -0.1139259 0
2.2513468 -0.88244617 -0.11172538 0
2.3478677 -0.81861484 -0.10810298 0
2.4750414 -0.86173785 -0.10512357 0
2.523 -0.87800002 -0.104 0
1.4361739 -0.72785437 -0.13027239 0
1.5215 -0.74650002 -0.12800001 0
1.6420541 -0.77894038 -0.12511034 0
1.7372406 -0.73616576 -0.12173896 0
1.85786 -0.74697089 -0.11981988 0
1.9583061 -0.75549966 -0.11825682 0
2.0420682 -0.76366156 -0.11597446 0
2.1382539 -0.72438073 -0.11362899 0
2.2449787 -0.74588346 -0.11112455 0
2.3092213 -0.7577424 -0.11001738 0
1.188 -0.60900003 -0.13699999 0
1.2589068 -0.6429584 -0.13507782 0
1.3298136 -0.67691678 -0.13315566 0
1.538 -0.60399997 -0.127 0
1.6330559 -0.66225684 -0.1236123 0
1.7474684 -0.65166342 -0.12262733 0
1.8500354 -0.64125431 -0.12033968 0
1.958776 -0.65042251 -0.11728233 0
2.0432162 -0.64665383 -0.11564827 0
2.1208584 -0.6673941 -0.11406466 0
2.2067647 -0.68764049 -0.11187204 0
2.3243477 -0.60830975 -0.1090578 0
1.5470001 -0.52499998 -0.127 0
1.6587671 -0.52363229 -0.12264223 0
1.7567917 -0.56249535 -0.12152477 0
1.8603474 -0.55014038 -0.11889405 0
1.9495422 -0.54447073 -0.11741299 0
2.0548131 -0.54048741 -0.11524025 0
2.1349282 -0.54771459 -0.11367346 0
2.2407646 -0.55884761 -0.11153932 0
2.3452086 -0.53708863 -0.10914585 0
2.480511 -0.54806519 -0.10534132 0
2.5439999 -0.56199998 -0.104 0
1.536 -0.44199997 -0.125 0
1.6650387 -0.42420107 -0.12356198 0
1.7415844 -0.45084637 -0.12207521 0
1.8548182 -0.4541668 -0.11943535 0
1.9479498 -0.44858861 -0.11719814 0
2.0566025 -0.43591586 -0.11426012 0
2.152662 -0.44735768 -0.11219002 0
2.2392881 -0.465446 -0.11032835 0
2.3246539 -0.45880619 -0.1086872 0
1.552 -0.36899999 -0.126 0
1.6638136 -0.35162959 -0.12309799 0
1.754688 -0.35996631 -0.12092011 0
1.8455667 -0.36385277 -0.11893751 0
1.9538597 -0.35041827 -0.11677109 0
2.0749803 -0.34014356 -0.11369289 0
2.1646657 -0.33296403 -0.1125594 0
2.2517829 -0.34680018 -0.11080085 0
2.3411553 -0.3700746 -0.10903045 0
1.5439999 -0.25400001 -0.125 0
1.6539754 -0.24896479 -0.12307382 0
1.7359967 -0.24716973 -0.12121052 0
1.8361504 -0.26180819 -0.11906971 0
1.9626592 -0.25426555 -0.11599246 0
2.0707614 -0.24984072 -0.1136424 0
2.1624742 -0.25618744 -0.11171805 0
2.2492197 -0.26721868 -0.10983773 0
2.3340001 -0.278 -0.108 0
1.647 -0.155 -0.12266666 0
1.7548527 -0.13905017 -0.1199016 0
1.8593464 -0.15774216 -0.11783786 0
1.9447231 -0.14437093 -0.11578196 0
2.0502489 -0.12119599 -0.11325625 0
2.1478472 -0.15463328 -0.11146783 0
2.2349882 -0.1619055 -0.10971247 0
2.3199999 -0.169 -0.108 0
1.53 -0.07 -0.12499999 0
1.6552372 -0.040783353 -0.12249748 0
1.7655205 -0.046134505 -0.12000871 0
1.8591975 -0.050580699 -0.1175859 0
1.9604716 -0.031892933 -0.11475633 0
2.0417774 -0.026202202 -0.11280972 0
1.529 0.001 -0.125 0
1.638 0.037 -0.124 0
1.7190419 0.037378702 -0.12210649 0
1.8406049 0.037946753 -0.11926624 0
1.9621679 0.038514804 -0.11642598 0
2.054605 0.038946755 -0.11426624 0
1.592 0.19 -0.125 0
1.6528559 0.15723313 -0.12387116 0
1.7538046 0.12266308 -0.12181331 0
1.874609 0.12932615 -0.11862662 0
1.9551454 0.13376822 -0.11650216 0
2.042841 0.13860513 -0.11418885 0
1.4859999 0.28400001 -0.127 0
1.5516695 0.24679472 -0.12547064 0
1.6547836 0.26420489 -0.12384942 0
1.7567524 0.25006309 -0.12029132 0
1.8338041 0.23714474 -0.1180279 0
1.9564891 0.25172395 -0.11461504 0
2.0144999 0.25850001 -0.113 0
1.46 0.35100001 -0.127 0
1.5457271 0.35341966 -0.12529029 0
1.6343002 0.35277733 -0.12272205 0
1.7436606 0.36212853 -0.1200308 0
1.8520344 0.33790383 -0.11691453 0
1.9705745 0.35053658 -0.11319086 0
1.4285001 0.45249999 -0.127 0
1.5332072 0.44981581 -0.12616782 0
1.6364918 0.45732489 -0.12267461 0
1.7418067 0.44455251 -0.12000681 0
1.8539791 0.45681423 -0.11694574 0
1.960822 0.44779679 -0.11286545 0
1.4806752 0.52817947 -0.12553993 0
1.5577613 0.55638695 -0.12434275 0
1.6485122 0.54187101 -0.12271971 0
1.7471869 0.5607959 -0.11978967 0
1.8471729 0.54029393 -0.11676634 0
1.958033 0.53999925 -0.11391002 0
2.0545454 0.53315651 -0.1139276 0
2.1419697 0.55418259 -0.11191554 0
2.229394 0.57520866 -0.10990347 0
2.3168182 0.5962348 -0.10789141 0
1.4621999 0.64499998 -0.12680002 0
1.5634756 0.66079521 -0.12439229 0
1.6575794 0.63178349 -0.12162384 0
1.7481847 0.67208606 -0.11949243 0
1.8595983 0.64658183 -0.11642057 0
1.9560776 0.64658248 -0.11399683 0
2.0486398 0.6716485 -0.11069431 0
2.3989999 0.616 -0.106 0
1.3559155 0.76103592 -0.1286778 0
1.4598513 0.75528073 -0.12684527 0
1.5466605 0.7573964 -0.12477358 0
1.6559464 0.75049847 -0.12177058 0
1.7372049 0.74839008 -0.11999723 0
1.8425982 0.75326842 -0.1175196 0
1.9570591 0.75510991 -0.11456056 0
2.023 0.76899999 -0.111 0
1.28 0.81300002 -0.131 0
1.3296937 0.86807948 -0.12956259 0
1.4434048 0.8516593 -0.12699893 0
1.5377245 0.85168678 -0.12399223 0
1.6307899 0.84395599 -0.12274408 0
1.7551922 0.84982049 -0.11945138 0
1.8637443 0.83089721 -0.11641815 0
1.9418592 0.84785938 -0.11454247 0
1.2510175 0.95631456 -0.13136972 0
1.3698518 0.95145643 -0.1288023 0
1.4573258 0.9475401 -0.12640341 0
1.5479854 0.95344925 -0.12400803 0
1.6482152 0.94281572 -0.12127668 0
1.7535505 0.95807409 -0.11849288 0
1.8551148 0.94344819 -0.11697966 0
1.915327 0.96696097 -0.11511817 0
1.171 1.002 -0.133 0
1.2563392 1.0419159 -0.13086779 0
1.3272761 1.0542217 -0.12905458 0
1.4279315 1.069334 -0.12674017 0
1.5464329 1.051052 -0.12429968 0
1.6509163 1.052565 -0.12098196 0
1.7516239 1.0554266 -0.11851572 0
1.8535967 1.0626571 -0.11536147 0
1.9385433 1.0315298 -0.11548387 0
2.0217588 1.0401094 -0.1136048 0
2.1441805 1.0690713 -0.11062382 0
2.277 1.071 -0.108 0
-1.1356666 1.1563333 -0.19933333 0
0.64700001 1.169 -0.14399999 0
0.77700001 1.196 -0.14300001 0
0.83472604 1.1573207 -0.14137194 0
1.2865762 1.141584 -0.12952822 0
1.3741642 1.1374645 -0.1274976 0
1.4603313 1.1514332 -0.12542096 0
1.5530969 1.1660655 -0.12330497 0
1.6450325 1.1615305 -0.12147433 0
1.7428982 1.1580551 -0.1189061 0
1.82788 1.1606385 -0.11597957 0
2.0998416 1.1139668 -0.11190783 0
2.1804905 1.1551853 -0.11011981 0
2.2420001 1.153 -0.1085 0
2.3589394 1.1091425 -0.10550828 0
2.4408789 1.1472851 -0.10301656 0
2.5228183 1.1854277 -0.10052483 0
-1.0710001 1.2305 -0.19749999 0
0.56 1.29 -0.147 0
0.64604741 1.2605734 -0.1447212 0
0.73199999 1.2539999 -0.14300001 0
0.85619891 1.2451134 -0.14058587 0
0.96617812 1.2674621 -0.1376158 0
1.2165 1.27 -0.13 0
1.3637282 1.2402362 -0.12825568 0
1.4562556 1.2372892 -0.12462236 0
1.5340132 1.2549398 -0.12367635 0
1.6478373 1.2643956 -0.12042263 0
1.7270563 1.2520599 -0.12018033 0
1.8271914 1.2461463 -0.11767161 0
-1.1156507 1.3121234 -0.19931781 0
-1.0296192 1.3364015 -0.19706814 0
-0.93000001 1.37 -0.19350001 0
0.59209931 1.3570232 -0.14597282 0
0.67715448 1.3658457 -0.1440098 0
0.74954695 1.3196945 -0.14215454 0
0.86109912 1.3488272 -0.13985081 0
0.9325 1.3175 -0.138 0
1.0514703 1.311138 -0.13569596 0
1.1374702 1.3776379 -0.13269597 0
1.2784326 1.3327301 -0.12875634 0
1.354058 1.3766096 -0.12734433 0
1.4800421 1.3341651 -0.1258693 0
1.5682396 1.3448519 -0.12155677 0
1.6545078 1.3389881 -0.12070284 0
1.7585814 1.3485848 -0.11914214 0
1.8397098 1.3699557 -0.11691331 0
-0.96472782 1.4575567 -0.19462951 0
-0.85233331 1.433 -0.19133334 0
-0.78500003 1.477 -0.189 0
0.44600233 1.4470615 -0.14933334 0
0.588 1.45 -0.146 0
0.64024818 1.4575583 -0.14443207 0
0.74424511 1.4469506 -0.14217013 0
0.8271299 1.4550946 -0.14031741 0
0.97126949 1.4038038 -0.13706662 0
1.0235389 1.4766077 -0.13613322 0
1.1452054 1.4562069 -0.13254395 0
1.224602 1.4410362 -0.12990463 0
1.3573408 1.4461381 -0.1271013 0
1.416587 1.4384142 -0.12601648 0
1.5598524 1.4358461 -0.12442186 0
1.6337489 1.4400547 -0.12242899 0
1.7443364 1.4557184 -0.11936289 0
1.8161739 1.4466586 -0.11813091 0
1.94549 1.411696 -0.11488853 0
2.0183012 1.464908 -0.1131246 0
-1.1000366 1.5768926 -0.19986792 0
-1.0314314 1.5176634 -0.19661301 0
-0.96218574 1.5721197 -0.19377412 0
-0.86315966 1.5323138 -0.19097291 0
-0.7352792 1.5562772 -0.18656245 0
-0.64499998 1.5546666 -0.18300001 0
-0.57200003 1.587 -0.17900001 0
0.27599999 1.58 -0.152 0
0.3376492 1.5665163 -0.15220639 0
0.44960439 1.5466371 -0.15001984 0
0.52654493 1.5562192 -0.14787333 0
0.65196311 1.5404165 -0.14421232 0
0.74800003 1.5 -0.142 0
0.85732478 1.5704867 -0.1397935 0
1.0758084 1.5494117 -0.13519984 0
1.1774104 1.5301044 -0.13111405 0
1.2548143 1.5551307 -0.13032529 0
1.3418059 1.5751088 -0.1277139 0
1.4642308 1.52092 -0.12502536 0
1.5416451 1.5620236 -0.12336082 0
1.6574697 1.5237947 -0.12256248 0
1.7460983 1.5710518 -0.12036175 0
1.848056 1.5090383 -0.11793533 0
1.9608757 1.5698363 -0.1164795 0
2.0911124 1.5181199 -0.11136067 0
2.1059999 1.529 -0.111 0
-7.1280794 1.6986698 -0.17498 0
-7.0407715 1.6816027 -0.189482 0
-1.1140102 1.6804634 -0.19762814 0
-1.0462567 1.6205592 -0.19589889 0
-0.95021939 1.653193 -0.1930093 0
-0.86974752 1.6325607 -0.19082743 0
-0.74960655 1.654426 -0.18668646 0
-0.65709245 1.6361319 -0.18281171 0
-0.55545437 1.6637144 -0.17881414 0
-0.45833334 1.6279999 -0.17433333 0
-0.34033334 1.6480001 -0.16733335 0
0.24854144 1.6506674 -0.15324999 0
0.35171655 1.6669946 -0.15149553 0
0.44800001 1.64 -0.15099999 0
0.55985415 1.6585295 -0.14716208 0
0.66531557 1.6495821 -0.14456157 0
0.89938974 1.650784 -0.13895221 0
1.1542125 1.6586175 -0.13379978 0
1.2842312 1.6683134 -0.12934214 0
1.3388216 1.6618278 -0.12917584 0
1.4004079 1.642145 -0.12661855 0
1.5413498 1.637104 -0.12362287 0
1.6354387 1.6547308 -0.12136906 0
1.7898133 1.6430297 -0.12004165 0
1.8375983 1.6194875 -0.11788639 0
1.9055481 1.6792984 -0.11637219 0
2.05932 1.648798 -0.11454417 0
-7.1399999 1.701 -0.17299999 0
-1.276 1.732 -0.2 0
-1.143761 1.769932 -0.19783148 0
-1.0489143 1.731493 -0.19503216 0
-0.95443374 1.7545518 -0.19280726 0
-0.82667512 1.7376629 -0.18937463 0
-0.7295534 1.7572598 -0.18497176 0
-0.64758551 1.7277335 -0.18180142 0
-0.5679388 1.7643485 -0.17897499 0
-0.47142476 1.746289 -0.17430526 0
-0.36162651 1.7396181 -0.16789646 0
-0.25284079 1.7414801 -0.16503438 0
-0.1602488 1.7503371 -0.16256057 0
0.25471058 1.752264 -0.1531577 0
0.33225003 1.7597499 -0.15125 0
0.44118202 1.7480841 -0.14962488 0
0.56269753 1.7326095 -0.14767516 0
0.61053932 1.7496314 -0.14547989 0
0.73285246 1.7821658 -0.14284927 0
0.88599998 1.758 -0.139 0
0.94145465 1.7310812 -0.13811091 0
1.0335023 1.7381451 -0.13558045 0
1.2326167 1.7678232 -0.13239969 0
1.3669668 1.7346919 -0.12816399 0
1.4590099 1.7091813 -0.12552318 0
1.5176119 1.7762176 -0.12442782 0
1.6640224 1.7644145 -0.12130392 0
1.738116 1.7562189 -0.11918866 0
1.9734979 1.7391094 -0.11485799 0
2.0120001 1.773 -0.114 0
-6.0032911 1.8870897 -0.19996288 0
-1.2135153 1.8291951 -0.19994222 0
-1.1495574 1.8743591 -0.19732235 0
-1.0629147 1.8322972 -0.19457133 0
-0.97643435 1.8744509 -0.19278429 0
-0.85709864 1.8418492 -0.18984556 0
-0.74886984 1.8570274 -0.18524684 0
-0.6496737 1.8458716 -0.18170941 0
-0.54325932 1.8526218 -0.176743 0
-0.44517413 1.8473921 -0.17183197 0
-0.3440814 1.8622656 -0.16609681 0
-0.25217921 1.8671347 -0.16368991 0
-0.13562642 1.8465254 -0.16095595 0
0.25133333 1.8346666 -0.15266667 0
0.3568784 1.8636978 -0.15067345 0
0.4626115 1.8342776 -0.14919177 0
0.54804611 1.8601395 -0.14758736 0
0.65135956 1.8242543 -0.14398658 0
0.7664867 1.8626771 -0.14234066 0
0.95562947 1.823931 -0.13757977 0
1.0617969 1.8646281 -0.13537505 0
1.2848861 1.8406272 -0.13146631 0
1.3910521 1.8065224 -0.12757023 0
1.4491124 1.8388653 -0.12662604 0
1.5437231 1.8577478 -0.12429811 0
1.733 1.836 -0.12 0
-6.2749224 1.9614213 -0.15897349 0
-6.1756597 1.9342582 -0.17395228 0
-6.0894752 1.910674 -0.18695758 0
-5.6619706 1.9695071 -0.19920102 0
-2.1343808 1.9696147 -0.1965749 0
-1.2192631 1.9350488 -0.19842887 0
-1.1483502 1.9635119 -0.19358414 0
-1.0731972 1.9288899 -0.19575469 0
-0.95483994 1.9346682 -0.19029772 0
-0.8519665 1.9329978 -0.18807963 0
-0.73064882 1.9513412 -0.18415131 0
-0.64094263 1.9311329 -0.18218094 0
-0.54153836 1.9306648 -0.17632961 0
-0.43152934 1.9257534 -0.17069861 0
-0.34493238 1.9553006 -0.16358151 0
-0.24336652 1.9452791 -0.16163531 0
-0.15002224 1.9331375 -0.16072769 0
0.2439893 1.9209188 -0.15272558 0
0.32352471 1.9335161 -0.15165305 0
0.42853454 1.9544995 -0.14892541 0
0.55207694 1.9647217 -0.1471501 0
0.66623509 1.9442791 -0.14450236 0
0.75215161 1.956044 -0.14228338 0
0.82668436 1.9573799 -0.14111631 0
0.96947879 1.9149668 -0.13677981 0
1.0394338 1.9827117 -0.13562837 0
1.1625165 1.9370155 -0.13306309 0
1.3632903 1.9498329 -0.13006625 0
1.4978729 1.9447314 -0.12579831 0
1.5687028 1.9423796 -0.12395974 0
1.6464111 1.9605389 -0.12212627 0
1.701 1.9859999 -0.121 0
-5.9504781 2.0798802 -0.15065075 0
-5.827961 2.0330095 -0.17126802 0
-5.744966 2.0012584 -0.18523452 0
-2.567286 2.0673473 -0.18249243 0
-2.4984288 2.011678 -0.19319394 0
-2.2655711 2.0934219 -0.18086234 0
-2.1722107 2.053524 -0.18788607 0
-2.0536804 2.0339956 -0.19424456 0
-1.3153834 2.0860314 -0.19998999 0
-1.2326727 2.0388317 -0.19507807 0
-1.1460012 2.0576751 -0.19761585 0
-1.060488 2.0315676 -0.19029346 0
-0.93573207 2.0739825 -0.18263716 0
-0.86488432 2.0457802 -0.18246934 0
-0.73981816 2.0408635 -0.17745547 0
-0.62402755 2.0283971 -0.17674519 0
-0.54790282 2.0353341 -0.1729131 0
-0.45931771 2.0356162 -0.16614468 0
-0.35062528 2.0543897 -0.16194277 0
-0.24632327 2.0351381 -0.15875299 0
-0.15110479 2.0452254 -0.1550525 0
0.2569786 2.0108376 -0.15245116 0
0.3389408 2.0222247 -0.15140337 0
0.44705182 2.0409992 -0.14863813 0
0.57710791 2.0486913 -0.14642555 0
0.67209262 2.0778284 -0.14502545 0
0.73901421 2.0620542 -0.14252773 0
0.82588267 2.0329046 -0.14151031 0
0.97399998 2.017 -0.138 0
1.0644882 2.0553019 -0.1354496 0
1.217 2.0209999 -0.132 0
1.423 2.033 -0.12899999 0
1.546 2.007 -0.125 0
-2.7050004 2.1786864 -0.16108942 0
-2.6361432 2.1230168 -0.17179093 0
-2.4465787 2.1661937 -0.17855473 0
-2.3562145 2.1319404 -0.18132491 0
-2.2085347 2.1384356 -0.17926425 0
-2.1520069 2.1830516 -0.17796943 0
-2.0895057 2.1192098 -0.18580785 0
-1.5962659 2.159739 -0.19993937 0
-1.4373326 2.159646 -0.19906674 0
-1.3118615 2.189796 -0.19487172 0
-1.2536141 2.1287873 -0.19685774 0
-1.156 2.158 -0.197 0
-1.0810399 2.1210091 -0.18178634 0
-0.94618338 2.161767 -0.17794722 0
-0.80690932 2.187377 -0.17292137 0
-0.77063632 2.125227 -0.17141095 0
-0.64539194 2.1477008 -0.16783965 0
-0.55639803 2.1436551 -0.15985349 0
-0.4472332 2.1623158 -0.15509155 0
-0.33734867 2.153064 -0.15623948 0
-0.24448752 2.1475616 -0.15113103 0
-0.15798929 2.1643448 -0.14892763 0
0.27646255 2.145716 -0.15203953 0
0.35172439 2.1396906 -0.15102936 0
0.46556908 2.1274991 -0.14835082 0
0.58818388 2.1570086 -0.14649868 0
0.6527757 2.154177 -0.14449024 0
0.76915562 2.1425626 -0.14204596 0
0.88268852 2.1404281 -0.14048305 0
1.0713437 2.1599822 -0.13496354 0
1.156471 2.1375787 -0.13297546 0
-2.8427148 2.2900252 -0.13968639 0
-2.7738576 2.2343557 -0.1503879 0
-2.5445523 2.2526517 -0.16192114 0
-2.4623568 2.2791331 -0.1572935 0
-2.3667371 2.2407384 -0.16441771 0
-2.243566 2.2241178 -0.17080298 0
-1.9292334 2.2494543 -0.19707096 0
-1.8236495 2.234421 -0.19913304 0
-1.7326028 2.281302 -0.19094905 0
-1.6493989 2.2276087 -0.19290906 0
-1.5359979 2.298938 -0.18920022 0
-1.4866652 2.2292919 -0.19413348 0
-1.357723 2.2615919 -0.18974343 0
-1.2997973 2.2243056 -0.18356194 0
-1.1619682 2.2385671 -0.17986095 0
-1.0114641 2.2359648 -0.17527433 0
-0.95469153 2.2504144 -0.1732516 0
-0.83887911 2.2708361 -0.16922849 0
-0.76059651 2.2595551 -0.16236776 0
-0.66049367 2.2468472 -0.15805252 0
-0.54574555 2.264277 -0.15199988 0
-0.45984501 2.2471499 -0.15246034 0
-0.3558735 2.2495453 -0.14849761 0
-0.25581858 2.2549274 -0.14280079 0
-0.1647383 2.2543721 -0.14395469 0
0.29594648 2.2805943 -0.1516279 0
0.37658036 2.2440424 -0.15075162 0
0.43500054 2.2587972 -0.14927 0
0.51822281 2.2442055 -0.14836177 0
0.64051878 2.2575161 -0.14462698 0
0.76538634 2.2555807 -0.14279641 0
0.86268842 2.2334352 -0.14032388 0
0.95388198 2.241545 -0.13956982 0
1.0849853 2.2458215 -0.13571635 0
1.1364363 2.2289002 -0.13233945 0
1.2159421 2.2471573 -0.13095091 0
-4.0213389 2.3661988 -0.19171526 0
-3.6110001 2.3269999 -0.104 0
-2.9309988 2.3583043 -0.12208743 0
-2.8499613 2.3309939 -0.13245194 0
-2.76 2.329 -0.138 0
-2.6492629 2.3450551 -0.14414379 0
-2.5464759 2.3585184 -0.14721861 0
-2.4465644 2.372071 -0.15033448 0
-2.3395104 2.3745775 -0.15445413 0
-2.2562408 2.3383825 -0.17758983 0
-2.1739137 2.3020258 -0.19677621 0
-2.0453267 2.3812361 -0.18789932 0
-1.9616272 2.3414884 -0.19084235 0
-1.8484521 2.3178415 -0.19247027 0
-1.7556648 2.363348 -0.17884843 0
-1.5853304 2.3685839 -0.18426695 0
-1.4035846 2.3333879 -0.18461515 0
-1.3659966 2.3433819 -0.18095241 0
-1.2440013 2.3544629 -0.17056386 0
-1.0682632 2.3574517 -0.1697522 0
-0.99061441 2.332268 -0.1695645 0
-0.84017164 2.3464556 -0.16731696 0
-0.73398137 2.3600216 -0.15179962 0
-0.64866734 2.3556101 -0.15160552 0
-0.55976605 2.3735068 -0.14654057 0
-0.45322916 2.3405542 -0.14100389 0
-0.34965771 2.346513 -0.13976896 0
-0.24335146 2.3611836 -0.13497651 0
-0.16057162 2.353184 -0.14076096 0
0.3413125 2.3726611 -0.1507623 0
0.4523789 2.3464952 -0.14894345 0
0.54746532 2.3735342 -0.14818771 0
0.66554976 2.341486 -0.14390242 0
0.75413889 2.3367426 -0.14303817 0
0.85979885 2.3591497 -0.14041942 0
0.94476855 2.3562155 -0.13915038 0
1.0083953 2.3633299 -0.13890705 0
1.1530439 2.3426158 -0.13345948 0
1.2569138 2.3664463 -0.129324 0
-4.1750741 2.4606781 -0.17080136 0
-4.0982065 2.4134383 -0.18125831 0
-3.7491193 2.490535 -0.19927314 0
-3.6699872 2.490901 -0.19700089 0
-3.0019975 2.4126084 -0.10717486 0
-2.8997686 2.4409633 -0.10871161 0
-2.3829999 2.4189999 -0.149 0
-2.2969999 2.4300001 -0.189 0
-2.1116867 2.4565635 -0.18265676 0
-2.04 2.4909999 -0.18000001 0
-1.959033 2.4519782 -0.18225837 0
-1.8474131 2.4441643 -0.17404498 0
-1.634663 2.43823 -0.1793337 0
-1.4589833 2.4482071 -0.17739612 0
-1.3271391 2.4686966 -0.15389512 0
-1.2477598 2.4383547 -0.16816813 0
-1.1285311 2.4794693 -0.18211503 0
-1.0444987 2.4550486 -0.16403386 0
-0.93940932 2.4353771 -0.17792137 0
-0.86306292 2.4445705 -0.15096219 0
-0.74544126 2.4462729 -0.14931273 0
-0.65137976 2.451972 -0.1438542 0
-0.5549199 2.4531898 -0.13604473 0
-0.44135302 2.4367857 -0.14027202 0
-0.35188591 2.4377222 -0.12974362 0
-0.24713425 2.4601574 -0.12688515 0
-0.17392698 2.4573407 -0.13759086 0
0.35461459 2.4620214 -0.15047269 0
0.46975726 2.4341929 -0.14861691 0
0.53963816 2.4734981 -0.14720163 0
0.66213793 2.4297564 -0.144124 0
0.75709331 2.4446113 -0.14212087 0
0.85922945 2.4704161 -0.14108086 0
0.94900256 2.4768832 -0.13875884 0
1.0233688 2.4712601 -0.13823259 0
1.1959705 2.474643 -0.1334327 0
1.2618272 2.4646749 -0.1290046 0
1.332 2.461 -0.127 0
-4.3288097 2.5551577 -0.14988746 0
-4.2519417 2.5079179 -0.16034441 0
-3.8596492 2.5661688 -0.18559141 0
-3.7130001 2.5179999 -0.19400001 0
-1.96 2.5120001 -0.177 0
-1.883 2.526 -0.162 0
-1.728 2.5699999 -0.17 0
-1.6839956 2.5078759 -0.17440045 0
-1.541169 2.5487759 -0.1692303 0
-1.4763287 2.5418425 -0.17660323 0
-1.3505218 2.5716989 -0.15223897 0
-1.2894398 2.5176911 -0.16476357 0
-1.1642283 2.5503502 -0.17548454 0
-1.0435885 2.5515203 -0.17202944 0
-0.92472696 2.5470443 -0.14118829 0
-0.86054152 2.5524533 -0.16386332 0
-0.73808962 2.5323079 -0.13145725 0
-0.65057397 2.5464454 -0.13626885 0
-0.56187403 2.5422018 -0.1209713 0
-0.44929522 2.5443816 -0.13135251 0
-0.36457002 2.5260608 -0.12275328 0
-0.25314182 2.5680044 -0.12390681 0
-0.16039203 2.5503914 -0.12752204 0
0.33491439 2.5503509 -0.15080462 0
0.43143716 2.5544753 -0.14990531 0
0.55199999 2.5314999 -0.147 0
1.0820398 2.5278549 -0.13801166 0
1.217 2.5179999 -0.133 0
-4.541111 2.6442313 -0.1276938 0
-4.4518924 2.6307991 -0.1331435 0
-4.026 2.6800001 -0.16500001 0
-3.9701791 2.6418025 -0.1719097 0
-3.5722346 2.6866286 -0.19854309 0
-1.548 2.6115 -0.17 0
-1.4127088 2.6240447 -0.1323427 0
-1.36 2.652 -0.15899999 0
-1.224345 2.667058 -0.16278215 0
-1.1666814 2.6306117 -0.1678285 0
-1.0563823 2.6437318 -0.1635851 0
-0.95831168 2.6555014 -0.14425747 0
-0.82641435 2.6574667 -0.12711823 0
-0.74944735 2.6235552 -0.13165525 0
-0.6324113 2.6346135 -0.12432905 0
-0.54233015 2.6335936 -0.13057029 0
-0.45385495 2.6496615 -0.12397401 0
-0.35268587 2.62958 -0.11320356 0
-0.25188887 2.6596689 -0.12103394 0
-0.16530517 2.6410189 -0.12288234 0
0.34790367 2.6402698 -0.1505302 0
0.45923552 2.6521225 -0.14977042 0
-3.667382 2.7556036 -0.19568047 0
-1.476886 2.7405558 -0.11617836 0
-1.152 2.7 -0.153 0
-1.0613922 2.7219918 -0.15148227 0
-0.95709473 2.7464113 -0.1345524 0
-0.85514516 2.7545633 -0.1471097 0
-0.756971 2.7353363 -0.13490535 0
-0.64418268 2.7420123 -0.11902872 0
-0.53903562 2.7753756 -0.14180905 0
-0.44855079 2.7544036 -0.11922236 0
-0.35759494 2.7127068 -0.10558017 0
-0.26474997 2.7432206 -0.12093973 0
-0.17021832 2.7316461 -0.11824262 0
0.36089295 2.7301886 -0.15025578 0
0.426 2.7160001 -0.149 0
-1.5410631 2.8570671 -0.10001404 0
-0.65750003 2.8175001 -0.1215 0
-0.55000001 2.835 -0.139 0
-0.46892586 2.8390951 -0.1199676 0
-0.27207044 2.8557866 -0.12316223 0
-0.15896508 2.8246043 -0.13077961 0
0.373 2.8139999 -0.15000001 0
-0.49447536 2.9286556 -0.12696825 0
-0.23199999 2.904 -0.124 0
-0.163 2.914 -0.12800001 0
-0.51318842 3.0571392 -0.11192063 0
2.2604949 3.6398721 -0.11579314 0
2.3369803 3.7504888 -0.11517257 0
2.3879704 3.8242331 -0.11475886 0
2.4389606 3.8979776 -0.11434515 0
2.4899507 3.9717219 -0.11393143 0
2.540941 4.0454664 -0.11351772 0
2.5919311 4.1192107 -0.11310401 0
2.6429214 4.192955 -0.11269029 0
2.6939116 4.2666998 -0.11227658 0
2.7279999 4.316 -0.112 0
-0.78500003 -2.826 -0.083999999 0
-0.51099998 -2.8629999 -0.046000004 0
-0.31112808 -2.8765521 -0.05372484 0
-0.23802792 -2.8604507 -0.03818408 0
-0.76616836 -2.751595 -0.096905634 0
-0.48935556 -2.7483644 -0.062433731 0
-0.30009913 -2.782341 -0.06289348 0
-0.22759911 -2.7563419 -0.041116603 0
-0.46580404 -2.6236289 -0.080315441 0
-0.25325999 -2.6606019 -0.064008132 0
-0.45010304 -2.5404716 -0.092236586 0
-0.23368514 -2.561799 -0.071939997 0
-0.23109889 -2.4465172 -0.094453812 0
-0.1966863 -2.4492102 -0.068270214 0
-0.18782075 -2.3188345 -0.090868697 0
2.3180001 -2.102 -0.017000005 0
2.566 -2.118 -0.023000002 0
2.677 -2.1059999 -0.024999999 0
1.439 -2.0009999 -0.054000001 0
1.513 -2.006 -0.054000001 0
1.6719999 -2.0250001 -0.013999999 0
1.7466621 -2.0303857 -0.032348711 0
1.8352185 -2.0287333 -0.042683493 0
1.9524899 -2.0327878 -0.030719835 0
2.0395756 -2.0382984 -0.027762195 0
2.1570656 -2.0673578 -0.017088465 0
2.2494082 -2.0398841 -0.029555365 0
2.3137522 -2.0981531 -0.017777562 0
2.4531679 -2.0255084 -0.04122965 0
2.5493712 -2.0549068 -0.034627855 0
2.6477797 -2.0832436 -0.029117405 0
2.957 -2.0090001 -0.034000002 0
4.1732769 -2.0368178 -0.0054611154 0
0.685 -1.902 -0.057999998 0
0.847 -1.92 -0.083999999 0
0.93149996 -1.9330001 -0.065499999 0
1.041694 -1.9328558 -0.056185175 0
1.1661335 -1.9415867 -0.078389816 0
1.2743175 -1.9466715 -0.053807102 0
1.3669338 -1.9327344 -0.071841598 0
1.4614193 -1.9714289 -0.044846237 0
1.54725 -1.912621 -0.05043748 0
1.646136 -1.9500281 -0.037518267 0
1.7459959 -1.9598776 -0.045822799 0
1.8685849 -1.9279125 -0.04736682 0
1.9471365 -1.9475487 -0.040672805 0
2.0358825 -1.9524847 -0.038030419 0
2.1622612 -1.9376535 -0.048481379 0
2.3513463 -1.9420424 -0.057680443 0
2.4375198 -1.9194957 -0.058744941 0
2.5076065 -1.9740783 -0.048869096 0
2.6953316 -1.9258382 -0.039089382 0
2.7609999 -1.972 -0.030000001 0
2.8514285 -1.9383187 -0.044814646 0
3.9293194 -1.9244545 -0.051615279 0
4.0512981 -1.9806361 -0.028538195 0
0.32180476 -1.8380995 -0.089505985 0
0.45919383 -1.8576934 -0.091601446 0
0.50467896 -1.8824959 -0.062660486 0
0.63753766 -1.8732779 -0.089594804 0
0.76099825 -1.8112501 -0.097243875 0
0.86178643 -1.8512561 -0.078403287 0
0.96408075 -1.8559825 -0.084521078 0
1.0546534 -1.8578658 -0.073643073 0
1.1554437 -1.8368979 -0.075728863 0
1.2217808 -1.854103 -0.068413556 0
1.3469968 -1.835339 -0.071021698 0
1.4506842 -1.866432 -0.064815581 0
1.5519667 -1.8569103 -0.048175257 0
1.6295086 -1.8472027 -0.057456393 0
1.7542636 -1.8654658 -0.068805799 0
1.8460346 -1.8460132 -0.054600492 0
1.971501 -1.8303533 -0.069194831 0
2.056376 -1.8650765 -0.064888775 0
2.1586661 -1.841076 -0.064884134 0
2.2606237 -1.8456355 -0.06754262 0
2.3674331 -1.864913 -0.068620786 0
2.5610278 -1.8149028 -0.043468565 0
2.6435573 -1.8477312 -0.042152435 0
2.7386241 -1.8627946 -0.056370229 0
3.286937 -1.8094195 -0.046152886 0
3.302 -1.818 -0.045000002 0
3.848 -1.887 -0.067000002 0
4.189569 -1.8302019 -0.015299927 0
4.2712116 -1.8682523 -0.0041249096 0
0.46174732 -1.7573762 -0.084017187 0
0.57980466 -1.7923079 -0.099584609 0
0.63583404 -1.7666023 -0.091480032 0
0.74860901 -1.7279323 -0.096941195 0
0.80933547 -1.7636279 -0.082364544 0
0.94028836 -1.7469097 -0.074789703 0
1.1598257 -1.7606274 -0.080520041 0
1.2756095 -1.7754278 -0.084481075 0
1.3509773 -1.7423615 -0.078820854 0
1.4598629 -1.7321634 -0.071801677 0
1.547219 -1.7506539 -0.076436915 0
1.6575284 -1.7319431 -0.081411898 0
1.7449105 -1.7596464 -0.070832655 0
1.8471508 -1.7736216 -0.070485085 0
1.9494845 -1.7379422 -0.086490795 0
2.0447497 -1.7499831 -0.075511545 0
2.1302712 -1.7401978 -0.08711195 0
2.2565823 -1.7473286 -0.068851829 0
2.303 -1.752 -0.046999998 0
2.4521317 -1.7391953 -0.061883904 0
2.5506165 -1.7369213 -0.075629532 0
2.6522326 -1.7437825 -0.048246369 0
2.7709603 -1.7328357 -0.0538412 0
2.8389835 -1.7413346 -0.058659118 0
2.9349747 -1.7355268 -0.065477379 0
3.0411072 -1.7528958 -0.06594722 0
3.1167748 -1.7546678 -0.059561156 0
3.2087433 -1.7648776 -0.052137598 0
3.9446423 -1.7160504 -0.048824981 0
4.0262847 -1.7541009 -0.037649963 0
4.1079268 -1.7921513 -0.026474945 0
0.4473432 -1.6435968 -0.091328397 0
0.58417803 -1.6401165 -0.096046031 0
0.76863158 -1.648823 -0.096289679 0
0.86021668 -1.6214356 -0.090033472 0
0.9283002 -1.6976136 -0.075200818 0
1.0580381 -1.6404787 -0.084826149 0
1.1632591 -1.6474808 -0.086934514 0
1.2495166 -1.6753806 -0.083507881 0
1.3429961 -1.6533448 -0.089885175 0
1.4463953 -1.6447875 -0.084352747 0
1.5922291 -1.6589092 -0.091403753 0
1.6391537 -1.6310142 -0.081506252 0
1.7319946 -1.6740692 -0.083682284 0
1.8505037 -1.6418803 -0.096284308 0
1.9379393 -1.6463355 -0.092698373 0
2.0596552 -1.6652114 -0.061007675 0
2.1471784 -1.6326821 -0.068248391 0
2.2394371 -1.6536276 -0.078906067 0
2.3485541 -1.6416187 -0.091961175 0
2.4378121 -1.6613973 -0.087185115 0
2.5451512 -1.6700153 -0.063172862 0
2.6580341 -1.6483893 -0.069823079 0
2.7332149 -1.6642369 -0.072931841 0
2.8532116 -1.6432902 -0.08096607 0
2.9741623 -1.6312517 -0.070091724 0
3.052356 -1.6757936 -0.064107016 0
3.8629999 -1.678 -0.059999999 0
0.84500003 -1.557 -0.093000002 0
0.98299998 -1.543 -0.1 0
1.024 -1.557 -0.090999998 0
1.1683666 -1.5532482 -0.09442164 0
1.283 -1.573 -0.098999999 0
1.3421378 -1.5758011 -0.097952917 0
1.551324 -1.5747836 -0.086480208 0
1.9402175 -1.5618961 -0.083710745 0
2.0431337 -1.5530115 -0.082436293 0
2.2994184 -1.5007329 -0.097426496 0
2.369628 -1.5490992 -0.087639749 0
2.4561586 -1.5714417 -0.080886796 0
2.5425541 -1.5666208 -0.084580563 0
2.6653163 -1.5336845 -0.095984921 0
2.7404745 -1.5775268 -0.089977384 0
2.8568716 -1.5644388 -0.079068795 0
1.9390892 -1.4733411 -0.096624196 0
2.3605502 -1.4751362 -0.095200375 0
2.4245207 -1.4875301 -0.098113649 0
2.6613874 -1.4530839 -0.094030574 0
2.7395811 -1.4976258 -0.088045865 0
3.362 0.27700001 -0.083999999 0
3.4485734 0.28299758 -0.078393586 0
3.535147 0.28899512 -0.072787181 0
3.6217203 0.29499269 -0.067180768 0
3.7515802 0.30398899 -0.058771148 0
3.8814406 0.31298536 -0.050361533 0
3.968014 0.3189829 -0.044755124 0
4.026 0.32300001 -0.041000001 0
3.2735 0.46249998 -0.085500002 0
3.3853333 0.43620571 -0.081487298 0
3.4726663 0.44541141 -0.077974588 0
3.5599995 0.45461714 -0.074461885 0
3.6473327 0.46382284 -0.070949174 0
3.7346659 0.47302857 -0.067436472 0
3.8219991 0.4822343 -0.063923761 0
3.909332 0.49144 -0.060411058 0
3.3370292 0.50910175 -0.082747966 0
3.4250586 0.52020353 -0.079495929 0
3.5130877 0.53130531 -0.076243892 0
3.6451316 0.54795802 -0.071365848 0
3.7771754 0.56461066 -0.066487789 0
3.8652046 0.57571244 -0.063235752 0
3.9749494 0.54372996 -0.058441035 0
4.0264997 0.55000001 -0.056500003 0
3.142 0.63499999 -0.086000003 0
3.2307823 0.64983022 -0.08351171 0
3.3195646 0.66466045 -0.081023417 0
3.452738 0.6869058 -0.077290967 0
3.5859118 0.70915115 -0.073558532 0
3.6746941 0.72398138 -0.071070239 0
3.7634764 0.73881161 -0.068581939 0
3.8522587 0.75364184 -0.066093646 0
3.941041 0.76847208 -0.063605353 0
4.0319118 0.78365111 -0.061058529 0
2.6457272 1.2426414 -0.096787244 0
2.7686365 1.2998554 -0.093049653 0
3.942507 1.2360559 -0.068135299 0
4.0700278 1.2782236 -0.050541185 0
2.8505759 1.3379979 -0.090557925 0
2.9325151 1.3761405 -0.088066205 0
4.1550422 1.3063354 -0.038811781 0
4.240056 1.3344471 -0.027082372 0
4.3250699 1.362559 -0.015352968 0
4.4100838 1.3906708 -0.0036235601 0
3.0554245 1.4333544 -0.084328614 0
3.132 1.469 -0.082000002 0
-3.685981 2.3746796 -0.088204294 0
-3.8359427 2.4700389 -0.056612879 0
-3.7609618 2.4223592 -0.072408587 0
-3.0729964 2.4669127 -0.092262298 0
-2.9696529 2.4969449 -0.09406741 0
-3.9484138 2.5415583 -0.032919317 0
-3.2149942 2.5755212 -0.062437162 0
-3.1439953 2.5212169 -0.07734973 0
-3.0395372 2.5529265 -0.079423219 0
-4.0608854 2.6130776 -0.0092257559 0
-3.3569918 2.6841297 -0.032612026 0
-3.2859929 2.6298254 -0.047524601 0
-3.1443636 2.636899 -0.057456929 0
-0.6853258 2.6267962 -0.099984191 0
-3.46349 2.7655859 -0.010243185 0
-3.3190746 2.7768528 -0.020846449 0
-3.2491903 2.7208712 -0.035490632 0
-0.84281087 2.7796173 -0.090843439 0
-0.70736653 2.7138958 -0.090607218 0
-0.5472846 2.7490768 -0.091156453 0
-0.35915241 2.7437217 -0.096745551 0
-0.25077718 2.7668517 -0.099449404 0
-3.3889589 2.8328345 -0.0062022507 0
-1.557 2.8859999 -0.096000001 0
-1.0143325 2.8593397 -0.096019089 0
-0.80373079 2.887569 -0.075935088 0
-0.76049143 2.8081048 -0.085924417 0
-0.64764881 2.8274393 -0.090158522 0
-0.53399998 2.8610001 -0.082000002 0
-0.44502634 2.8576515 -0.092562035 0
-0.35242584 2.8581657 -0.091444381 0
-0.26008576 2.8566129 -0.092610449 0
-0.19129786 2.8199425 -0.096426219 0
-1.5968505 2.9644556 -0.085018478 0
-0.82846165 2.971138 -0.061870165 0
-0.62003136 2.9323587 -0.078975387 0
-0.41262087 2.9666338 -0.082668498 0
-0.26499999 2.904 -0.089000002 0
-0.197 2.9100001 -0.090000004 0
-1.636701 3.0429111 -0.074036956 0
-0.85319245 3.0547071 -0.04780525 0
-0.6390627 3.0167177 -0.076950781 0
-0.42624176 3.0532675 -0.080336995 0
-1.7164019 3.1998224 -0.052073915 0
-1.6765515 3.1213667 -0.063055441 0
-0.87792325 3.1382761 -0.03374033 0
-0.66760969 3.1432557 -0.073913857 0
-0.53190148 3.1856227 -0.096873015 0
-0.43986264 3.1399012 -0.078005493 0
-1.7562524 3.2782781 -0.041092392 0
-1.2668426 3.2507024 -0.012824222 0
-0.90265405 3.2218451 -0.019675411 0
-0.69615674 3.269794 -0.070876941 0
-0.54437685 3.2712784 -0.08684127 0
-0.45348352 3.2265348 -0.07567399 0
-1.7961029 3.3567336 -0.030110873 0
-1.3007021 3.3299189 -0.027353518 0
-0.92738485 3.3054142 -0.0056104958 0
-0.71518803 3.3541527 -0.068852335 0
-0.55685228 3.3569341 -0.076809518 0
-0.47391486 3.3564856 -0.07217674 0
-1.8359534 3.4351892 -0.019129343 0
-1.3514915 3.4487433 -0.049147461 0
-0.73810971 3.4557557 -0.066413864 0
-0.56932765 3.4425898 -0.066777766 0
-0.49434617 3.4864361 -0.068679482 0
-1.8758038 3.5136449 -0.0081478208 0
-1.4022808 3.5675676 -0.070941404 0
-0.53232235 3.5560234 -0.063782655 0
-1.4361404 3.6467838 -0.085470706 0
-1.47 3.7260001 -0.1 0
-0.131 -2.911 0.059 0
-0.098999999 -2.908 0.071000002 0
-0.227 -2.895 0.0089999959 0
-0.12969944 -2.8764269 0.056507267 0
-0.097697094 -2.8741608 0.068864681 0
-0.12483528 -2.7471211 0.047184281 0
-0.094227389 -2.7840445 0.063178211 0
-0.11997111 -2.6178153 0.037861295 0
-0.089022815 -2.6488705 0.054648507 0
-0.11672833 -2.5316114 0.031645969 0
