# .PCD v0.7 - Point Cloud Data file format
VERSION 0.7
FIELDS x y z intensity
SIZE 4 4 4 4
TYPE F F F F
COUNT 1 1 1 1
WIDTH 106
HEIGHT 1
VIEWPOINT 0 0 0 1 0 0 0
POINTS 106
DATA ascii
-18.115046 6.9195948 17.093124 25
-16.651854 6.1034422 17.376272 27
-16.555387 7.7848797 17.585049 26
-15.343729 9.6906767 17.309641 26
-14.593627 9.229701 17.560272 27
-5.8413463 -1.3164719 5.6386771 26
-5.6508641 3.1492038 0.10719775 4
-5.5645647 -1.3480392 5.7211914 27
-3.5075731 1.0487818 0.52760482 8
-3.2899199 1.3500111 0.91667521 11
-3.0461166 -1.3920184 -0.030378416 3
-2.6748388 -1.4953923 0.25049439 6
-2.6227946 2.529144 3.2847819 25
-2.5382466 2.5573702 0.90489632 10.5
-2.4146037 -1.2824098 2.6640978 26.5
-2.2679892 1.5498968 0.18917294 5
-2.2216747 1.7320569 0.069092527 4
-2.2574689 2.6154685 0.13331147 4.5
-2.2546208 1.5355388 0.2927075 6.5
-2.2957613 2.606137 0.3382563 6
-2.3189254 2.5862114 0.44823438 7
-2.2759602 2.8976731 0.57805729 8
-2.3272316 1.4673083 0.65814894 10.5
-2.2319472 2.968847 1.4910743 15
-2.3411617 -1.3159217 2.9107993 28
-2.2603672 -1.2155834 3.004765 29
-2.3484764 2.8679445 3.4899659 26
-2.0460875 3.1877034 0.091200575 4
-2.008148 3.2419105 0.19021872 5
-2.0787683 1.7611382 0.28780195 6.5
-2.1982214 1.5503317 0.42328697 8
-2.0948339 1.6689829 0.66785455 10.5
-2.1591561 3.033324 0.89714092 10
-1.8635521 -1.3568336 2.2988117 27
-1.7264934 -2.2197692 0.28196985 6
-1.7285221 3.6072967 0.88137245 10
-1.6834249 -1.2955289 2.3730547 28.5
-1.5448767 3.8712671 0.47444469 6.5
-1.4324044 3.9751391 1.1385332 11
-1.3754061 4.0783176 0.19153452 5
-1.3798696 4.0657678 0.65753865 8
-1.3378768 4.1708994 1.7205178 15
-1.2939742 4.1611214 1.8895915 16
-1.2555743 -1.72902 2.2633023 28
-1.0542834 4.5230827 0.37264603 6
-1.0614096 4.4791951 0.51267183 7
-1.1812767 4.321743 1.3016266 12
-1.1884103 4.0568604 4.6028357 28
-0.95383489 4.5998964 1.0827281 10
-0.91690409 4.6520553 1.193738 11
-0.65304071 -1.6837753 1.8574244 27.5
-0.6125018 5.1233134 4.4027777 25
-0.65862799 4.7574458 4.6170154 26
-0.54905683 -2.258667 0.49412942 9.5
-0.41593337 -2.1381278 0.49222493 10
-0.47816426 5.2752538 3.0338328 19
-0.24566732 4.2928052 4.6169467 28
-0.17569935 -2.1607637 0.022012064 3.5
-0.065626174 -1.8705257 1.9656631 27.5
-0.19532244 5.5659714 2.3509641 15
0.28341281 -2.3619573 0.18930301 6
0.33802551 6.3214011 3.5160124 19
0.68180782 6.6851029 2.7821236 15
0.72011834 -3.4010203 3.7754252 28
0.6633178 -3.2060645 3.8865914 29
0.87977672 -3.1620598 3.5896425 28
1.1433308 4.1466947 4.3295979 27
1.3659983 -2.1635563 0.50916433 9.5
1.2093292 4.34166 4.2295132 26
1.7655416 -5.2125058 5.0868893 26
1.9470429 3.2510943 0.29279926 6
1.9882474 -5.0325117 4.911067 25
2.0012054 3.2201037 0.18584746 5
2.0392179 -4.9295492 4.928165 26
2.2267237 3.0503561 0.11305233 4
3.3448229 2.1158361 0.78563607 9
3.4610453 2.1466982 0.16865098 4
3.6283636 1.9129859 0.53967094 7
3.7836158 1.7791224 0.61267459 8
3.9337919 1.779079 0.18168542 4
3.9117913 1.7491121 0.30568033 5
3.9407413 9.9030256 4.3798842 15
4.0870934 1.5522817 0.43965846 6
4.2172804 1.4803022 0.18264847 4
4.2913728 1.4173588 0.24063593 5
4.4465456 1.2665102 0.60259825 7
6.3159618 -5.2081895 0.45354471 5
6.5688086 -5.0222006 0.18576059 4
6.4170113 -5.1762991 0.66059017 6
6.8014927 -4.3521271 2.821434 13
6.8405795 -4.4212155 3.0913737 14
7.1580987 -1.9957749 0.54958433 5
7.3671241 -3.6271968 2.8341739 13
8.1815138 -2.5152266 2.9182088 13
10.402616 -4.2844868 2.3188426 9
10.471592 -4.0565014 2.4870441 10
24.25535 -26.903826 12.992377 14
25.277756 -4.010118 3.4195626 7
25.202192 -26.558584 12.484817 13
27.954838 0.67119879 3.4243886 7
30.119806 -18.750984 17.478632 17
30.949919 -16.913387 18.149361 18
31.673103 -11.539643 16.487028 17
33.257732 -9.553731 16.896687 17
40.031078 -6.1163425 9.4303427 10
40.117222 -6.0664701 11.367379 11
