# .PCD v0.7 - Point Cloud Data file format
VERSION 0.7
FIELDS x y z intensity
SIZE 4 4 4 4
TYPE F F F F
COUNT 1 1 1 1
WIDTH 129
HEIGHT 1
VIEWPOINT 0 0 0 1 0 0 0
POINTS 129
DATA ascii
-19.400229 6.0211992 2.4618735 7
-19.098307 6.6578717 3.0318122 8
-18.387316 8.2252321 17.430254 25
-18.081137 7.6155195 4.4189844 10
-18.160027 7.3941202 5.0706286 11
-7.2446079 2.6553974 0.40560547 5
-7.1311984 2.7857299 0.23476721 4
-4.8109632 -1.35508 0.24890447 5
-4.5131602 -1.4362506 0.43070933 6
-4.4210043 -1.4076207 0.60468721 7
-3.4176154 3.1235549 -0.10290398 3
-3.5269334 2.8779886 1.0430658 10
-3.3153059 3.1887119 1.1655416 11
-3.2470019 3.3294303 1.0432246 10
-3.235709 3.1531596 2.7044368 19
-3.0516815 3.5979505 1.3142618 12
-3.114578 3.4875433 4.3903584 26
-3.086174 3.3385918 4.5489106 27
-2.8328266 3.8989117 0.97129089 9
-2.991416 3.7770386 1.1769913 11
-2.813144 4.0725236 2.822891 19
-2.9117904 -1.2806926 3.7111545 29
-2.9476728 3.5929346 4.5427475 27
-2.2622786 -2.1000187 0.033959795 4
-2.3169172 4.493381 4.3437114 25
-2.2036414 4.2492352 4.5598855 26
-2.0778193 1.3181354 -0.065521732 2.5
-2.103163 1.3220905 0.12850022 4.5
-2.0413892 1.3453447 0.31483665 7
-2.0368886 3.533994 0.42960405 6.5
-2.0213654 5.0054016 1.1373599 10
-2.0106366 5.0285902 1.3863375 11
-2.1650286 -1.6979783 2.926934 28
-2.1117821 -1.4973561 2.9859338 29
-1.8895561 -2.2770884 0.046081964 4
-1.9935497 1.3763913 0.48452803 9
-1.9600656 3.5640519 0.58582848 8
-1.6551216 -2.3489058 1.0752044 14
-1.7377839 -2.045788 1.4450649 18
-1.7760175 -1.812881 1.9209924 23
-1.7584974 -2.8333735 3.5473464 28
-1.6854122 5.1739607 4.5722322 24
-1.4791802 -2.3429739 0.027797529 3.5
-1.5027138 -2.3614252 0.26229158 6
-1.4374861 5.1831045 4.5651712 25
-1.3798789 -2.3552644 2.5363657 26
-1.3226917 -2.8217547 3.5856402 29
-1.163227 -2.6014395 0.26765513 6
-1.0649546 4.8086271 0.58366406 7
-1.0832425 -2.9254341 1.6599079 18
-1.0135311 -2.9059615 2.9589658 26
-0.8128897 -2.409512 -0.12511821 2
-0.97134227 4.8357649 0.41393632 6
-0.80842417 -3.2570667 2.5453928 23
-0.62893331 -2.5215318 -0.12684107 2
-0.60936642 -2.9922054 1.1244708 14
-0.72221255 -3.3773298 3.9655671 29
-0.79879761 4.4295306 4.557838 27
-0.74291211 5.2864604 4.5654979 25
-0.75944978 5.4317698 4.4680057 24
-0.45769432 -2.9711647 0.50765318 8
-0.46144459 -3.3476949 3.7038798 28
-0.39463469 -2.9429786 0.56272113 9
-0.39093736 -2.8809233 0.62768829 10
-0.1079365 -2.4034181 -0.11318999 2
-0.016693011 -2.4219673 0.097966969 4
-0.19349137 -2.3695233 0.17665769 5
-0.073449336 -2.3141077 0.21481098 6
-0.073093057 4.2064157 4.1731267 27
-0.16575143 4.0585713 4.3592415 28
0.18881799 3.2744021 0.41674456 7
0.10942535 -3.4697478 1.1787885 13
0.08211498 -3.4378324 1.2577268 14
0.31856701 -2.4823129 0.16057612 5
0.26303062 -2.4335055 0.33145031 7
0.36359271 3.1322339 0.25723505 5.5
0.27001935 -2.4453647 0.48046938 9
0.39791554 -3.5490756 2.7723088 23
0.23856097 4.8540664 4.0592852 24
0.47692701 -3.5095053 2.846422 24
0.78143108 2.8455117 0.088857561 4
0.71605664 -2.8847015 0.20351699 5
0.62229264 2.9937611 0.38595551 7
0.77137196 2.8205242 0.71090376 10.5
0.81998527 2.845175 0.013971784 3
0.84577972 -2.8616414 0.28225163 6.5
0.83297038 -2.851516 0.55472267 9
1.275293 2.4790337 0.53724051 9
1.2797048 2.4704914 0.68027538 10.5
1.5997022 2.2520461 0.15662077 5
1.5276746 2.2766037 0.30888897 6.5
1.544975 2.2699654 0.52044827 9
1.4484046 -3.7883282 2.1253405 18
2.002918 1.9362249 0.40625253 8
2.1675186 1.8052847 0.6808688 10
2.2119763 1.7881812 0.76799333 11
2.5174124 1.5538568 0.12003036 4
2.7640367 1.3607539 0.47681716 8
2.8894296 1.2614237 0.083199337 4
2.8835664 1.2798787 0.29816076 6
3.1150944 1.1467979 0.27177158 6
4.796103 -4.4219747 0.20519982 4
5.2491846 -4.5729704 3.6911485 18
5.5338273 -4.6519365 1.6397315 10
5.5502048 -4.6380854 2.0877588 12
5.5861201 -4.5776844 2.6108065 14
5.4019775 -4.6271119 3.6484675 17
5.6239276 -4.4924116 1.3828467 9
5.8003798 -2.2089324 0.17921589 4
5.8052583 -1.9911743 0.49511206 6
5.8223214 -4.4388485 2.5862131 13
5.9754467 -11.588568 4.4854822 13
5.936501 -11.708647 5.0164661 14
6.4094319 -2.8730817 3.7466726 18
6.6193237 -3.1541591 2.6051948 13
6.6321445 -3.0413806 3.2711661 16
7.0060973 -1.5667012 0.41502145 5
9.9285908 -11.970879 3.120182 9
10.141255 -12.205189 2.7836878 8
23.879147 -3.6220057 3.7002184 8
24.05508 -3.1090498 3.0701048 7
24.362028 -2.2020192 5.0268626 9
26.434263 1.2751261 3.5110106 7
30.540825 -17.069794 28.098492 24
30.82139 -16.898703 26.662918 23
32.165646 -9.2459803 25.796965 23
32.247547 -9.0764713 27.139997 24
39.101261 -5.1567564 11.743048 12
42.547104 -0.58967543 11.462804 11
