# .PCD v0.7 - Point Cloud Data file format
VERSION 0.7
FIELDS x y z intensity
SIZE 4 4 4 4
TYPE F F F F
COUNT 1 1 1 1
WIDTH 1391
HEIGHT 1
VIEWPOINT 0 0 0 1 0 0 0
POINTS 1391
DATA ascii
-2.2630978 0.0074037388 -0.20001248 0
-2.1830001 0.033999998 -0.20200001 0
-2.4067681 0.1459025 -0.20119879 0
-2.3428164 0.16137743 -0.20199262 0
-2.2504923 0.15574536 -0.20342287 0
-2.1635001 0.15000001 -0.20549999 0
-2.678 0.259 -0.20200001 0
-2.5570636 0.24847315 -0.20273444 0
-2.4235494 0.24873431 -0.20224075 0
-2.3384774 0.24037842 -0.20349383 0
-2.2610836 0.24925484 -0.20440406 0
-2.1785002 0.241 -0.205 0
-2.6590002 0.36333331 -0.20233333 0
-2.5448532 0.33851719 -0.20292947 0
-2.4230125 0.352476 -0.20497115 0
-2.3406751 0.34131736 -0.20564744 0
-2.2435582 0.35489058 -0.20430225 0
-2.1645002 0.34350002 -0.20649999 0
-2.3139999 1.2589999 -0.20200001 0
-2.2998548 1.2514247 -0.20159778 0
-1.9571064 1.6870348 -0.20010391 0
-1.993 1.7180001 -0.20100001 0
5.2800002 -5.3150001 -0.197 0
5.2223425 -5.2493277 -0.18635364 0
5.1358557 -5.1508188 -0.17038409 0
5.0493689 -5.05231 -0.15441456 0
4.962882 -4.9538012 -0.13844502 0
4.8763952 -4.8552923 -0.12247548 0
4.7979999 -4.7659998 -0.108 0
4.8187375 -4.7896199 -0.11182911 0
0.68900001 -3.3710001 -0.156 0
1.3066416 -3.3106437 -0.15223172 0
0.67226082 -3.2541246 -0.17333701 0
1.2412775 -3.2384796 -0.15310855 0
0.65543479 -3.1366427 -0.19076401 0
0.75648797 -3.1515467 -0.1161782 0
0.85432011 -3.1524837 -0.16019456 0
1.1718525 -3.1552 -0.1565163 0
1.2378266 -3.1406302 -0.16397077 0
0.176 -3.0350001 -0.18099999 0
0.24692437 -3.0444303 -0.17468753 0
0.75662106 -3.0388923 -0.1622178 0
0.82829171 -3.0813532 -0.17573377 0
1.122682 -3.0323598 -0.16721304 0
1.2040982 -3.0573015 -0.16972442 0
0.1374093 -2.9576859 -0.17526992 0
0.23769745 -2.9167216 -0.15875015 0
0.68779039 -2.9010372 -0.14934257 0
0.7091856 -2.9790561 -0.13901384 0
0.83148026 -2.948225 -0.17979182 0
1.0899017 -2.9504666 -0.1743442 0
1.1703699 -2.9739726 -0.17547807 0
0.099614285 -2.8037429 -0.15504286 0
0.13447216 -2.8758078 -0.16305056 0
0.23154618 -2.8315823 -0.14812523 0
0.66639519 -2.8230186 -0.15967128 0
0.80659211 -2.8316901 -0.19911674 0
1.0571213 -2.8685732 -0.18147536 0
1.1197774 -2.8489795 -0.18410856 0
-1.267 -2.724 -0.109 0
0.097921424 -2.7236142 -0.14206427 0
0.16136506 -2.7423012 -0.14088944 0
0.2253949 -2.746443 -0.1375003 0
0.64499998 -2.7449999 -0.17 0
0.99156064 -2.7047865 -0.19573767 0
1.0467629 -2.7553329 -0.19067279 0
-1.432 -2.622 -0.107 0
-1.3355 -2.6620002 -0.1035 0
-1.2510114 -2.6488922 -0.11558958 0
-0.93928933 -2.6305943 -0.10358101 0
0.09622857 -2.6434858 -0.12908572 0
0.15509295 -2.616859 -0.1236992 0
0.21924363 -2.6613038 -0.12687537 0
1.0354567 -2.6406574 -0.19849269 0
-1.4018463 -2.5667624 -0.11647309 0
-1.3320035 -2.5790699 -0.11241334 0
-1.2701039 -2.5301254 -0.12203283 0
-1.176777 -2.5358696 -0.13489994 0
-0.91784245 -2.5374465 -0.11173913 0
-0.88139683 -2.5646322 -0.11363513 0
0.094267853 -2.5506787 -0.11405358 0
0.15091155 -2.5332308 -0.11223905 0
0.21309236 -2.5761647 -0.11625044 0
-1.3347421 -2.4563038 -0.12337744 0
-1.2311605 -2.4514647 -0.13309956 0
-1.155519 -2.4293735 -0.14459962 0
-0.90299445 -2.4462466 -0.12540312 0
-0.86102319 -2.471508 -0.12382679 0
0.149 -2.4949999 -0.107 0
0.20647055 -2.4845128 -0.10481276 0
-1.2578033 -2.3568399 -0.13748419 0
-1.1176152 -2.3504987 -0.1556797 0
-0.84433335 -2.3796666 -0.13633333 0
-2.4473553 -2.2489398 -0.10263342 0
-1.223129 -2.2488251 -0.16244616 0
-1.1832509 -2.2447674 -0.14885333 0
-1.0616716 -2.2546237 -0.17060651 0
-2.3637562 -2.1629198 -0.10956928 0
-2.2867124 -2.1132598 -0.11511352 0
-2.0150335 -2.1388981 -0.11200614 0
-1.4273481 -2.1100085 -0.19304685 0
-1.3284014 -2.1507263 -0.18391801 0
-1.2598587 -2.1581748 -0.1675365 0
-1.1573963 -2.1552773 -0.17728746 0
-1.0753869 -2.1368215 -0.17736652 0
-0.98779619 -2.1418116 -0.18914999 0
-2.4957712 -2.0088267 -0.10732722 0
-2.3076718 -2.0911198 -0.11649039 0
-2.230628 -2.04146 -0.12203464 0
-1.966 -2.0829999 -0.12499999 0
-1.5616398 -2.0659418 -0.18408248 0
-1.4706216 -2.0671501 -0.19606674 0
-1.354924 -2.0659556 -0.18851162 0
-1.2592778 -2.0339673 -0.18851505 0
-1.1526526 -2.0390892 -0.18410145 0
-1.0364435 -2.0581608 -0.18843326 0
-0.96599996 -2.0349998 -0.2 0
-2.4335141 -1.9538845 -0.11821815 0
-2.133532 -1.946865 -0.13413367 0
-2.0452969 -1.9263376 -0.13511203 0
-1.9486562 -1.9429708 -0.13839799 0
-1.5330315 -1.9773613 -0.19522507 0
-1.4331059 -1.9550002 -0.19213834 0
-1.3478132 -1.9402723 -0.1957424 0
-1.2480606 -1.9533386 -0.1890671 0
-1.1459135 -1.9373709 -0.19007938 0
-1.0461116 -1.9598343 -0.1966666 0
1.3955474 -1.9106998 -0.19971505 0
1.552 -1.931 -0.2 0
-2.3278141 -1.8557355 -0.13902727 0
-2.2489054 -1.8513784 -0.14167756 0
-2.1579759 -1.8658118 -0.13632531 0
-2.0608437 -1.8405797 -0.14509319 0
-1.9503208 -1.8299848 -0.15343572 0
-1.8495187 -1.846359 -0.15765719 0
-1.637 -1.803 -0.2 0
-1.4334329 -1.848403 -0.19589359 0
-1.3151217 -1.8446499 -0.19706674 0
-1.243929 -1.8688577 -0.19465207 0
-1.1525638 -1.8378744 -0.19568658 0
-1.0545 -1.8675001 -0.19850001 0
1.3476982 -1.8434665 -0.19814336 0
1.4459391 -1.8552564 -0.19787306 0
1.5244117 -1.8959501 -0.19901821 0
-2.7539999 -1.7130001 -0.164 0
-2.4555011 -1.7787904 -0.1511344 0
-2.3567159 -1.7097834 -0.15880184 0
-2.2322595 -1.77112 -0.15290213 0
-2.1389246 -1.7626123 -0.15491438 0
-2.0333939 -1.7443731 -0.15740097 0
-1.927301 -1.7533485 -0.16304249 0
-1.8314726 -1.7382531 -0.181584 0
-1.7337937 -1.7335825 -0.1801388 0
-1.6367096 -1.7464142 -0.19994979 0
-1.5592488 -1.7161525 -0.19956684 0
-1.3602736 -1.766521 -0.19491881 0
-1.2606863 -1.7348722 -0.1961332 0
-1.1581414 -1.7488347 -0.19759114 0
-1.099 -1.795 -0.199 0
1.2759246 -1.7426167 -0.19578584 0
1.3462292 -1.7246709 -0.19430785 0
1.4230471 -1.7671701 -0.19541092 0
1.5661103 -1.7429171 -0.19560176 0
-3.1789999 -1.604 -0.104 0
-3.049 -1.614 -0.13600001 0
-2.9419999 -1.645 -0.17399999 0
-2.8672581 -1.6042006 -0.1760571 0
-2.6427341 -1.6456587 -0.16821793 0
-2.2497869 -1.6350876 -0.16710138 0
-2.1325953 -1.6839736 -0.1623911 0
-2.054281 -1.6544554 -0.16887341 0
-1.9605589 -1.6600604 -0.17168736 0
-1.8483315 -1.6582513 -0.17353815 0
-1.7495998 -1.6615479 -0.18894246 0
-1.634169 -1.6359335 -0.19703925 0
-1.5403147 -1.6415706 -0.19940239 0
-1.4244802 -1.6418869 -0.19980361 0
-1.354627 -1.6646458 -0.19894326 0
-1.2557578 -1.6311736 -0.19630627 0
-1.1585 -1.6624999 -0.198 0
1.2589999 -1.637 -0.192 0
1.3216823 -1.6383901 -0.19180363 0
1.4763552 -1.640714 -0.19207537 0
1.5699114 -1.6391069 -0.19276847 0
-3.2326517 -1.520138 -0.19227268 0
-3.1287766 -1.5793394 -0.11392438 0
-3.053647 -1.5424495 -0.12877032 0
-2.9762692 -1.5403961 -0.14279024 0
-2.8935189 -1.5336092 -0.14836782 0
-2.7476695 -1.5389206 -0.17934854 0
-2.5273693 -1.5758367 -0.17259124 0
-2.4504595 -1.5292885 -0.17550677 0
-2.142858 -1.5603918 -0.17540091 0
-2.0715721 -1.5105945 -0.18093395 0
-1.9454221 -1.5599096 -0.1784997 0
-1.8458894 -1.5521027 -0.18792997 0
-1.7483521 -1.5366517 -0.18923767 0
-1.6629337 -1.5398813 -0.19617121 0
-1.5707034 -1.5284333 -0.19712429 0
-1.4600322 -1.5673107 -0.19896233 0
-1.3579931 -1.5391827 -0.19881012 0
-1.2533786 -1.5501208 -0.19779375 0
-1.192 -1.587 -0.197 0
1.271 -1.574 -0.19 0
1.3843323 -1.5609004 -0.18932211 0
1.4445519 -1.5541177 -0.18907407 0
1.5572246 -1.5493045 -0.19039689 0
-3.1328313 -1.4766653 -0.1936103 0
-3.0533595 -1.4420544 -0.19467525 0
-2.9386377 -1.4380567 -0.17710119 0
-2.8206377 -1.4618829 -0.16403976 0
-2.7325149 -1.4503627 -0.16117497 0
-2.6400466 -1.44119 -0.17510927 0
-2.5483549 -1.4301203 -0.18483426 0
-2.3735495 -1.4827404 -0.17842232 0
-2.2966394 -1.4361924 -0.18133785 0
-2.0002861 -1.4607973 -0.18646698 0
-1.929 -1.411 -0.192 0
-1.856865 -1.4626578 -0.18479703 0
-1.7394667 -1.41887 -0.19298825 0
-1.6887257 -1.4573175 -0.19470081 0
-1.5582422 -1.4457594 -0.19687313 0
-1.448239 -1.4696292 -0.19792469 0
-1.3466773 -1.4434369 -0.19832078 0
-1.2583333 -1.448 -0.198 0
1.277 -1.437 -0.185 0
1.3636025 -1.4649627 -0.18617699 0
1.4558308 -1.4587414 -0.18652812 0
1.5544155 -1.4515388 -0.18739805 0
-2.8546796 -1.3555272 -0.19733763 0
-2.7443006 -1.3492504 -0.19354455 0
-2.5715106 -1.3671162 -0.17398211 0
-2.4798188 -1.3560467 -0.18370712 0
-2.3889031 -1.3430803 -0.18922284 0
-2.2197297 -1.3896443 -0.18425339 0
-2.1428199 -1.3430961 -0.18716893 0
-1.7209095 -1.3370143 -0.1962689 0
-1.6460098 -1.3765382 -0.19555376 0
-1.5435605 -1.3644027 -0.19586942 0
-1.4665337 -1.3606813 -0.19737121 0
-1.3498379 -1.3449917 -0.19789053 0
1.2835 -1.3445001 -0.182 0
1.3611565 -1.3509001 -0.18219449 0
1.4808252 -1.3170264 -0.18307647 0
1.5397669 -1.3707018 -0.18510196 0
-4.1161475 -1.277058 -0.10592858 0
-4.0311232 -1.2508817 -0.12144049 0
-3.9460983 -1.2247053 -0.13695239 0
-2.6559999 -1.2690001 -0.2 0
-2.4105062 -1.2838697 -0.18678927 0
-2.3195908 -1.2709033 -0.19230498 0
-2.2394767 -1.2283317 -0.19660392 0
-2.1497257 -1.2125201 -0.19580571 0
-2.0659099 -1.2965481 -0.19008447 0
-1.9525 -1.232 -0.19350001 0
-1.8732738 -1.2521894 -0.19316113 0
-1.7269236 -1.2927886 -0.19703627 0
-1.6532246 -1.2676384 -0.19684476 0
-1.5494217 -1.2561127 -0.19697438 0
-1.4427848 -1.2639519 -0.1964912 0
-1.3429999 -1.2460001 -0.198 0
1.284 -1.253 -0.178 0
1.3629417 -1.2096754 -0.17902549 0
1.4218835 -1.263351 -0.18105099 0
1.5654449 -1.2412269 -0.18219726 0
-3.8610737 -1.198529 -0.15246429 0
-3.7760491 -1.1723527 -0.1679762 0
-3.6485124 -1.1330881 -0.19124405 0
-2.0699999 -1.169 -0.198 0
-1.8472853 -1.1714976 -0.19474047 0
-1.7402673 -1.1452948 -0.19462852 0
-1.5502596 -1.1770039 -0.19742216 0
-1.447912 -1.1627561 -0.19761533 0
-1.3699999 -1.154 -0.19749999 0
1.3421316 -1.1340557 -0.17697199 0
1.4453588 -1.1379499 -0.17853859 0
1.5107865 -1.1615157 -0.17978385 0
-1.650692 -1.0780258 -0.19566888 0
-1.579128 -1.0325172 -0.19627926 0
-1.4558142 -1.0491735 -0.19712032 0
-1.392 -1.089 -0.198 0
1.3461986 -1.0486128 -0.17553155 0
2.078449 -1.0223163 -0.17920589 0
2.1300001 -1.0470001 -0.18000001 0
-1.5238701 -0.97145408 -0.19822554 0
-1.436 -0.94149995 -0.19749999 0
1.835966 -0.9062109 -0.17547059 0
1.9572074 -0.96426368 -0.17733824 0
2.0904417 -0.90954465 -0.17674452 0
2.108 -0.917 -0.177 0
-2.0079999 -0.898 -0.197 0
-1.9482212 -0.87212229 -0.19688699 0
-1.8700176 -0.83826858 -0.19673917 0
-1.7918141 -0.80441487 -0.19659133 0
1.6743107 -0.82880729 -0.1729804 0
1.7551383 -0.86750913 -0.17422549 0
1.8442943 -0.80502975 -0.17316301 0
1.9263434 -0.83986807 -0.17435685 0
2.0083926 -0.87470633 -0.17555068 0
2.4749999 -0.81800002 -0.17900001 0
-2.6921744 -0.7773279 -0.19799337 0
-2.5563965 -0.73835754 -0.19783872 0
-2.4264441 -0.7010591 -0.19769071 0
-2.0633261 -0.74201399 -0.19354977 0
-1.9513435 -0.73735881 -0.19509272 0
-1.8547778 -0.72583836 -0.1955837 0
-1.7136105 -0.77056116 -0.1964435 0
-1.6354071 -0.73670745 -0.19629566 0
-1.5572035 -0.70285374 -0.19614783 0
1.4318277 -0.71270186 -0.16924509 0
1.5680952 -0.74734133 -0.17060234 0
1.6801963 -0.73535317 -0.17077534 0
1.7622453 -0.77019143 -0.17196918 0
1.8601615 -0.70947027 -0.17144439 0
1.9431884 -0.74054861 -0.17235178 0
2.0530312 -0.76347762 -0.17348428 0
2.12954 -0.72854888 -0.17442885 0
2.2432339 -0.74225461 -0.17598026 0
2.3293881 -0.77041137 -0.17710279 0
2.4155426 -0.79856825 -0.17822531 0
-2.3398092 -0.67619354 -0.19759203 0
-2.2531743 -0.65132791 -0.19749336 0
-2.1275415 -0.63782394 -0.19487208 0
-2.0551875 -0.61861086 -0.19593313 0
-1.9558444 -0.64565814 -0.19416673 0
-1.8405362 -0.64798987 -0.19520289 0
-1.7521544 -0.66389275 -0.19655006 0
-1.6722696 -0.63459516 -0.19720003 0
-1.5788395 -0.62174189 -0.19668527 0
-1.479 -0.66900003 -0.19599999 0
1.351 -0.67400002 -0.168 0
1.434049 -0.63083827 -0.16719383 0
1.5160981 -0.66567659 -0.16838767 0
1.6525942 -0.63177431 -0.16917589 0
1.7630666 -0.64402115 -0.16989946 0
1.8648944 -0.62808502 -0.17097402 0
1.9660411 -0.66442609 -0.17216717 0
2.0626826 -0.65636832 -0.17255521 0
-3.5487137 -0.58466029 -0.19709298 0
-3.4340465 -0.56572938 -0.19749865 0
-3.3456657 -0.55113822 -0.19781132 0
-3.2572849 -0.53654701 -0.19812399 0
-3.1689041 -0.52195585 -0.19843666 0
-3.0805233 -0.50736469 -0.19874933 0
-2.1178501 -0.52554893 -0.19403169 0
-2.0447555 -0.55935395 -0.19421922 0
-1.9454349 -0.54947704 -0.19533491 0
-1.8340896 -0.55348563 -0.19551243 0
-1.7505145 -0.59342486 -0.19476002 0
-1.6373031 -0.57756829 -0.19709405 0
-1.538946 -0.53704721 -0.19719554 0
-1.5 -0.59200001 -0.197 0
1.357 -0.55949998 -0.16599999 0
1.4450269 -0.5540784 -0.16690738 0
1.5427839 -0.54159796 -0.16736279 0
1.6313634 -0.55454791 -0.16820313 0
1.7438953 -0.55713433 -0.16903764 0
1.8734403 -0.56864023 -0.16966349 0
1.9548002 -0.59230024 -0.17057937 0
2.0549717 -0.51667726 -0.17075434 0
-2.947952 -0.48547792 -0.19921833 0
-2.8153808 -0.46359116 -0.19968733 0
-2.727 -0.449 -0.2 0
-2.128 -0.449 -0.19400001 0
-2.051028 -0.45046493 -0.19615203 0
-1.9399873 -0.4596073 -0.19650865 0
-1.8403859 -0.45880756 -0.19667247 0
-1.75249 -0.47950608 -0.19457671 0
-1.6461433 -0.44377616 -0.19534062 0
-1.5705504 -0.45068359 -0.19313158 0
-1.487 -0.42699999 -0.193 0
1.367 -0.45100001 -0.16599999 0
1.4510409 -0.47811753 -0.1668182 0
1.548 -0.47400001 -0.16599999 0
1.625342 -0.45477623 -0.16641699 0
1.7594937 -0.42943773 -0.16742283 0
1.8713648 -0.44789553 -0.16854295 0
1.955313 -0.46752682 -0.16936982 0
2.0493362 -0.43861011 -0.16987711 0
-1.517 -0.396 -0.197 0
1.3609999 -0.308 -0.164 0
1.4465723 -0.32737023 -0.16473559 0
1.5347148 -0.35024682 -0.16482373 0
1.6440333 -0.34628335 -0.16567288 0
1.732892 -0.34975401 -0.16692394 0
1.8500625 -0.34320018 -0.16776587 0
1.9633908 -0.34976271 -0.16843402 0
2.0559168 -0.34238976 -0.16895086 0
2.1484723 -0.33507618 -0.16971864 0
2.2371111 -0.34937277 -0.17053559 0
2.3608749 -0.3693347 -0.17167628 0
1.37 -0.241 -0.16500001 0
1.4560009 -0.25651044 -0.16550441 0
1.535001 -0.25351045 -0.1650044 0
1.6239071 -0.2486372 -0.16582893 0
1.7531081 -0.24868348 -0.16638865 0
1.8843571 -0.26817685 -0.16729051 0
1.954762 -0.23036259 -0.16748077 0
2.0304022 -0.23127866 -0.16797177 0
-3.1385 -0.1585 -0.19150001 0
-3.0741339 -0.15524243 -0.19228193 0
-2.9558151 -0.13857622 -0.19386518 0
-2.8477819 -0.14454442 -0.19485129 0
-2.7399318 -0.14787902 -0.19646449 0
-2.6215668 -0.13187122 -0.19789097 0
-2.5376017 -0.10379615 -0.19739403 0
-2.4345536 -0.13246395 -0.19890413 0
-2.3371041 -0.15722051 -0.19917516 0
-2.2520521 -0.15061025 -0.19858758 0
-2.1775 -0.171 -0.199 0
1.37 -0.14049999 -0.1655 0
1.4564236 -0.15023066 -0.16582441 0
1.5355649 -0.1599742 -0.16543254 0
1.6410221 -0.15907277 -0.16558251 0
1.7503181 -0.14200361 -0.16617107 0
1.8486754 -0.1504232 -0.16687737 0
1.9530404 -0.13653848 -0.16717349 0
2.02 -0.1415 -0.16749999 0
-3.4460001 -0.0070000002 -0.19499999 0
-3.3473878 -0.0056240126 -0.194656 0
-3.2130251 -0.0037491871 -0.1941873 0
-3.12345 -0.0024993033 -0.19387482 0
-3.033875 -0.00124942 -0.19356236 0
-2.3563008 -0.098398082 -0.19869702 0
-2.2656505 -0.095699042 -0.19934851 0
-2.175 -0.093000002 -0.2 0
1.549484 -0.050264947 -0.16375405 0
1.6739354 -0.055559799 -0.16451618 0
1.7514054 -0.017153637 -0.16454609 0
1.8342072 -0.018871518 -0.16506146 0
1.9510045 -0.021294698 -0.16578841 0
-2.9443002 4.6379861e-07 -0.19324988 0
-2.8547251 0.0012503478 -0.19293742 0
-2.7651501 0.0025002318 -0.19262494 0
-2.675575 0.0037501159 -0.19231248 0
-2.5631759 0.016926732 -0.19202243 0
-2.4471216 0.044038575 -0.19410795 0
-2.3419652 0.034247242 -0.19748196 0
-2.2618675 0.060843501 -0.19946951 0
1.493 0.059 -0.164 0
1.5756233 0.060735781 -0.16434716 0
1.6582465 0.062471565 -0.16469431 0
1.7408698 0.064207345 -0.16504146 0
1.8234929 0.065943129 -0.16538863 0
1.9375581 0.068339452 -0.16586789 0
-3.036 0.169 -0.19 0
-2.9463043 0.1657075 -0.19159636 0
-2.8563814 0.16240667 -0.19319677 0
-2.766459 0.15910584 -0.19479717 0
-2.6765361 0.15580499 -0.19639757 0
-2.5670629 0.15827018 -0.19579004 0
-2.4662743 0.14518887 -0.19731027 0
-2.3362069 0.1170921 -0.19853246 0
-3.0717449 0.2767899 -0.18166302 0
-2.9692204 0.25101089 -0.18644673 0
-2.8594329 0.23553757 -0.18961875 0
-2.7503529 0.2306827 -0.1917932 0
-2.6611314 0.22236542 -0.19403037 0
-2.5532203 0.2275109 -0.19644672 0
-2.7490463 0.39974746 -0.18918149 0
-2.3045576 0.39124501 -0.19856159 0
-2.0428431 0.38791847 -0.19577847 0
1.437 0.34 -0.164 0
1.5186697 0.36169592 -0.16430995 0
1.6003394 0.38339186 -0.16461988 0
-3.2653241 0.48823237 -0.10627047 0
-3.1792779 0.47348487 -0.12008898 0
-3.0373156 0.46701774 -0.14193934 0
-2.921957 0.45709029 -0.15668248 0
-2.8345566 0.44302273 -0.16740969 0
-2.7452652 0.4581629 -0.16709228 0
-2.6565101 0.44477525 -0.17472818 0
-2.5533941 0.46001041 -0.18387088 0
-2.4550231 0.44968921 -0.19038823 0
-2.3609908 0.43924507 -0.19330597 0
-2.2523384 0.4546707 -0.19211721 0
-2.1695588 0.43700269 -0.19285591 0
-2.0659692 0.4497644 -0.19212 0
-1.9705 0.45050001 -0.1925 0
1.387 0.47400001 -0.164 0
1.4521849 0.41987479 -0.164 0
1.57274 0.45849922 -0.164 0
1.6675594 0.44466829 -0.16446492 0
1.7636787 0.42678368 -0.16523977 0
1.8453484 0.44847962 -0.16554971 0
1.9516726 0.47672519 -0.16595322 0
-3.3702753 0.55243814 -0.11332045 0
-3.2689199 0.56214476 -0.14043935 0
-3.1493268 0.55053616 -0.15641692 0
-3.0541153 0.55721617 -0.18032186 0
-2.9810987 0.58139956 -0.18113302 0
-2.8520007 0.55655396 -0.18372113 0
-2.7185664 0.53079545 -0.18630029 0
-2.6296105 0.51362318 -0.18801972 0
-2.5422757 0.50426859 -0.19410066 0
-2.418 0.52600002 -0.18799999 0
-2.3582149 0.54301435 -0.18798566 0
-2.2743964 0.54917884 -0.18864593 0
-2.1624758 0.54003906 -0.18978103 0
-2.057466 0.55444688 -0.18989284 0
-1.9499768 0.56009817 -0.19015354 0
1.4660089 0.50337309 -0.16384293 0
1.5450178 0.5327462 -0.16368586 0
1.6240268 0.56211931 -0.16352877 0
1.7182579 0.55074543 -0.16368586 0
1.8540349 0.54862285 -0.164 0
1.927 0.57200003 -0.164 0
2.0330973 0.54807007 -0.16437468 0
2.140702 0.52082044 -0.16469523 0
2.229053 0.54123062 -0.16404285 0
2.3174043 0.56164086 -0.16339047 0
2.4057553 0.58205104 -0.16273808 0
-3.3593473 0.62101662 -0.14772815 0
-3.2512965 0.61369872 -0.15639907 0
-2.3416348 0.65724075 -0.18715313 0
-2.2433155 0.63068521 -0.18794502 0
-2.1462891 0.66949433 -0.18891047 0
-2.0656371 0.64388514 -0.18927364 0
-1.9516824 0.63557297 -0.18937397 0
-1.8677499 0.65999997 -0.18875 0
-1.3500909 0.68774027 -0.18370946 0
-1.27 0.64600003 -0.184 0
1.679 0.68699998 -0.16 0
1.7820446 0.62086552 -0.16321462 0
1.8755268 0.65561932 -0.16302878 0
2.1441092 0.63132489 -0.16250442 0
2.274375 0.66691989 -0.16160707 0
2.3612185 0.69064987 -0.16100883 0
2.4941063 0.60246128 -0.16208571 0
2.5824573 0.62287146 -0.16143332 0
2.6708083 0.6432817 -0.16078095 0
2.7591596 0.66369188 -0.16012856 0
2.8475106 0.68410212 -0.15947618 0
2.9119999 0.699 -0.15899999 0
-2.4104543 0.78263175 -0.19114706 0
-2.3213558 0.74692988 -0.18847793 0
-2.2520075 0.74454629 -0.18646452 0
-2.1758163 0.75303537 -0.18518387 0
-2.0558856 0.74978828 -0.18739146 0
-1.9433969 0.74306583 -0.18749191 0
-1.8518819 0.76052803 -0.18648875 0
-1.783 0.76599997 -0.186 0
-1.5102727 0.7712208 -0.18312839 0
-1.4301819 0.7294805 -0.18341893 0
-1.201 0.76499999 -0.182 0
1.232 0.79100001 -0.162 0
1.6 0.79000002 -0.15800001 0
1.7613975 0.72319883 -0.15940002 0
1.8493974 0.75519884 -0.16040002 0
1.9322428 0.79059386 -0.15941408 0
2.4480624 0.71437979 -0.1604106 0
2.5349059 0.73810977 -0.15981236 0
2.6217499 0.76183975 -0.15921412 0
2.7085934 0.78556973 -0.1586159 0
-2.7534235 0.89771962 -0.19191176 0
-2.6676812 0.86894763 -0.19172059 0
-2.5819387 0.84017569 -0.19152941 0
-2.4961965 0.81140375 -0.19133823 0
-2.34412 0.88607776 -0.18915588 0
-2.2625973 0.84631175 -0.18703961 0
-2.1649199 0.83822376 -0.18693224 0
-2.0456178 0.856556 -0.18531989 0
-1.9207244 0.85006732 -0.18458569 0
-1.8195562 0.85847497 -0.18444458 0
-1.7378864 0.85711038 -0.18431419 0
-1.6704546 0.85470128 -0.18254732 0
-1.5903636 0.81296104 -0.18283786 0
-1.3431871 0.85920262 -0.182 0
-1.252533 0.84287423 -0.18149999 0
-1.148 0.85399997 -0.1805 0
1.197 0.852 -0.161 0
1.3383106 0.86096507 -0.15995556 0
1.5463333 0.85600001 -0.15733333 0
1.6707971 0.85047895 -0.1576058 0
1.7619406 0.87225556 -0.15653116 0
2.0403879 0.83999068 -0.15795213 0
2.1465263 0.87206912 -0.1571984 0
2.7967186 0.80964983 -0.15800884 0
-2.793 0.91100001 -0.192 0
-2.5545869 0.96819341 -0.1896375 0
-2.4283068 0.91892403 -0.18934852 0
-2.2280002 0.92049998 -0.185 0
-2.1510406 0.95927888 -0.18280947 0
-2.0417252 0.9604001 -0.18277828 0
-1.9486884 0.94425744 -0.18278104 0
-1.8602635 0.94006926 -0.18405533 0
-1.7741582 0.94353974 -0.18592796 0
-1.6554999 0.95749998 -0.18349999 0
-1.4496411 0.94383115 -0.18230326 0
-1.3459656 0.9530589 -0.18224999 0
-1.2649983 0.99311477 -0.18000001 0
-1.1984991 0.93905735 -0.18000001 0
-1.099 0.949 -0.18099999 0
0.99299997 0.95300001 -0.16 0
1.1423333 0.94466662 -0.161 0
1.237869 0.92834014 -0.15909699 0
1.3332331 0.95093495 -0.15815522 0
1.4548106 0.9419651 -0.15695557 0
1.5530193 0.9545306 -0.15584275 0
1.6458333 0.93932241 -0.15515703 0
1.7410485 0.94933563 -0.15536295 0
1.8540922 0.95573139 -0.15547295 0
1.9238811 0.95451105 -0.1550623 0
2.0048513 0.99563879 -0.15432788 0
2.1733847 0.90419322 -0.15640011 0
2.263624 0.93217397 -0.15547034 0
2.3464694 0.96756899 -0.15448442 0
2.4380522 0.99313819 -0.15239678 0
-2.7130001 1.03 -0.19 0
-2.6808667 1.0174628 -0.18992646 0
-2.1136284 1.0488549 -0.18416645 0
-2.0659158 1.0646694 -0.18323977 0
-1.9610488 1.0406532 -0.18793793 0
-1.8357137 1.0028561 -0.18839945 0
-1.7665138 1.0754975 -0.18009545 0
-1.6628063 1.0703571 -0.18201141 0
-1.5513346 1.0471327 -0.18170984 0
-1.4402055 1.0555182 -0.18328206 0
-1.3314974 1.0471721 -0.18000001 0
-1.2659202 1.074707 -0.1827576 0
-1.1633804 1.0065604 -0.1811364 0
0.9375 1.039 -0.16049999 0
1.0435443 1.0490338 -0.15999843 0
1.1401627 1.0407008 -0.15969642 0
1.2476918 1.0343959 -0.15872994 0
1.3549547 1.0572128 -0.15561639 0
1.4413383 1.0334405 -0.15578878 0
1.5547141 1.0422057 -0.15476669 0
1.6363118 1.0619928 -0.15413797 0
1.7228153 1.0617316 -0.15320602 0
1.8412461 1.0528141 -0.15285343 0
1.9585083 1.0602486 -0.15296346 0
2.0722821 1.0603735 -0.15313478 0
2.1667919 1.0778943 -0.15285903 0
2.4205768 1.0127898 -0.15460017 0
2.5091066 1.041906 -0.15300836 0
2.6462851 1.0796161 -0.14896707 0
-2.2697165 1.1815593 -0.18959323 0
-2.167449 1.1537383 -0.1930677 0
-2.0677843 1.1271404 -0.19499861 0
-1.9310138 1.1724975 -0.17659545 0
-1.8275121 1.1444237 -0.16730258 0
-1.7432351 1.1479859 -0.17376512 0
-1.6573753 1.1377487 -0.18116452 0
-1.5627806 1.1389244 -0.18342307 0
-1.450969 1.1672015 -0.18353233 0
-1.355935 1.1495183 -0.18325162 0
-1.2477137 1.1495605 -0.1821364 0
-0.93000001 1.182 -0.178 0
0.85250002 1.1485 -0.16 0
0.94750613 1.1578927 -0.15942314 0
1.0477488 1.1587461 -0.16012657 0
1.1410223 1.1473167 -0.15806504 0
1.2558094 1.1643444 -0.15597992 0
1.3272148 1.1209852 -0.15632133 0
1.4229723 1.1461415 -0.15493615 0
1.5426668 1.1399996 -0.15410429 0
1.6382205 1.1481156 -0.15287039 0
1.7657623 1.1532505 -0.15290733 0
1.9394892 1.1406827 -0.15125537 0
2.0557671 1.1463506 -0.15075591 0
2.1383662 1.1268108 -0.1516221 0
2.2328761 1.1443315 -0.15134637 0
2.3528662 1.143075 -0.1516951 0
2.4613402 1.1602079 -0.15082042 0
2.52 1.184 -0.15000001 0
2.7049999 1.104 -0.148 0
-2.4296355 1.2668619 -0.19090557 0
-2.3496761 1.2242106 -0.1902494 0
-2.2224979 1.2099966 -0.19939806 0
-1.9287536 1.2711012 -0.152962 0
-1.8569576 1.2324492 -0.16559033 0
-1.6550901 1.2314489 -0.18726924 0
-1.5530105 1.2508128 -0.18468158 0
-1.4481845 1.2546706 -0.18451309 0
-1.3838501 1.2509158 -0.18593961 0
-1.2568839 1.2560613 -0.18181309 0
-1.149 1.261 -0.18099999 0
-0.98586291 1.2516137 -0.17767772 0
-0.852 1.2605 -0.176 0
0.75950003 1.26 -0.16 0
0.85084116 1.2665157 -0.15924953 0
0.9661504 1.236794 -0.15981023 0
1.0486348 1.2459457 -0.15868591 0
1.1612843 1.266567 -0.15643036 0
1.2175953 1.225481 -0.15613711 0
1.3355927 1.2417563 -0.15407324 0
1.441691 1.2576388 -0.1530105 0
1.5455946 1.2684741 -0.1525307 0
1.6359538 1.2405337 -0.15247375 0
1.737417 1.2557049 -0.15200305 0
1.8409529 1.2033131 -0.15213417 0
1.9161434 1.2533756 -0.15136099 0
2.0558045 1.2104143 -0.14996138 0
2.1534925 1.2351284 -0.14920685 0
2.2719433 1.2248317 -0.14962281 0
2.3574574 1.2492869 -0.1445348 0
2.4282644 1.2489557 -0.14471868 0
-2.5362973 1.3237567 -0.19178087 0
-2.0453172 1.3186264 -0.1129525 0
-1.834029 1.3655872 -0.18964103 0
-1.7624534 1.3119318 -0.18869232 0
-1.630579 1.371654 -0.1916068 0
-1.5461013 1.3567922 -0.18566889 0
-1.4507751 1.3113737 -0.1874094 0
-1.3407097 1.3446531 -0.18153274 0
-1.2294127 1.3540952 -0.18099999 0
-1.1429763 1.3861459 -0.18000001 0
-1.0665786 1.3535173 -0.17834714 0
-0.95593345 1.3408594 -0.17550972 0
-0.87293315 1.3623739 -0.17562246 0
-0.73950005 1.357 -0.17299999 0
0.77307624 1.3509315 -0.15920675 0
0.85847354 1.3446289 -0.16015473 0
0.94581449 1.334727 -0.15915363 0
1.0496674 1.3589416 -0.15693003 0
1.1328472 1.3392266 -0.15573584 0
1.239177 1.3394649 -0.15467629 0
1.3445827 1.3558617 -0.15299597 0
1.4608806 1.3599972 -0.15131734 0
1.5449519 1.3610698 -0.15240276 0
1.651917 1.3502057 -0.15160701 0
1.7426482 1.3230481 -0.15096249 0
1.8300003 1.3569987 -0.15031287 0
1.9653646 1.3542894 -0.14945678 0
2.0665245 1.3535008 -0.14981467 0
2.1313615 1.3292856 -0.14949654 0
2.2385912 1.3448032 -0.14786521 0
2.3385985 1.3312311 -0.14713122 0
2.4810317 1.3218182 -0.11982835 0
2.5527086 1.361091 -0.10943781 0
-2.0120001 1.499 -0.192 0
-1.9413924 1.4460702 -0.19106412 0
-1.7511866 1.438128 -0.19396016 0
-1.6673069 1.4716841 -0.19254059 0
-1.5846251 1.4322895 -0.19034901 0
-1.4524775 1.4627756 -0.18115893 0
-1.3098254 1.4471904 -0.18099999 0
-1.173702 1.4558735 -0.17835543 0
-1.0611508 1.448928 -0.17665923 0
-0.9319554 1.452916 -0.17541496 0
-0.83034158 1.4447712 -0.17224368 0
-0.73548019 1.4751018 -0.17139526 0
-0.65100002 1.4306666 -0.171 0
-0.5715 1.484 -0.169 0
0.56050003 1.471 -0.16049999 0
0.64980024 1.4421371 -0.16053429 0
0.74150002 1.4505 -0.1595 0
0.83184302 1.4499055 -0.1585099 0
0.9521243 1.4474612 -0.15731217 0
1.0332748 1.4372678 -0.15665045 0
1.1479869 1.4411337 -0.15488347 0
1.2480887 1.4507484 -0.15334196 0
1.3585309 1.4713949 -0.15202889 0
1.436 1.462 -0.152 0
1.5177611 1.4293277 -0.15030137 0
1.6204805 1.4593582 -0.14988396 0
1.7534419 1.4342 -0.14991796 0
1.8586645 1.4487371 -0.14924154 0
1.9736671 1.4654983 -0.14841715 0
2.054575 1.4536295 -0.14800306 0
2.1367643 1.4492702 -0.14834715 0
2.2439687 1.4465421 -0.14775611 0
-1.9254891 1.5820231 -0.19779097 0
-1.8379266 1.5466465 -0.19647089 0
-1.7350248 1.5314648 -0.19413069 0
-1.4585211 1.5421586 -0.18099999 0
-1.3634338 1.5092539 -0.18099999 0
-1.2538314 1.5569432 -0.17811371 0
-1.1574284 1.5650724 -0.17628692 0
-1.0473721 1.5469694 -0.17524938 0
-0.94756287 1.5538741 -0.17346369 0
-0.86534154 1.5477712 -0.17174369 0
-0.75680798 1.5673612 -0.16975188 0
-0.65360022 1.5321296 -0.1687901 0
-0.55403739 1.5628109 -0.16737707 0
-0.45866665 1.5683333 -0.167 0
0.47250003 1.5645 -0.16249999 0
0.54471105 1.5547825 -0.16041833 0
0.64539957 1.5558171 -0.1593937 0
0.7518568 1.5716159 -0.15836686 0
0.84811831 1.5410471 -0.15756437 0
0.94518614 1.5440986 -0.15638608 0
1.0563213 1.5410916 -0.15505026 0
1.1505641 1.5521387 -0.15409087 0
1.2704284 1.5510355 -0.1519735 0
1.3597819 1.5555263 -0.15135981 0
1.4763675 1.5428143 -0.15025683 0
1.5593309 1.5443177 -0.14922892 0
1.6466416 1.5529916 -0.14795205 0
1.7346469 1.5515299 -0.14815278 0
1.8624821 1.5361238 -0.14779334 0
1.9666325 1.5721104 -0.1473034 0
2.0600834 1.5685432 -0.14646624 0
2.1601236 1.5409665 -0.14737265 0
-2.026 1.665 -0.2 0
-1.9952101 1.6395813 -0.1993233 0
-1.8704604 1.6510262 -0.19731086 0
-1.7854002 1.6136632 -0.19475843 0
-1.447 1.6059999 -0.18099999 0
-1.3516406 1.671342 -0.17858134 0
-1.2447391 1.6535485 -0.17619601 0
-1.1560001 1.655097 -0.17442697 0
-1.0496665 1.6786861 -0.17334163 0
-0.95572066 1.6517963 -0.17151557 0
-0.86070251 1.6502044 -0.17016411 0
-0.74916989 1.6605803 -0.16749191 0
-0.64863825 1.6487322 -0.16626386 0
-0.53905392 1.6381513 -0.16505897 0
-0.45670164 1.6660858 -0.16528562 0
-0.36014539 1.6563561 -0.16544335 0
-0.28400001 1.694 -0.16500001 0
0.35300002 1.6573334 -0.162 0
0.45773983 1.6631737 -0.16080117 0
0.56526119 1.6494089 -0.16019166 0
0.63707876 1.6623901 -0.15868016 0
0.71030867 1.6371814 -0.15805748 0
0.85094601 1.6500679 -0.1561996 0
0.96127224 1.6485205 -0.15507054 0
1.0446453 1.6577921 -0.15345179 0
1.1589174 1.6548257 -0.15245661 0
1.2547243 1.6579959 -0.15174161 0
1.329657 1.6686213 -0.15118411 0
1.4414749 1.6396369 -0.14976148 0
1.5269762 1.6761001 -0.14861751 0
1.659331 1.6567236 -0.14716655 0
1.7755222 1.6766555 -0.14560273 0
1.8644702 1.6417683 -0.14643046 0
1.9696758 1.6521339 -0.14538816 0
2.0393691 1.630481 -0.14609365 0
-2.1646745 1.7794615 -0.1919957 0
-2.0782056 1.7495244 -0.19655824 0
-1.9284167 1.7428595 -0.19789934 0
-1.488 1.788 -0.175 0
-1.3632557 1.7643664 -0.17510787 0
-1.2533247 1.7478746 -0.17418849 0
-1.1354772 1.7249596 -0.17391077 0
-1.0427712 1.771498 -0.17101452 0
-0.9420256 1.7515285 -0.16915978 0
-0.82244748 1.7426306 -0.16696751 0
-0.76045901 1.7680187 -0.16501974 0
-0.66692138 1.7359042 -0.16457894 0
-0.54445434 1.7370925 -0.16375247 0
-0.45599297 1.7359825 -0.16342179 0
-0.36723119 1.7669098 -0.1631428 0
-0.25219378 1.7456071 -0.16407907 0
-0.14899999 1.7704999 -0.163 0
0.124 1.793 -0.16 0
0.25428167 1.7430151 -0.16065519 0
0.36731941 1.7662085 -0.16020085 0
0.44159698 1.7419597 -0.15993637 0
0.56456667 1.7401592 -0.15893798 0
0.66832328 1.7549404 -0.15729234 0
0.7597065 1.7483152 -0.15656248 0
0.8736074 1.7407501 -0.15443419 0
0.94932663 1.746134 -0.15466155 0
1.035817 1.7522228 -0.15300044 0
1.151536 1.7688763 -0.15066846 0
1.2512076 1.7598536 -0.15095779 0
1.3425608 1.7478048 -0.14980586 0
1.4529271 1.7571017 -0.1486017 0
1.5473598 1.7660147 -0.14739959 0
1.6482465 1.7496386 -0.14607489 0
1.7320318 1.7563827 -0.14540318 0
1.8517312 1.7497437 -0.14421403 0
1.941 1.709 -0.145 0
5.040688 1.7436047 -0.12991661 0
-2.303349 1.8939229 -0.1839914 0
-2.2340119 1.8366922 -0.18799356 0
-2.1631837 1.8650446 -0.19129655 0
-2.0630317 1.8696315 -0.19144556 0
-1.9609023 1.8307762 -0.19693612 0
-1.816 1.892 -0.198 0
-1.5464127 1.8569807 -0.17432748 0
-1.4254681 1.8434138 -0.17453207 0
-1.3492476 1.8889791 -0.17366062 0
-1.2805039 1.8262544 -0.17400509 0
-1.1583259 1.8420407 -0.17265849 0
-1.054082 1.8534046 -0.16957654 0
-0.95454824 1.8686359 -0.16640313 0
-0.84077597 1.8333954 -0.16509563 0
-0.76168358 1.8757752 -0.16226742 0
-0.68411803 1.821944 -0.16279101 0
-0.44454741 1.8395401 -0.16163112 0
-0.34010166 1.8635725 -0.16133067 0
-0.24696796 1.8308768 -0.16162801 0
-0.15096839 1.8602552 -0.16066511 0
-0.0175 1.8705001 -0.16049999 0
0.069000006 1.847 -0.16 0
0.15869766 1.8660443 -0.1595678 0
0.24075583 1.8512211 -0.15837337 0
0.33832163 1.8370514 -0.15870638 0
0.46417955 1.8539277 -0.15825967 0
0.57035953 1.8504199 -0.15750144 0
0.64300007 1.8625588 -0.15646535 0
0.72912037 1.8442891 -0.15571919 0
0.83341122 1.8608015 -0.15503304 0
0.94645792 1.8525289 -0.15195936 0
1.0572178 1.8428243 -0.15213838 0
1.1527344 1.8702151 -0.15000738 0
1.2656893 1.8600347 -0.14858373 0
1.3471233 1.8416122 -0.14775243 0
1.445322 1.8556063 -0.14661132 0
1.54682 1.8724931 -0.14645688 0
1.6593437 1.8640757 -0.14546871 0
1.7670336 1.8334563 -0.14404342 0
-3.5485096 1.9766033 -0.14413464 0
-3.4349999 1.915 -0.16599999 0
-2.3726864 1.9511538 -0.17998925 0
-2.2652938 1.9532714 -0.18547449 0
-2.1417284 1.9734163 -0.18710537 0
-2.0393825 1.9350259 -0.19217113 0
-1.8775735 1.9561114 -0.19435856 0
-1.6523546 1.9519678 -0.17987914 0
-1.5327715 1.9361567 -0.17407688 0
-1.4367508 1.9644305 -0.17363475 0
-1.3468342 1.9409212 -0.17311576 0
-1.258 1.931 -0.17299999 0
-1.1604255 1.9345714 -0.17030603 0
-1.0424197 1.9475572 -0.16657007 0
-0.95550174 1.9647042 -0.16405837 0
-0.85778934 1.935406 -0.16292322 0
-0.73433834 1.9479269 -0.16066913 0
-0.65745342 1.929695 -0.15966712 0
-0.5348506 1.9601049 -0.15840022 0
-0.48264229 1.9471208 -0.1593934 0
-0.34784108 1.9211736 -0.15970069 0
-0.23865506 1.9407697 -0.15858278 0
-0.15009691 1.9421679 -0.15926217 0
-0.048268154 1.9527479 -0.1593771 0
0.079206191 1.9561533 -0.15866558 0
0.16636252 1.9557581 -0.15867192 0
0.25657171 1.9447113 -0.15739931 0
0.34604803 1.9723059 -0.15667284 0
0.44539157 1.9423378 -0.15731081 0
0.54606205 1.9490324 -0.15632503 0
0.64365405 1.9549042 -0.15576445 0
0.74670035 1.9509858 -0.15473366 0
0.8579433 1.9669408 -0.15364702 0
0.94908637 1.949948 -0.15195672 0
1.058585 1.94041 -0.14997739 0
1.1487287 1.9647484 -0.14991978 0
1.2142504 1.9366295 -0.14759967 0
1.344768 1.9529785 -0.14679775 0
1.4409664 1.947149 -0.14495926 0
1.5384893 1.9562712 -0.14508516 0
1.6450648 1.9390235 -0.14407957 0
1.7434165 1.9631619 -0.14521112 0
-3.7376924 2.0792754 -0.10769241 0
-3.6620193 2.0382066 -0.1222693 0
-3.0309999 2.056 -0.163 0
-2.5113609 2.0656152 -0.17198494 0
-2.4217322 2.0396457 -0.17684941 0
-2.3333673 2.0120893 -0.18159311 0
-2.2580793 2.0535789 -0.18161389 0
-2.1687651 2.0590518 -0.18434225 0
-2.0007205 2.0843344 -0.18707567 0
-1.939147 2.0202229 -0.19071712 0
-1.8024337 2.0689249 -0.18714537 0
-1.7336837 2.0329428 -0.18119131 0
-1.6155429 2.0423133 -0.17315379 0
-1.546206 2.043179 -0.17293224 0
-1.4459227 2.0502727 -0.17305903 0
-1.3312261 2.0389838 -0.17221892 0
-1.2458333 2.0592017 -0.1686171 0
-1.1354445 2.0284617 -0.16680801 0
-1.0723162 2.0621655 -0.1642078 0
-0.95283365 2.055938 -0.1620715 0
-0.85015726 2.0524311 -0.16014794 0
-0.75214869 2.0723209 -0.15823305 0
-0.68972045 2.0711696 -0.1580027 0
-0.55955195 2.0768147 -0.15720069 0
-0.44812331 2.054805 -0.15785275 0
-0.34696832 2.0443904 -0.15782277 0
-0.26496327 2.0443802 -0.15763098 0
-0.16008148 2.0830083 -0.15757294 0
-0.041048419 2.0593278 -0.1580056 0
0.078651212 2.0714564 -0.15747216 0
0.14618598 2.0632656 -0.15740682 0
0.23870373 2.0498905 -0.156827 0
0.35130587 2.0769506 -0.15579377 0
0.4593133 2.0400262 -0.15581377 0
0.55231988 2.0465736 -0.15494959 0
0.65147877 2.0639069 -0.15415092 0
0.75131452 2.0595577 -0.15340328 0
0.86278766 2.0520508 -0.15183048 0
0.95596027 2.0380158 -0.15165162 0
1.0566409 2.0532959 -0.1490449 0
1.1574183 2.0724745 -0.14826621 0
1.2532179 2.0491557 -0.14605613 0
1.3603894 2.0507672 -0.14430274 0
1.4385487 2.0419376 -0.14536437 0
1.5153898 2.0528526 -0.14193554 0
1.6423993 2.0387025 -0.14590347 0
1.7681701 2.0343742 -0.14225721 0
1.8325206 2.0657024 -0.14351389 0
-3.1388378 2.1337512 -0.1449478 0
-3.0249047 2.1558323 -0.15253185 0
-2.9589443 2.12393 -0.15909088 0
-2.8469999 2.1530001 -0.164 0
-2.6500354 2.1800768 -0.16398063 0
-2.5591431 2.1556945 -0.16896588 0
-2.4695141 2.129725 -0.17383035 0
-2.3556032 2.1455522 -0.17669806 0
-2.2658019 2.152071 -0.1784706 0
-2.062294 2.1484458 -0.18343423 0
-1.8591505 2.1358874 -0.18421805 0
-1.752984 2.1583796 -0.17178021 0
-1.6496267 2.1309853 -0.17241499 0
-1.5363827 2.1540356 -0.17290395 0
-1.445395 2.1320882 -0.172002 0
-1.3293493 2.1537876 -0.16830839 0
-1.250657 2.1551788 -0.16547053 0
-1.1575518 2.1545591 -0.1638336 0
-1.0418748 2.1481667 -0.16119224 0
-0.95490706 2.1290755 -0.16081028 0
-0.85928243 2.1466873 -0.15835518 0
-0.76104623 2.1551239 -0.15700287 0
-0.60990995 2.1594579 -0.15633129 0
-0.53715754 2.1659846 -0.15692219 0
-0.4287681 2.1533175 -0.15664321 0
-0.34817624 2.177783 -0.15586276 0
-0.27340108 2.1540532 -0.15580988 0
-0.16787222 2.1705127 -0.1563594 0
-0.06477873 2.1666899 -0.15658417 0
0.030695548 2.1299784 -0.15709981 0
0.12841381 2.1641808 -0.15630397 0
0.24880558 2.1380856 -0.15599051 0
0.35474646 2.1663241 -0.1549366 0
0.45575702 2.1495152 -0.15450668 0
0.54512411 2.141443 -0.1538012 0
0.65117741 2.1532621 -0.15289101 0
0.73256415 2.1395411 -0.15244997 0
0.8396309 2.1506605 -0.15199614 0
0.94975471 2.1627605 -0.15085803 0
1.0408708 2.1527798 -0.14839005 0
1.1537759 2.1456008 -0.14745979 0
1.2534437 2.1563668 -0.14509028 0
1.341 2.1643333 -0.14366667 0
1.4411474 2.1210935 -0.14111136 0
1.5494016 2.1476443 -0.14038277 0
1.641 2.175 -0.138 0
1.726781 2.1455307 -0.14424077 0
1.8572042 2.135849 -0.14030866 0
1.9216248 2.1682429 -0.14181668 0
-3.3185682 2.2633362 -0.11486081 0
-3.2466762 2.2115023 -0.12689561 0
-3.1576071 2.2639337 -0.13220668 0
-3.0847383 2.2111225 -0.14230445 0
-2.9544919 2.2352965 -0.14811584 0
-2.7190001 2.237 -0.16 0
-2.6056609 2.2473607 -0.16606757 0
-2.5181427 2.2988417 -0.168505 0
-2.4531269 2.2375259 -0.17178223 0
-2.3628387 2.2450905 -0.17259894 0
-2.154654 2.2446129 -0.17797208 0
-1.9442258 2.236331 -0.17982706 0
-1.8676822 2.2363749 -0.17062865 0
-1.7596902 2.2722282 -0.1713725 0
-1.649087 2.2501526 -0.17217369 0
-1.5461907 2.2495351 -0.17124404 0
-1.4532695 2.2189574 -0.17091712 0
-1.3368111 2.2294743 -0.16557707 0
-1.2417053 2.2592878 -0.16265571 0
-1.1409705 2.2287288 -0.16152158 0
-1.0593807 2.2428415 -0.15955032 0
-0.95593625 2.24017 -0.15755318 0
-0.84788758 2.2523539 -0.15655553 0
-0.74844092 2.241339 -0.15600541 0
-0.63521326 2.2459438 -0.15544172 0
-0.55860305 2.2537093 -0.15591401 0
-0.44602412 2.2414236 -0.15552428 0
-0.33610249 2.266305 -0.1548526 0
-0.23092133 2.2374725 -0.15458266 0
-0.14922027 2.2589862 -0.15530685 0
-0.068371639 2.255753 -0.15544558 0
0.022251362 2.2438672 -0.15562029 0
0.13476726 2.2542257 -0.15537995 0
0.23904872 2.2471552 -0.15530451 0
0.33758935 2.2544043 -0.15428796 0
0.44804144 2.2360528 -0.1535522 0
0.55214483 2.2524755 -0.15225154 0
0.6476438 2.2544003 -0.15152451 0
0.74896657 2.2485275 -0.1510002 0
0.84986275 2.2388167 -0.14991951 0
0.95935798 2.2527528 -0.14850534 0
1.0489528 2.2416298 -0.1481725 0
1.1555432 2.2444592 -0.14264913 0
1.2390006 2.2523408 -0.14506185 0
1.5540729 2.2411699 -0.1443345 0
1.7830355 2.2167492 -0.1431323 0
1.8392899 2.2879679 -0.14202385 0
1.9381961 2.2147007 -0.13956493 0
2.017 2.2780001 -0.14 0
-3.3534923 2.341166 -0.10874261 0
-3.2503729 2.3351464 -0.11786029 0
-3.1336453 2.372457 -0.12164223 0
-3.0619838 2.3175929 -0.13223167 0
-2.6753674 2.3075893 -0.1620931 0
-2.5480001 2.3269999 -0.167 0
-2.4598756 2.33811 -0.16672729 0
-2.2470143 2.3407803 -0.17250991 0
-2.0293009 2.3367746 -0.17543608 0
-1.9553013 2.3398459 -0.16961989 0
-1.8638573 2.3607831 -0.1703845 0
-1.793177 2.360301 -0.1710103 0
-1.6490736 2.3419383 -0.17138505 0
-1.5509043 2.362936 -0.16987568 0
-1.4348993 2.3549833 -0.16432299 0
-1.3528465 2.3522649 -0.1621799 0
-1.2508024 2.3385744 -0.16113341 0
-1.162237 2.365696 -0.15816925 0
-1.0743833 2.3388624 -0.15782657 0
-0.95543838 2.358866 -0.15559179 0
-0.83776319 2.3238628 -0.15500754 0
-0.77780116 2.3264236 -0.15500677 0
-0.63237995 2.3367867 -0.15450175 0
-0.55585372 2.3417249 -0.15536036 0
-0.45924881 2.3520746 -0.15420912 0
-0.35012811 2.3546314 -0.15369076 0
-0.2523644 2.3479178 -0.15275748 0
-0.15602535 2.346983 -0.15413356 0
-0.071964547 2.3448162 -0.15430696 0
0.034049176 2.3542299 -0.15422583 0
0.14112073 2.3442709 -0.15445596 0
0.25611269 2.3490818 -0.15413046 0
0.35858667 2.3528826 -0.1533175 0
0.45243192 2.3272159 -0.15225627 0
0.53697664 2.3634346 -0.15131024 0
0.64745879 2.3486133 -0.15017366 0
0.75210923 2.3418012 -0.14928451 0
0.85999334 2.3310966 -0.1485687 0
0.93980122 2.3533378 -0.14686364 0
1.0330845 2.3566864 -0.146834 0
1.1395397 2.3456976 -0.14263308 0
1.2495731 2.3692153 -0.14187676 0
1.307428 2.3522191 -0.13842931 0
1.6305909 2.3539624 -0.14241812 0
1.8955444 2.3591866 -0.14091538 0
-3.3894289 2.4199939 -0.10519105 0
-3.241137 2.4547534 -0.10575806 0
-2.7030001 2.4909999 -0.155 0
-2.5380001 2.4130001 -0.162 0
-2.3509164 2.4489648 -0.16636516 0
-2.1483674 2.4773498 -0.16929072 0
-2.057286 2.4301236 -0.16991033 0
-1.9466286 2.4669399 -0.16946138 0
-1.826035 2.4592848 -0.17141548 0
-1.7417603 2.4453356 -0.17149472 0
-1.6532856 2.4415596 -0.16984896 0
-1.5468014 2.453167 -0.1659936 0
-1.4496478 2.4678562 -0.16052002 0
-1.3505058 2.4569685 -0.15952377 0
-1.2724656 2.4669335 -0.15902519 0
-1.1705936 2.4737928 -0.15617682 0
-1.0590433 2.4492168 -0.15504086 0
-0.94170308 2.4670286 -0.1541611 0
-0.83759958 2.4387791 -0.15367554 0
-0.65665591 2.4234438 -0.15360209 0
-0.54269111 2.4342251 -0.15350497 0
-0.46655053 2.4858599 -0.15261944 0
-0.36415371 2.4429576 -0.15252891 0
-0.25306624 2.4564335 -0.1514191 0
-0.13357233 2.4346704 -0.15318778 0
-0.046800666 2.433398 -0.15292142 0
0.035447691 2.4438894 -0.15309243 0
0.14747417 2.4343162 -0.15353194 0
0.26607296 2.4374092 -0.15328504 0
0.35836112 2.4456065 -0.15249835 0
0.43929291 2.4245534 -0.1518846 0
0.54996556 2.4603047 -0.14984462 0
0.64362144 2.4420729 -0.14880618 0
0.7459352 2.4670739 -0.14828712 0
0.84521645 2.4602065 -0.14669499 0
0.94090521 2.4453979 -0.14586817 0
1.0459162 2.4565127 -0.14241476 0
1.1552876 2.4207084 -0.14061247 0
1.2891958 2.4306872 -0.14593409 0
1.7071092 2.4667549 -0.14050174 0
1.942 2.418 -0.14 0
-2.7692084 2.5511806 -0.14422877 0
-2.096 2.506 -0.168 0
-1.9379807 2.5160816 -0.1697187 0
-1.8345219 2.5504944 -0.17069274 0
-1.7280444 2.5235612 -0.1687616 0
-1.5516313 2.5382226 -0.16108356 0
-1.4273205 2.5506849 -0.15779084 0
-1.3623379 2.5565093 -0.15651339 0
-1.2452633 2.5516858 -0.15537992 0
-1.1367211 2.5477262 -0.15443084 0
-1.0633866 2.538604 -0.15301734 0
-0.95841056 2.5449901 -0.15300603 0
-0.86588186 2.5816779 -0.15201083 0
-0.72377491 2.5486448 -0.15232822 0
-0.65074062 2.5148008 -0.15263189 0
-0.56208611 2.5222945 -0.15243134 0
-0.44516307 2.5526905 -0.15155099 0
-0.34794742 2.5317407 -0.15105435 0
-0.26191065 2.5439224 -0.15015563 0
-0.13933438 2.5231154 -0.15205242 0
-0.049267441 2.5226309 -0.15174165 0
0.04772104 2.5539095 -0.15183295 0
0.15382764 2.5243611 -0.15260795 0
0.27199546 2.5572956 -0.15194234 0
0.34503284 2.5389283 -0.15193099 0
0.45556492 2.5447679 -0.15065522 0
0.55482954 2.5550442 -0.14839914 0
0.64510536 2.5420537 -0.14811039 0
0.74950004 2.5240002 -0.14649999 0
0.84000003 2.5310001 -0.1455 0
0.94437146 2.5251317 -0.14414327 0
1.008 2.5899999 -0.14300001 0
1.3513546 2.5502934 -0.14441431 0
1.7581213 2.5419497 -0.13922416 0
-2.9016254 2.6715417 -0.12268631 0
-2.835417 2.611361 -0.13345754 0
-2.6546388 2.6931524 -0.14149083 0
-2.5910001 2.6300001 -0.152 0
-1.638793 2.6725509 -0.15712093 0
-1.5556254 2.6200924 -0.15575729 0
-1.4419478 2.6756079 -0.15473269 0
-1.3314593 2.6476281 -0.1542691 0
-1.247 2.6289999 -0.154 0
-0.96317375 2.6613531 -0.15101358 0
-0.89524209 2.6667628 -0.15101218 0
-0.7617299 2.6783738 -0.15099388 0
-0.65510768 2.6484709 -0.15137726 0
-0.54818153 2.6131396 -0.15067492 0
-0.46037465 2.6411681 -0.15042952 0
-0.33261937 2.6389303 -0.14879543 0
-0.237 2.6029999 -0.15000001 0
-0.15673096 2.6267071 -0.15061137 0
-0.051734217 2.6118639 -0.1505619 0
0.03908664 2.6679354 -0.15029944 0
0.17277183 2.6408994 -0.15157466 0
0.27420476 2.6355262 -0.15132672 0
0.3612493 2.649622 -0.15070358 0
0.45113641 2.616425 -0.1503181 0
0.5345 2.609 -0.149 0
1.4135133 2.6698995 -0.14289454 0
1.807 2.6140001 -0.138 0
-3.0340424 2.7919025 -0.10114384 0
-2.967834 2.7317221 -0.11191508 0
-2.7182777 2.7563047 -0.13098167 0
-2.46 2.7509999 -0.148 0
-1.6589999 2.7294998 -0.155 0
-1.5208253 2.7146783 -0.15511927 0
-1.4791112 2.7769608 -0.13804695 0
-0.95978218 2.7493932 -0.15000716 0
-0.76501107 2.7686203 -0.15003477 0
-0.65100002 2.7709999 -0.15000001 0
-0.54299319 2.7401497 -0.14916551 0
-0.4427644 2.7321746 -0.14929414 0
-0.35431084 2.7218411 -0.14783283 0
-0.11873569 2.7060208 -0.15006147 0
-0.054600496 2.7155485 -0.14919108 0
0.039999999 2.73 -0.14950001 0
0.13555792 2.7225089 -0.15008187 0
0.23200001 2.7235 -0.15099999 0
0.32600001 2.7 -0.15099999 0
1.4549525 2.7496371 -0.14188136 0
-2.8455553 2.8826091 -0.10996336 0
-2.7819164 2.8194568 -0.12047251 0
-2.5469551 2.8550053 -0.1401854 0
-2.4348149 2.8567243 -0.14200731 0
-1.5222224 2.8549221 -0.1220939 0
1.4910001 2.819 -0.141 0
-2.6339104 2.9590104 -0.1323708 0
-2.5242593 2.9578969 -0.12702923 0
-2.3113568 2.9975069 -0.13937001 0
-2.257 2.925 -0.14300001 0
-1.5653336 2.932883 -0.10614085 0
-2.7498507 3.0976841 -0.12195133 0
-2.6676998 3.0605705 -0.11710977 0
-2.583889 3.0253453 -0.11704385 0
-2.3657138 3.0700138 -0.13574001 0
-2.8078208 3.167021 -0.1167416 0
-2.4200706 3.1425207 -0.13211001 0
-2.8657908 3.2363577 -0.11153186 0
-2.5287845 3.2875342 -0.12485002 0
-2.4744275 3.2150273 -0.12848002 0
-2.9527462 3.340363 -0.10371726 0
-2.5831413 3.3600411 -0.12122002 0
-2.6374981 3.432548 -0.11759003 0
-2.746212 3.5775619 -0.11033003 0
-2.6918552 3.505055 -0.11396003 0
-2.8005688 3.6500688 -0.10670003 0
-2.0688396 3.6399932 -0.10858472 0
-2.8410001 3.704 -0.104 0
-1.115 -3.2130001 -0.031000003 0
-1.1585629 -3.1400447 -0.026816469 0
-1.0927858 -3.1513443 -0.038858071 0
-1.125211 -3.0246899 -0.033042684 0
-1.0711856 -3.0560639 -0.035114307 0
-1.0674963 -2.9578619 -0.040921886 0
-1.518 -2.816 -0.033 0
-1.0284151 -2.880192 -0.06444671 0
-0.97199214 -2.8160803 -0.081587821 0
-1.4834301 -2.7528353 -0.044629999 0
-1.0309722 -2.7792337 -0.083015554 0
-0.96414185 -2.7463543 -0.078764789 0
-1.4214094 -2.6395135 -0.065494999 0
-0.9647609 -2.6622934 -0.093810245 0
-2.8429999 -2.5569999 -0.055 0
-2.7611198 -2.5253663 -0.072317317 0
-1.3593886 -2.5261915 -0.086359993 0
-2.7170157 -2.4473596 -0.069471166 0
-2.6436853 -2.4547362 -0.089654997 0
-3.937 -2.368 -0.032000002 0
-3.8595233 -2.321312 -0.024004191 0
-2.6487918 -2.3879862 -0.077307709 0
-2.5634484 -2.3451097 -0.090871237 0
-2.1640668 -2.3087964 -0.072512269 0
-3.8610001 -2.2309999 -0.085000001 0
-3.7433085 -2.2512796 -0.012010477 0
-2.5396719 -2.2381198 -0.049990389 0
-2.1131003 -2.2506945 -0.086018406 0
-3.746716 -2.1620407 -0.06450668 0
-3.6270936 -2.1812472 -1.6763806e-05 0
-2.6649425 -2.1581218 -0.077733271 0
-2.0640669 -2.1947963 -0.099012271 0
-3.6324322 -2.0930815 -0.044013366 0
-3.5562429 -2.0471087 -0.030351155 0
-3.4800537 -2.0011358 -0.016688943 0
-2.5580282 -2.0637691 -0.096436307 0
-3.4038644 -1.9551629 -0.0030267313 0
-4.4696226 -1.3858817 -0.041440487 0
-4.3712215 -1.355587 -0.059392869 0
-4.2436848 -1.3163226 -0.082660727 0
-3.404 0.51200002 -0.083999999 0
-3.3513706 0.50297987 -0.092451967 0
2.6486931 1.413682 -0.095523626 0
-3.851202 2.1408787 -0.085827067 0
-4.0320001 2.2390001 -0.050999999 0
-3.9647117 2.2024817 -0.063961729 0
-3.4623523 2.3670044 -0.090791211 0
-3.6061366 2.4706726 -0.066721611 0
-3.5342445 2.4188385 -0.078756414 0
-3.4490833 2.4751782 -0.091815591 0
-3.3629999 2.4247401 -0.098635688 0
-3.7119999 2.5469999 -0.048999995 0
-3.643086 2.5504987 -0.065736696 0
-3.5418015 2.5463629 -0.076629728 0
-3.4202905 2.5919142 -0.079284444 0
-3.3486292 2.53705 -0.089873895 0
-3.7219999 2.661 -0.061999999 0
-3.6784604 2.6454077 -0.057348188 0
-3.4919519 2.6467786 -0.068695001 0
-3.632 2.7539999 -0.048 0
-3.5636132 2.7016428 -0.058105551 0
-3.100251 2.8520832 -0.090372615 0
-3.2326679 2.9724443 -0.068830147 0
-3.1664593 2.9122639 -0.079601377 0
-2.909194 2.9457614 -0.099454194 0
-3.3650849 3.0928054 -0.04728768 0
-3.2988763 3.032625 -0.05805891 0
-3.0364716 3.0720658 -0.078435883 0
-2.9728327 3.0089138 -0.088945039 0
-1.6300004 3.0498245 -0.082211286 0
-3.3729999 3.0999999 -0.046000004 0
-3.1319299 3.1667943 -0.062672138 0
-2.7031486 3.1602423 -0.097073078 0
-1.6946672 3.1667662 -0.05828172 0
-3.2361939 3.2702613 -0.045454204 0
-2.822408 3.2951391 -0.077102304 0
-2.7627783 3.2276907 -0.087087691 0
-1.7377784 3.2447271 -0.042328671 0
-2.8820376 3.3625877 -0.067116924 0
-1.7808896 3.3226881 -0.026375622 0
-3.0376663 3.4749508 -0.078682937 0
-2.9416676 3.4300361 -0.057131536 0
-1.8240008 3.4006491 -0.010422587 0
-3.0380001 3.539 -0.041000001 0
-2.137358 3.7539725 -0.095338896 0
-2.183037 3.8299589 -0.086508349 0
-2.2515554 3.9439385 -0.073262528 0
-2.3200741 4.0579181 -0.060016695 0
-2.3657532 4.1339045 -0.051186144 0
-2.4445143 4.2649226 -0.035960209 0
-1.8234518 5.152401 -0.0064358148 0
5.5219998 -5.823 0.0060000001 0
5.4637847 -5.7589254 0.016955122 0
5.3473549 -5.6307759 0.038865373 0
5.40557 -5.6948504 0.027910247 0
5.2600327 -5.5346637 0.055298056 0
5.1727099 -5.4385519 0.071730733 0
5.0650001 -5.3200002 0.092 0
5.1144948 -5.3744769 0.082685858 0
-1.128 -3.1789999 0.0030000061 0
-1.126 -2.9579999 0.0049999999 0
-1.0744042 -2.8517711 0.013714831 0
