# .PCD v0.7 - Point Cloud Data file format
VERSION 0.7
FIELDS x y z intensity
SIZE 4 4 4 4
TYPE F F F F
COUNT 1 1 1 1
WIDTH 141
HEIGHT 1
VIEWPOINT 0 0 0 1 0 0 0
POINTS 141
DATA ascii
-11.632484 -9.6201468 17.215036 29
-10.238176 -9.8232918 14.50201 27
-9.4358225 -12.439917 17.454607 29
-6.9694886 0.82329935 0.0047550248 3
-6.7940331 0.90322274 0.070768617 4
-6.2067261 3.1901808 1.3483479 9
-6.0032883 3.497205 0.72681993 6
-6.1675787 3.1386318 1.7287307 10.5
-5.9644623 3.6122923 0.82702017 7
-5.8232851 4.0908899 1.8858768 11
-5.8071642 3.886188 2.1504693 12
-5.662569 4.6646791 1.0109247 7
-5.6581097 4.6994824 1.221992 8
-5.5573835 -3.0098927 0.68330276 6
-5.48632 -2.9669538 0.8552981 7
-5.5262885 -2.9859648 1.0403028 8
-5.5276127 4.9288011 1.9293844 11
-5.0447764 -3.5339031 0.36304978 5
-4.8942795 1.1971979 4.0710835 24
-4.82059 1.2347943 5.7681012 29
-4.5060048 2.094373 4.8793936 26.5
-4.2062783 2.9277856 4.0937815 23
-4.2144389 2.8835504 4.2487016 24
-3.7178953 -0.4391574 0.9341594 11
-3.7741756 -0.51239508 1.1201183 12
-3.563463 5.1988969 5.7760448 26
-3.4515381 5.0048018 6.007174 27
-3.2164357 -3.2255027 0.6560362 8
-3.1694672 -3.1995411 0.55803984 7
-2.8311458 0.87592667 -0.019692043 3
-2.8675475 0.82774454 0.032255687 4
-2.80323 0.65745968 0.75395828 11
-2.8645461 7.2707033 7.3366313 26
-2.930742 7.1508274 7.8397274 27
-2.7947001 0.90383464 0.16132931 5
-2.7599664 -3.0750594 0.26510432 5
-2.6569283 0.71288013 0.27994806 6
-2.7101383 0.76164418 0.85305613 12
-2.7526472 0.89773846 1.3502949 16
-2.5278668 2.6897531 0.047392793 3.5
-2.5963211 -3.3530884 1.836745 15.5
-2.3726623 2.5279007 0.25989497 6
-2.3693745 2.5226982 0.45792967 7
-1.9410238 -2.6027949 -0.036744729 3
-1.9353629 -3.5086386 1.7226864 15
-1.638788 -2.5132134 0.11738466 4
-1.6671795 -2.4735489 0.33834809 6.5
-1.6725626 2.2619987 0.3039138 7
-1.6527951 -2.5020986 0.45737046 8
-1.2222872 -2.7323339 -0.11016076 2
-1.3926466 -2.5006008 0.37655312 7
-1.0834088 -3.6014795 1.5865498 15
-1.0393727 11.931202 11.641437 27
-0.93137074 -2.7787216 0.14117935 5
-0.93272996 2.000571 0.31000164 8
-0.89927208 1.9848962 0.57119876 11
-0.85390037 1.9645679 0.61345768 12
-0.73747706 -2.8925757 0.049998 3.5
-0.60914123 1.8784375 0.053748515 4
-0.77973717 2.0146999 0.10459632 5
-0.77911079 1.9739571 0.28140217 7.3333335
-0.76409817 -2.8718281 0.48844916 8
-0.65526551 1.9134127 0.47945017 10.5
-0.6444754 1.8860052 0.61858702 12
-0.44963723 1.8187892 -0.097415477 2
-0.435231 1.834628 0.092591777 5
-0.49443233 -4.8667774 4.9932122 27
-0.22763248 1.7870458 0.38755521 10
-0.020656988 1.740093 -0.010533785 3
-0.05997682 1.7243297 0.096710078 5
0.14612332 -3.0135276 0.093992256 4
0.14305845 -2.9905012 0.13397129 5
0.16430834 1.6902595 0.17627366 6.5
0.11402749 -2.985383 0.30291459 6.5
0.10084809 1.6774241 0.28909597 8.5
0.13320294 1.6585099 0.51527244 12
0.23969401 1.6643326 0.41561055 10
0.54734558 1.8302363 0.38308427 9
0.40744308 1.7532119 0.48087987 11
0.74955082 -3.1760521 0.18628265 5
1.8049244 -4.6768541 0.25833949 5
3.5804453 -0.64333177 0.16545859 5
3.5621645 -0.76910466 0.37850481 6
3.5367453 -0.62296611 0.47135699 7
3.4985261 -0.62686443 0.62728268 8
3.5918629 -0.4572219 0.67034954 9
3.5333054 -0.64435458 0.82136518 10
3.6567485 -2.3079581 0.098452613 4
3.6602197 -2.2875304 0.36445254 6
3.6533647 -10.176007 3.6532688 13
3.7710123 -3.1106789 3.7460256 23
3.6434176 -10.121204 4.5042176 15
3.9052365 -3.1503584 3.5903399 22
4.1166191 -2.8964159 0.73370212 8
4.0367103 -3.1415591 0.96062428 9
4.0438895 -3.0839822 1.3166178 10.5
4.1209941 -2.9868164 1.85075 13.5
4.1379309 -2.7772133 2.7687035 18
4.0742345 -2.6752203 2.8885226 19
4.024653 -2.6031537 3.0333838 20
4.3814578 -9.8894577 1.9845914 9
4.2482448 -2.1027565 3.5776525 23
4.3566208 -1.8701084 3.4897714 22
4.3984818 -1.2595822 3.7885242 24
4.4351339 -2.3646147 2.6821721 18
4.5024486 -1.8346498 2.7220597 18
4.4415374 -1.4661795 2.906734 20
4.7755075 -0.49322358 2.9187367 20
4.6865659 -0.79457867 3.7377977 23
4.7668047 -9.9553385 3.8274329 13
4.9243412 -0.63044834 2.5111439 17
4.8650045 -0.65421039 2.8120449 19
5.0047021 1.0798265 0.42045662 6
5.0664558 -9.8980846 4.0480318 14
5.4104109 -0.26079753 0.30178124 5
5.7743945 -8.1309023 0.54864883 5
5.8115692 -8.0840702 0.28270692 4
5.938168 -9.7280617 3.9477973 13
5.9140668 -9.756978 4.1107602 14
6.1931973 -9.7061777 4.7613349 15
6.2715149 -9.5236769 2.2774086 9
6.645987 -9.5935383 2.9472528 11
6.9396882 -3.3273034 2.5869751 13
6.9098811 -3.3047006 3.0299008 14
7.1453066 6.6148896 0.44186056 5
7.4808612 6.4086552 0.82218987 6
7.782383 6.1465049 0.56653339 5
8.0578899 -9.3464079 2.5142026 9
8.2882977 -9.2510891 2.7566607 10
8.4102755 -9.1967115 1.8578999 8
8.6303768 -8.8836527 2.5482359 9
8.6709375 -20.893948 11.632632 17
8.7344236 -20.947002 16.334801 22
9.2060232 -20.809929 11.74567 18
9.7815218 -2.9174278 2.3606017 10
22.311234 8.6620045 4.8440838 9
29.279837 -2.4163227 10.351882 13
29.224709 -2.4692805 11.106826 14
29.42712 -1.797603 24.723579 24
30.94548 2.0373952 11.139204 14
30.842688 2.285876 18.247709 19
