# .PCD v0.7 - Point Cloud Data file format
VERSION 0.7
FIELDS x y z intensity
SIZE 4 4 4 4
TYPE F F F F
COUNT 1 1 1 1
WIDTH 1425
HEIGHT 1
VIEWPOINT 0 0 0 1 0 0 0
POINTS 1425
DATA ascii
19.140429 5.3196888 -0.8230685 0
19.102715 3.4353166 -0.79622656 0
19.142323 4.9647341 -0.76280296 0
19.103235 5.0581498 -0.7581926 0
19.192095 5.4980364 -0.75105047 0
19.126225 5.6160903 -0.74432451 0
19.15188 5.985137 -0.76606727 0
19.170168 6.1432686 -0.76349467 0
19.12973 6.2993364 -0.76247776 0
19.153822 6.3079729 -0.75860852 0
19.145906 6.4412966 -0.756791 0
19.110952 6.530652 -0.7536568 0
19.172426 6.6500964 -0.75506788 0
19.150021 6.7844152 -0.75193036 0
19.117237 6.8353767 -0.74393171 0
19.115519 7.5811796 -0.78180748 0
19.161507 7.7649369 -0.78104383 0
19.164474 7.8483315 -0.77977794 0
19.182407 8.0995302 -0.77408606 0
19.108263 8.1892242 -0.76822376 0
19.187708 8.4041014 -0.67017555 0
19.15723 8.5416269 -0.65420294 0
19.199217 8.6308327 -0.64245057 0
19.105381 8.7494402 -0.63366687 0
19.133898 8.8445892 -0.63203007 0
19.143044 8.9438677 -0.62920976 0
19.168009 9.0346022 -0.62720209 0
19.185596 9.1109295 -0.62534946 0
19.182394 11.586268 -0.5637762 0
19.117018 11.85125 -0.55573428 0
19.152201 11.98272 -0.55479509 0
19.175657 12.070367 -0.55416906 0
19.199112 12.158014 -0.55354291 0
19.107327 12.3873 -0.54391259 0
19.105576 12.475239 -0.54724717 0
19.149464 12.649364 -0.54294062 0
19.13192 12.762993 -0.53984994 0
19.164131 12.878936 -0.53840274 0
19.181185 12.967782 -0.53704119 0
19.198515 13.243142 -0.53220648 0
19.103563 13.560888 -0.52390677 0
19.167856 13.48489 -0.49669495 0
19.166685 13.574838 -0.49375305 0
19.167009 13.667912 -0.49061581 0
19.154148 13.790748 -0.48701516 0
19.117401 13.955556 -0.48035169 0
19.115492 14.090827 -0.47577319 0
19.142914 14.19633 -0.47489965 0
19.142561 14.264729 -0.47207791 0
19.147223 14.354775 -0.47003123 0
19.154217 14.489845 -0.46696121 0
19.157454 14.552341 -0.46554074 0
19.151237 15.840856 -0.42726782 0
19.152477 15.927373 -0.42295772 0
19.153719 16.013893 -0.41864762 0
19.157658 16.147451 -0.42397287 0
19.158905 16.279068 -0.41753793 0
19.185398 16.361938 -0.42825168 0
19.187231 16.450083 -0.42521095 0
19.189064 16.538227 -0.42217016 0
19.191814 16.670443 -0.41760907 0
19.161169 16.792032 -0.41393912 0
19.160891 16.877443 -0.4119978 0
19.16061 16.962852 -0.41005656 0
19.160332 17.048264 -0.40811527 0
19.159914 17.176376 -0.40520334 0
19.159374 17.341413 -0.4014523 0
19.159908 16.445702 -0.39713606 0
19.132856 17.052357 -0.39296642 0
19.131931 17.151978 -0.39748192 0
19.175409 18.340958 -0.36080489 0
19.175591 18.454216 -0.36067945 0
19.175728 18.539211 -0.36058527 0
19.175865 18.624207 -0.36049113 0
19.159834 18.740217 -0.36190933 0
19.156616 18.847366 -0.36042506 0
19.13069 18.930798 -0.35589054 0
19.123615 19.028273 -0.35253775 0
19.124565 19.115292 -0.34924316 0
19.133156 19.252476 -0.3436102 0
19.136396 19.4095 -0.33890057 0
19.148491 19.528965 -0.33490103 0
19.156734 19.604286 -0.33265316 0
19.151541 19.762917 -0.32851148 0
19.110653 19.852264 -0.32755032 0
19.114622 19.940443 -0.32685515 0
19.118593 20.028622 -0.32615995 0
19.189161 21.983868 -0.3051067 0
19.176775 22.118423 -0.30197012 0
19.184448 21.010328 -0.27495924 0
19.174932 21.109804 -0.27200243 0
19.178112 21.212578 -0.26775125 0
19.157597 21.347549 -0.26343256 0
19.157804 21.479742 -0.25984338 0
19.147608 21.60582 -0.25510186 0
19.160921 21.717543 -0.25253838 0
19.1369 21.819258 -0.2489159 0
19.136749 21.938343 -0.24637438 0
19.145248 22.071964 -0.24348234 0
19.158278 22.236334 -0.27964705 0
19.14942 22.358093 -0.26742753 0
19.143744 22.47724 -0.29360586 0
19.135487 22.566944 -0.29151481 0
19.199224 24.254318 -0.20927984 0
19.194187 24.36549 -0.2055319 0
19.161665 25.534271 -0.22691058 0
19.1689 25.628262 -0.22409372 0
19.178806 25.756962 -0.22023648 0
19.188715 25.885664 -0.21637928 0
19.19532 25.971466 -0.21380781 0
19.182648 24.670343 -0.19394366 0
19.183546 24.755718 -0.19049031 0
19.18433 24.830265 -0.18747504 0
19.117416 26.445379 -0.16915688 0
19.19562 26.57946 -0.16777372 0
19.15204 26.666889 -0.17057322 0
19.12114 26.749504 -0.16557297 0
19.150171 26.886389 -0.16307861 0
19.166965 26.978558 -0.1682044 0
19.148577 27.051079 -0.17867607 0
19.178701 27.134527 -0.16322656 0
19.137001 28.820499 -0.1540713 0
19.137203 28.95056 -0.14831209 0
19.182749 29.071136 -0.14685151 0
19.119867 29.224728 -0.14148141 0
19.163105 29.317057 -0.13925123 0
19.183153 29.657911 -0.13063546 0
19.197411 30.940445 -0.074031852 0
19.185667 31.030333 -0.071362413 0
19.168055 31.165163 -0.067358211 0
19.15044 31.299994 -0.063354045 0
19.138697 31.389881 -0.060684569 0
19.126955 31.479769 -0.058015089 0
19.115211 31.569654 -0.055345673 0
19.10347 31.659542 -0.052676205 0
19.195496 31.942554 -0.058896538 0
19.187981 32.031055 -0.057535741 0
19.176884 32.161716 -0.055526674 0
19.138683 33.948074 0.076017894 0
19.172737 34.092945 0.083757557 0
19.15065 34.163593 0.0937602 0
19.157845 34.257065 0.098240793 0
19.192177 34.289375 0.10049815 0
19.162546 34.395313 0.10326602 0
19.149595 34.441799 0.10800028 0
19.171381 34.554745 0.1120583 0
19.127512 34.681999 0.12071295 0
19.174952 34.804169 0.12445886 0
19.183537 35.969597 0.13369793 0
19.103704 36.099701 0.1408688 0
19.151672 36.204971 0.14560302 0
19.199642 36.310238 0.15033719 0
19.179247 40.036671 0.16575484 0
19.165377 40.109402 0.16717665 0
19.186892 40.239235 0.17319658 0
19.178349 40.4198 0.17896464 0
19.165476 40.533417 0.18746723 0
19.127075 36.207748 0.22276595 0
19.112673 36.310936 0.22910105 0
19.115686 36.433155 0.23439203 0
19.173534 36.532108 0.23685685 0
19.167227 36.614555 0.23971915 0
19.141312 36.727615 0.24651185 0
19.109362 36.805237 0.25208721 0
19.102327 37.205788 0.272268 0
19.146145 37.703632 0.26192191 0
19.120573 37.838768 0.26971218 0
19.117239 37.937412 0.27528006 0
19.141449 38.01495 0.27631223 0
19.161594 39.98003 0.29903463 0
19.192125 40.067593 0.29862806 0
19.106356 40.671173 0.20101368 0
19.152237 40.755447 0.20188026 0
19.155602 42.287132 0.26522779 0
19.194353 42.974705 0.2908057 0
19.163013 38.648026 0.30820638 0
19.19313 39.238239 0.37356937 0
19.183985 39.326523 0.38017964 0
19.174839 39.41481 0.38678998 0
19.165264 39.507248 0.39371115 0
19.117847 40.095478 0.30374533 0
19.104612 40.188297 0.30748063 0
19.142399 40.285931 0.30993775 0
19.127035 40.398888 0.31370568 0
19.182756 40.479271 0.31400478 0
19.197292 43.15609 0.30134603 0
19.124779 43.2006 0.30712008 0
19.170223 44.4772 0.36727366 0
19.111526 44.543316 0.37517434 0
19.246855 -0.83153993 -1.067229 0
19.289907 -0.27875951 -1.0580969 0
19.231703 0.1049486 -0.88244927 0
19.253214 0.59765434 -0.88021022 0
19.280607 0.7518599 -0.87681198 0
19.215637 1.0259628 -0.86259788 0
19.222898 1.1458876 -0.85949022 0
19.239515 1.2569314 -0.85693872 0
19.288254 1.3250629 -0.8590225 0
19.220228 1.459155 -0.84925753 0
19.233288 1.557798 -0.84774804 0
19.246775 1.651795 -0.84710896 0
19.248112 1.7352923 -0.84565312 0
19.29705 1.8131815 -0.84711844 0
19.266212 3.0654087 -0.89895272 0
19.259897 3.2502077 -0.8878293 0
19.202969 3.3448939 -0.80121642 0
19.272017 4.2048025 -0.8494541 0
19.277599 4.3343301 -0.84921747 0
19.215006 4.454504 -0.8439306 0
19.24065 5.0397434 -0.83166456 0
19.220076 5.1492424 -0.82933497 0
19.231068 5.3170786 -0.82617235 0
19.257967 5.379982 -0.75777644 0
19.298309 5.8955059 -0.77269411 0
19.241247 5.9797697 -0.76954108 0
19.232693 6.0791759 -0.7660535 0
19.289289 6.1591911 -0.7705282 0
19.239071 6.2506075 -0.76439947 0
19.229277 6.3524976 -0.76532406 0
19.28182 6.4671984 -0.76306748 0
19.231865 6.5364628 -0.75969106 0
19.251717 6.6771412 -0.75866103 0
19.254169 7.6494384 -0.78728259 0
19.2397 7.9180899 -0.78100258 0
19.26215 8.0160942 -0.78038692 0
19.244911 8.1822577 -0.67088389 0
19.254753 8.3468475 -0.67301744 0
19.267185 8.4961205 -0.65079832 0
19.253727 8.50424 -0.66421062 0
19.244406 8.6230869 -0.65178955 0
19.21109 8.7274771 -0.63994819 0
19.224123 8.8438578 -0.63657391 0
19.241043 8.9487438 -0.63273847 0
19.27417 9.0580015 -0.630068 0
19.273544 9.2098598 -0.62560821 0
19.281942 11.56196 -0.56844437 0
19.215137 11.666352 -0.56340778 0
19.247881 11.746436 -0.56303936 0
19.280624 11.826519 -0.56267095 0
19.222567 12.245662 -0.55291682 0
19.246023 12.333308 -0.55229074 0
19.269478 12.420956 -0.55166471 0
19.206764 13.101053 -0.53499877 0
19.266174 13.225505 -0.53370643 0
19.249397 13.323171 -0.53159487 0
19.230816 13.421256 -0.52960151 0
19.259523 13.524792 -0.51916224 0
19.27507 13.580508 -0.49816877 0
19.295355 13.658021 -0.49643081 0
19.215763 13.88873 -0.48642665 0
19.212856 14.001725 -0.48270097 0
19.238451 14.142248 -0.47910005 0
19.261873 14.270967 -0.47702494 0
19.25473 14.372973 -0.47292203 0
19.262648 14.454187 -0.47108626 0
19.272306 14.553287 -0.46884629 0
19.211538 15.641398 -0.43037486 0
19.217411 15.730157 -0.42685729 0
19.223282 15.818916 -0.42333966 0
19.23209 15.952056 -0.41806331 0
19.240898 16.085196 -0.41278696 0
19.254013 16.17371 -0.42440939 0
19.253807 16.277561 -0.41858569 0
19.26145 16.395851 -0.40047538 0
19.228931 16.796547 -0.41486385 0
19.23151 16.883961 -0.41263807 0
19.233614 16.948709 -0.41119421 0
19.273264 17.050484 -0.41244745 0
19.278244 17.180508 -0.41033128 0
19.284885 17.353874 -0.40750971 0
19.288378 17.445019 -0.40602633 0
19.26503 16.449968 -0.39833072 0
19.250557 18.732922 -0.36724231 0
19.256004 18.816027 -0.36408094 0
19.217598 18.925568 -0.35835028 0
19.22612 19.055443 -0.35417622 0
19.20956 19.22263 -0.34730658 0
19.221989 19.326359 -0.34371719 0
19.227322 19.412605 -0.3409541 0
19.240747 19.514105 -0.33771187 0
19.233412 19.609795 -0.33464059 0
19.244514 19.755808 -0.33032247 0
19.281376 19.970512 -0.33418646 0
19.243685 20.03034 -0.33059564 0
19.250689 20.131691 -0.33351967 0
19.218513 21.665031 -0.31253901 0
19.209806 21.759607 -0.31033435 0
19.20155 21.849312 -0.30824327 0
19.299763 22.192665 -0.30392978 0
19.287918 22.282177 -0.30164608 0
19.27512 21.007101 -0.27659187 0
19.287106 21.218542 -0.27020743 0
19.247116 21.356833 -0.26554185 0
19.229822 21.487398 -0.26163414 0
19.233082 21.575718 -0.25928479 0
19.237974 21.708199 -0.25576079 0
19.214703 21.838243 -0.25142416 0
19.217583 21.950798 -0.24838348 0
19.276075 22.371689 -0.29936245 0
19.264231 22.461201 -0.29707882 0
19.252386 22.550714 -0.29479516 0
19.213764 24.088686 -0.21297809 0
19.21703 24.176931 -0.21016371 0
19.296463 24.2505 -0.21428396 0
19.251419 24.460575 -0.20371372 0
19.237965 25.451778 -0.23452862 0
19.24243 25.527685 -0.23186734 0
19.247551 25.614779 -0.22881393 0
19.255234 25.745417 -0.22423384 0
19.262918 25.876055 -0.21965374 0
19.26804 25.963146 -0.21660036 0
19.237543 26.053753 -0.21239166 0
19.243406 26.1402 -0.20957917 0
19.205919 24.557438 -0.19815162 0
19.234987 24.662273 -0.19468465 0
19.268299 24.779533 -0.19178486 0
19.281258 24.852671 -0.18924266 0
19.254568 26.293364 -0.17497282 0
19.221432 26.396431 -0.17340258 0
19.268082 26.442961 -0.17366047 0
19.291893 26.590246 -0.17765644 0
19.253847 26.64077 -0.18410398 0
19.259184 26.777712 -0.16966605 0
19.276056 26.847889 -0.1837078 0
19.285837 26.930288 -0.1721115 0
19.256153 28.859623 -0.15700099 0
19.253269 28.972157 -0.15267581 0
19.255207 29.062988 -0.15036123 0
19.230856 29.180845 -0.14629976 0
19.244873 29.287767 -0.14394231 0
19.227894 29.395473 -0.14006852 0
19.212856 29.509956 -0.13635764 0
19.218254 29.629496 -0.13219576 0
19.240591 31.411547 -0.067061372 0
19.229317 31.5443 -0.065020144 0
19.218044 31.677052 -0.062978946 0
19.210527 31.765553 -0.06161816 0
19.203012 31.854053 -0.060257334 0
19.254957 33.977093 0.073944129 0
19.234941 34.088432 0.081433244 0
19.259825 34.10796 0.089823931 0
19.271999 34.241646 0.086838163 0
19.264259 34.40086 0.098792717 0
19.220909 34.400208 0.10322391 0
19.238892 34.544304 0.10884126 0
19.221769 34.680294 0.11381087 0
19.263161 34.803421 0.11658756 0
19.222393 34.926338 0.12820479 0
19.269835 35.048508 0.13195066 0
19.218899 36.045853 0.12801886 0
19.254635 40.660713 0.19322377 0
19.271658 40.763992 0.1983349 0
19.210562 36.183678 0.21924646 0
19.294613 36.200375 0.21704374 0
19.236868 36.33345 0.22520985 0
19.204821 36.495171 0.23114428 0
19.267433 37.33802 0.27194715 0
19.219116 37.75576 0.25996244 0
19.227081 37.90884 0.26679307 0
19.254011 38.010052 0.27024201 0
19.295681 38.391617 0.28737292 0
19.27692 38.47776 0.2924639 0
19.289488 38.583229 0.29743108 0
19.272383 39.794842 0.28857443 0
19.245111 39.876072 0.29084334 0
19.266598 39.95789 0.29168674 0
19.29199 40.058731 0.29487336 0
19.242105 42.263447 0.26120135 0
19.285606 42.912548 0.28562751 0
19.265715 43.11409 0.2958979 0
19.256886 38.746574 0.31857353 0
19.235626 38.850594 0.328648 0
19.215996 39.017525 0.35704362 0
19.202276 39.149952 0.36695907 0
19.288588 39.342079 0.3773351 0
19.28091 39.430428 0.38412586 0
19.27306 39.520782 0.39107049 0
19.217636 40.177567 0.30221519 0
19.237143 40.255581 0.3045508 0
19.230564 40.367634 0.30873486 0
19.263779 40.46257 0.31070858 0
19.251091 40.540771 0.31361359 0
19.258268 44.378021 0.35542279 0
19.331995 -0.86271995 -1.0737854 0
19.376017 -0.29511359 -1.0516088 0
19.320507 0.093972176 -0.87623274 0
19.311489 0.92569977 -0.87298113 0
19.33465 1.0560799 -0.87010789 0
19.350092 1.1429999 -0.86819249 0
19.373253 1.27338 -0.86531931 0
19.349905 1.7288601 -0.85427105 0
19.338728 1.8865856 -0.84872878 0
19.32649 1.9378662 -0.84632272 0
19.367661 3.1695812 -0.86837733 0
19.303223 3.2544713 -0.80620629 0
19.363684 3.3380904 -0.88696426 0
19.37817 4.2491169 -0.85086286 0
19.399475 4.3786721 -0.84987503 0
19.31094 4.4695272 -0.84567726 0
19.386602 4.5466967 -0.84369636 0
19.318531 4.6027579 -0.84462368 0
19.362503 5.0530672 -0.83559853 0
19.353628 5.1556354 -0.83350831 0
19.307472 5.2792397 -0.82941705 0
19.389709 5.1438732 -0.77122825 0
19.345797 5.2225761 -0.76674438 0
19.301882 5.3012791 -0.76226032 0
19.397585 5.8587179 -0.77605844 0
19.379166 5.953455 -0.76070887 0
19.351027 6.0530796 -0.77254194 0
19.343958 6.2567892 -0.76764303 0
19.301868 6.3466902 -0.77381277 0
19.36751 6.4021568 -0.76753134 0
19.351503 6.5368958 -0.76559645 0
19.338217 6.6487312 -0.7639904 0
19.332119 7.5675764 -0.79225779 0
19.342457 7.8636971 -0.78588367 0
19.357046 7.9758635 -0.78450155 0
19.3197 8.0854769 -0.78116137 0
19.364876 7.7868681 -0.69955182 0
19.335459 7.8893509 -0.69467431 0
19.310833 7.9751425 -0.69059122 0
19.329906 8.0831804 -0.68491793 0
19.349092 8.1364202 -0.67351216 0
19.331198 8.2603359 -0.66817719 0
19.384415 8.4355574 -0.65868068 0
19.377651 8.5488501 -0.65384591 0
19.393934 8.6284103 -0.66360241 0
19.351151 8.7028494 -0.64712769 0
19.318727 8.8070688 -0.64157408 0
19.328707 8.9207706 -0.6391108 0
19.348989 9.0306091 -0.63470316 0
19.363485 9.1007071 -0.63342738 0
19.382034 11.532296 -0.57323045 0
19.320053 11.639984 -0.56825238 0
19.321486 11.728978 -0.56611609 0
19.375984 11.847138 -0.56580406 0
19.329742 11.946645 -0.56211829 0
19.378857 12.066771 -0.56156558 0
19.302216 12.543288 -0.55079079 0
19.32465 13.449267 -0.5169149 0
19.348232 13.535806 -0.51637453 0
19.381905 13.654124 -0.49850792 0
19.339769 13.754431 -0.49556437 0
19.359568 13.847049 -0.49344832 0
19.365185 13.966216 -0.48977149 0
19.354584 14.145204 -0.48394334 0
19.34133 14.279809 -0.47945261 0
19.309605 14.380206 -0.47541258 0
19.319195 14.461902 -0.47383976 0
19.331854 14.569757 -0.47176328 0
19.350174 16.19323 -0.44061407 0
19.350075 16.301441 -0.43411732 0
19.356251 16.444296 -0.42988595 0
19.357597 16.577648 -0.42477894 0
19.367752 16.660572 -0.42297128 0
19.346855 16.748829 -0.41921076 0
19.356298 16.878548 -0.41547173 0
19.362869 16.968798 -0.41287032 0
19.378433 18.744427 -0.36976588 0
19.310041 18.916677 -0.36259818 0
19.313894 19.009724 -0.35847622 0
19.331623 19.125423 -0.35580269 0
19.326828 19.204151 -0.35262191 0
19.314098 19.31172 -0.3476119 0
19.33436 19.420801 -0.34455484 0
19.344742 19.507862 -0.34174463 0
19.356724 19.64855 -0.33674195 0
19.361441 19.805483 -0.33227161 0
19.344534 20.122822 -0.32332411 0
19.358887 20.220743 -0.32472616 0
19.389622 20.348591 -0.31940466 0
19.389233 20.492809 -0.31731647 0
19.37941 20.579119 -0.3159093 0
19.369585 20.66543 -0.31450212 0
19.359762 20.75174 -0.31309497 0
19.372791 21.640732 -0.31801078 0
19.35306 21.78986 -0.31420618 0
19.335293 21.924128 -0.31078073 0
19.32345 22.013641 -0.30849707 0
19.311605 22.103153 -0.30621341 0
19.340065 21.118752 -0.27599856 0
19.369335 21.22555 -0.27297252 0
19.367313 21.311554 -0.27098614 0
19.363708 21.401844 -0.26795682 0
19.364164 21.512484 -0.26481035 0
19.37248 21.612667 -0.26137948 0
19.344946 21.716587 -0.25843257 0
19.355913 21.84931 -0.2552875 0
19.363226 21.937792 -0.25319082 0
19.370066 22.020565 -0.25122935 0
19.381493 23.295387 -0.28512734 0
19.371765 23.433685 -0.27861771 0
19.333302 24.031063 -0.21884482 0
19.342602 24.120213 -0.21608301 0
19.384457 24.23835 -0.21581185 0
19.343632 24.341496 -0.21101525 0
19.323008 24.56588 -0.20213766 0
19.320698 24.680004 -0.19737704 0
19.354376 24.767382 -0.19488472 0
19.360811 24.864746 -0.19110581 0
19.378166 26.348648 -0.17854597 0
19.318745 26.491131 -0.17449054 0
19.386017 26.570829 -0.18178919 0
19.345192 26.660252 -0.17939903 0
19.383663 26.76918 -0.17962405 0
19.390293 26.863585 -0.19020522 0
19.382772 26.928682 -0.17765543 0
19.351208 27.037731 -0.18761688 0
19.320938 27.145927 -0.18724503 0
19.352819 28.97961 -0.15622933 0
19.351551 29.057877 -0.1542823 0
19.309433 29.129898 -0.15114707 0
19.348379 29.253546 -0.14941473 0
19.346972 29.340319 -0.14725608 0
19.337112 29.460094 -0.14251521 0
19.327253 29.579872 -0.13777433 0
19.320681 29.659725 -0.13461375 0
19.313953 29.74143 -0.13137978 0
19.342089 33.944431 0.066345721 0
19.346563 34.047314 0.080885336 0
19.351566 34.162357 0.081176303 0
19.356335 34.268848 0.085075028 0
19.350817 34.403667 0.096053414 0
19.33552 34.544281 0.10575981 0
19.326992 34.692383 0.11557869 0
19.304554 34.926552 0.11936428 0
19.33215 35.008636 0.1212154 0
19.349062 40.760494 0.19524011 0
19.357103 40.825138 0.19792177 0
19.398922 36.679745 0.2361318 0
19.384285 36.777973 0.24098901 0
19.37974 36.860603 0.24584161 0
19.361931 36.993019 0.2524406 0
19.34412 37.125431 0.25903958 0
19.311411 37.221104 0.26461574 0
19.312887 37.749908 0.25525275 0
19.338482 37.813255 0.25702867 0
19.336708 37.955463 0.26397744 0
19.364473 38.075748 0.26870582 0
19.357128 38.25592 0.27843291 0
19.314444 38.30547 0.28228191 0
19.355236 38.425388 0.28723165 0
19.378197 38.521778 0.28975803 0
19.399611 38.716759 0.29706258 0
19.316698 39.720768 0.28439036 0
19.347902 39.929535 0.28799105 0
19.367357 40.134335 0.2959215 0
19.328609 42.239761 0.25717491 0
19.3615 42.871586 0.28190321 0
19.334137 43.072094 0.29044983 0
19.342327 38.723614 0.32979974 0
19.33465 38.811966 0.3365905 0
19.335306 38.931644 0.33370352 0
19.311619 39.077023 0.3569628 0
19.300104 39.209549 0.36714897 0
19.326071 40.269348 0.30206358 0
19.320782 40.362965 0.30542642 0
19.397831 40.438572 0.30391678 0
19.355324 40.560322 0.31029534 0
19.335991 40.615696 0.31319645 0
19.308334 43.247391 0.305309 0
19.417137 -0.89389938 -1.0803419 0
19.462128 -0.31146768 -1.0451207 0
19.417315 -0.27003813 -0.9091391 0
19.428537 -0.14785077 -0.90696687 0
19.475542 -0.046682369 -0.9075017 0
19.44512 0.032681935 -0.90375751 0
19.453411 0.12294864 -0.90215284 0
19.461702 0.21321487 -0.90054816 0
19.45348 2.7254882 -0.91994244 0
19.409311 0.082995869 -0.87001622 0
19.478285 0.39374733 -0.89733869 0
19.421169 0.59241295 -0.88792962 0
19.479326 0.67081356 -0.89025503 0
19.44198 0.77276278 -0.88353926 0
19.48563 0.85294104 -0.88490075 0
19.46262 0.95159149 -0.87918597 0
19.483257 1.1304197 -0.87483269 0
19.493576 1.2198339 -0.87265605 0
19.472315 1.5513685 -0.86200291 0
19.475325 1.7138181 -0.86141461 0
19.426975 1.8022554 -0.85706663 0
19.436333 1.9196317 -0.85378408 0
19.436895 3.1339076 -0.81285936 0
19.466711 3.249145 -0.89664644 0
19.46747 3.4259732 -0.88609922 0
19.429392 4.147253 -0.85323948 0
19.454487 4.2809753 -0.85187566 0
19.459967 4.4443493 -0.85019356 0
19.44952 4.6404095 -0.8475064 0
19.475353 5.0630126 -0.83969408 0
19.438955 5.0556173 -0.77625644 0
19.479652 5.3437419 -0.78969508 0
19.468227 5.4154401 -0.78779644 0
19.447035 5.5484238 -0.78427511 0
19.425842 5.6814065 -0.78075367 0
19.444065 5.7586446 -0.77100396 0
19.425116 5.8461094 -0.76501453 0
19.463938 5.9316826 -0.7637468 0
19.463282 6.0281892 -0.76874906 0
19.425705 6.1740007 -0.77690691 0
19.464911 6.2428856 -0.7835542 0
19.429573 6.3529611 -0.77665812 0
19.437872 6.4653416 -0.7712509 0
19.426105 6.5888395 -0.77012062 0
19.461655 7.4699664 -0.75621927 0
19.48049 7.7395048 -0.70305008 0
19.466501 7.8156137 -0.74600464 0
19.444479 7.9488573 -0.78763342 0
19.462421 8.2480707 -0.78191042 0
19.471378 8.3705454 -0.7746433 0
19.430841 7.9467831 -0.69441193 0
19.445799 8.0564375 -0.68433809 0
19.446186 8.1701937 -0.67886811 0
19.445839 8.3568382 -0.66572261 0
19.463526 8.4828634 -0.6674192 0
19.476089 8.5651293 -0.66460764 0
19.468409 8.6237612 -0.66797513 0
19.400984 8.7994442 -0.64615244 0
19.436337 8.9465628 -0.6419785 0
19.465988 9.0997953 -0.6415121 0
19.421608 9.1989946 -0.63298261 0
19.428646 11.156165 -0.57742625 0
19.467079 11.26995 -0.5710097 0
19.483789 11.497472 -0.57767236 0
19.49757 11.58459 -0.57660109 0
19.428608 11.651389 -0.57241303 0
19.434731 11.784312 -0.56982887 0
19.474621 11.861587 -0.56965286 0
19.430485 11.9653 -0.56549215 0
19.442909 12.142472 -0.56244779 0
19.449049 13.527356 -0.50717103 0
19.485193 13.657905 -0.503106 0
19.49634 13.761118 -0.50039089 0
19.485979 15.11262 -0.52353972 0
19.490305 15.2452 -0.51598012 0
19.491602 15.37996 -0.50630331 0
19.493187 13.856037 -0.49761999 0
19.495544 13.949156 -0.49532986 0
19.411026 14.067294 -0.48803043 0
19.428831 14.177694 -0.48606104 0
19.426035 14.265957 -0.48338979 0
19.447044 14.381404 -0.48016152 0
19.461708 14.466451 -0.47837207 0
19.480455 14.575343 -0.47607857 0
19.456682 15.61246 -0.4395912 0
19.459314 15.763129 -0.434403 0
19.464323 15.881879 -0.43002093 0
19.438068 15.972637 -0.42648533 0
19.445456 16.059471 -0.42290935 0
19.456421 16.166267 -0.43209097 0
19.463921 16.276554 -0.41396943 0
19.451899 16.306564 -0.43748942 0
19.46693 16.447487 -0.41965169 0
19.432552 16.57342 -0.42840084 0
19.453999 16.756783 -0.42240417 0
19.409813 16.880688 -0.41637409 0
19.417332 16.959129 -0.41403395 0
19.421946 18.786522 -0.3694616 0
19.454235 18.932487 -0.36594287 0
19.41497 19.049206 -0.36007562 0
19.425524 19.253609 -0.3529411 0
19.422276 19.407413 -0.34717393 0
19.447582 19.516705 -0.34449258 0
19.434139 19.644556 -0.33950308 0
19.442015 19.778856 -0.33582824 0
19.444746 19.866526 -0.33333987 0
19.459862 20.102932 -0.32483721 0
19.484932 20.213047 -0.32359666 0
19.482901 20.346409 -0.32055873 0
19.478565 22.301126 -0.30591699 0
19.453009 22.433516 -0.30239454 0
19.43597 22.521774 -0.30004618 0
19.441605 21.03318 -0.28132054 0
19.482006 21.129837 -0.28055367 0
19.474073 21.221333 -0.27510619 0
19.423241 21.522886 -0.26858833 0
19.421944 21.655228 -0.26122305 0
19.426653 21.746624 -0.26262265 0
19.438116 21.836426 -0.26053664 0
19.449581 21.926228 -0.25845057 0
19.46225 22.026415 -0.25611871 0
19.491222 22.951275 -0.29111159 0
19.469135 23.095411 -0.28797936 0
19.451462 23.203819 -0.28458646 0
19.461721 23.309353 -0.28068584 0
19.453917 23.453056 -0.27663976 0
19.456556 24.04151 -0.22301069 0
19.450218 24.12254 -0.21996479 0
19.464252 24.211178 -0.2174633 0
19.474644 24.32641 -0.21392968 0
19.453156 24.44548 -0.20979832 0
19.416763 24.546053 -0.20537464 0
19.425983 24.633762 -0.20235583 0
19.407078 25.537109 -0.23249727 0
19.449093 25.619341 -0.22952177 0
19.449467 25.71143 -0.22700435 0
19.4501 25.838982 -0.22348492 0
19.414156 25.971191 -0.21910383 0
19.415558 26.057072 -0.21645398 0
19.416958 26.142952 -0.21380417 0
19.447416 24.742636 -0.1991073 0
19.448992 24.852316 -0.19468038 0
19.454845 24.908043 -0.19277774 0
19.404457 26.474104 -0.17948645 0
19.473986 26.53129 -0.18108727 0
19.483837 26.626032 -0.17635736 0
19.416771 26.704411 -0.17152716 0
19.485308 26.808857 -0.17081992 0
19.478668 26.932018 -0.16641548 0
19.423447 27.032757 -0.16669251 0
19.435457 27.144785 -0.17318721 0
19.406853 27.210382 -0.19029132 0
19.474962 29.028934 -0.15871425 0
19.477776 29.138397 -0.15664026 0
19.485228 29.233809 -0.15343376 0
19.489401 29.316589 -0.15129745 0
19.489471 29.402941 -0.14956442 0
19.483335 29.539326 -0.14492695 0
19.497154 29.639362 -0.14133058 0
19.491348 29.735245 -0.13775536 0
19.47773 29.800316 -0.1347134 0
19.407265 33.959541 0.074372031 0
19.437286 34.053913 0.070275754 0
19.434681 34.171131 0.075610608 0
19.444647 34.200752 0.077699348 0
19.449001 34.300156 0.084252618 0
19.449402 34.445282 0.094410583 0
19.452326 34.59605 0.10465335 0
19.484064 34.729855 0.11200079 0
19.437933 36.384701 0.22097857 0
19.422983 36.483932 0.22576666 0
19.410158 36.594948 0.23179357 0
19.457716 37.806232 0.25196218 0
19.433779 37.943531 0.25999114 0
19.471045 38.086151 0.26492974 0
19.456268 38.175018 0.26977167 0
19.467409 38.271717 0.2733424 0
19.463865 38.384903 0.27897882 0
19.49272 38.464249 0.28156906 0
19.495316 38.582924 0.28716707 0
19.420477 38.601135 0.29084653 0
19.453787 39.931122 0.28589934 0
19.40193 40.053051 0.29191267 0
19.482845 40.195072 0.29115981 0
19.454508 40.276237 0.29541212 0
19.426168 40.357403 0.29966447 0
19.443155 42.179379 0.25429776 0
19.473576 42.229088 0.24797276 0
19.454451 43.025711 0.28517362 0
19.407661 43.179935 0.29479951 0
19.419352 38.813114 0.30106226 0
19.46594 39.012554 0.30777651 0
19.498793 39.385612 0.36598289 0
19.493885 39.475777 0.37204775 0
19.488977 39.565937 0.37811261 0
19.482775 39.679852 0.38577494 0
19.544344 -0.94008225 -1.0822823 0
19.548237 -0.32782173 -1.0386326 0
19.501696 -0.21939303 -0.91318601 0
19.508108 -0.12563945 -0.911376 0
19.520403 0.054079045 -0.90790641 0
19.526548 0.14393853 -0.90617162 0
19.532696 0.23379754 -0.90443677 0
19.504417 0.31356883 -0.9008227 0
19.510176 2.7888196 -0.91917819 0
19.599634 2.8887489 -0.91797233 0
19.542519 0.066531293 -0.86069143 0
19.515781 0.44876504 -0.8983506 0
19.538607 0.54356658 -0.89752293 0
19.585438 0.66616011 -0.89608389 0
19.548388 0.77494287 -0.89151514 0
19.576733 0.94263601 -0.88757795 0
19.539257 1.063338 -0.88238209 0
19.575241 1.2123749 -0.88078493 0
19.537487 1.3627464 -0.87288475 0
19.537737 1.4907446 -0.86802566 0
19.551678 1.6678977 -0.86663336 0
19.549816 1.7875571 -0.86259061 0
19.502138 1.8507698 -0.85932124 0
19.54294 1.9166639 -0.85965264 0
19.586554 2.6510253 -0.81684381 0
19.537149 3.0434854 -0.81784922 0
19.533543 3.3103907 -0.89587766 0
19.536661 3.4845617 -0.88552254 0
19.55085 4.2042937 -0.85561681 0
19.530802 4.3128328 -0.85288852 0
19.561975 4.4377952 -0.8507517 0
19.568235 4.5153961 -0.85386884 0
19.536844 4.6655107 -0.84942824 0
19.577944 5.0749655 -0.84539539 0
19.552153 5.6589017 -0.76967633 0
19.548456 5.8504176 -0.77294683 0
19.562269 5.9576397 -0.76783919 0
19.562239 6.0501065 -0.77101475 0
19.51536 6.1457405 -0.78198886 0
19.540991 6.2558079 -0.77738202 0
19.572319 6.3622007 -0.77721006 0
19.512716 6.5089092 -0.7744078 0
19.558134 7.362783 -0.76378888 0
19.53965 7.4657607 -0.75950158 0
19.517376 7.6699696 -0.7330966 0
19.545946 7.7198009 -0.7948119 0
19.570675 7.8890848 -0.72558439 0
19.574272 8.0325556 -0.79009718 0
19.531046 8.1572075 -0.78583729 0
19.565727 8.229188 -0.78145677 0
19.54883 8.7318783 -0.7301535 0
19.557137 7.993217 -0.68666071 0
19.518175 8.0333586 -0.69016981 0
19.510176 8.1849413 -0.67563248 0
19.569275 8.2426481 -0.68292296 0
19.53524 8.3524599 -0.6768896 0
19.54351 8.4483995 -0.67308378 0
19.574963 8.5517588 -0.67029935 0
19.537458 8.6458225 -0.66420174 0
19.511049 8.7737541 -0.6524778 0
19.523516 8.8877373 -0.64887196 0
19.537731 8.9556799 -0.64682001 0
19.56291 9.0784521 -0.64365739 0
19.553524 9.1595001 -0.64238006 0
19.547159 10.280467 -0.59924221 0
19.567745 11.556231 -0.5797435 0
19.544489 11.658589 -0.57700884 0
19.551779 11.745553 -0.57530695 0
19.555521 11.833925 -0.57318616 0
19.514509 11.93886 -0.5694769 0
19.574341 12.054771 -0.56921297 0
19.523018 12.165924 -0.56496251 0
19.570562 13.54943 -0.51240456 0
19.582268 13.656569 -0.50615871 0
19.591139 13.754926 -0.50317216 0
19.597996 13.846166 -0.50182676 0
19.561886 14.666102 -0.53739339 0
19.575653 14.771842 -0.53442401 0
19.564837 14.887272 -0.52958012 0
19.514994 14.941943 -0.52883506 0
19.529099 15.030038 -0.52436376 0
19.541185 15.119584 -0.51848084 0
19.590837 13.929543 -0.49888787 0
19.526669 14.050179 -0.4936814 0
19.527784 14.151554 -0.49094459 0
19.540819 14.253885 -0.48828688 0
19.546068 14.364396 -0.48481277 0
19.578178 14.472196 -0.48271632 0
19.596447 14.55652 -0.48093128 0
19.575954 14.603601 -0.47878668 0
19.511726 15.966452 -0.42677698 0
19.525486 16.054951 -0.42357343 0
19.551733 16.162369 -0.43394297 0
19.550541 16.258703 -0.42984396 0
19.567327 16.352209 -0.42754349 0
19.576771 16.45295 -0.42299029 0
19.569262 16.579432 -0.43241367 0
19.536314 16.665964 -0.42804065 0
19.5182 16.881214 -0.41955584 0
19.530977 16.96904 -0.41697204 0
19.515388 18.815973 -0.37220904 0
19.515451 19.009838 -0.36446428 0
19.524361 19.154858 -0.36028019 0
19.538868 19.298624 -0.35477579 0
19.534508 19.396755 -0.35107166 0
19.552162 19.483105 -0.34874889 0
19.524834 19.60339 -0.3444359 0
19.52964 19.749874 -0.3395322 0
19.544907 19.883957 -0.33583295 0
19.570633 20.077261 -0.33009553 0
19.557154 20.165314 -0.32817677 0
19.597725 20.237823 -0.32914886 0
19.574108 20.451929 -0.32386413 0
19.547569 20.581129 -0.32055432 0
19.529875 20.667263 -0.31834778 0
19.51218 20.753395 -0.31614122 0
19.589308 21.727444 -0.32118115 0
19.572271 21.815702 -0.31883281 0
19.546715 21.948092 -0.31531033 0
19.521158 22.080479 -0.31178784 0
19.50412 22.168739 -0.30943951 0
19.563711 21.043524 -0.2850351 0
19.565983 21.122595 -0.28361678 0
19.568789 21.229307 -0.27829811 0
19.59886 21.356384 -0.27487338 0
19.501261 22.082247 -0.25584248 0
19.572371 22.893389 -0.29509643 0
19.590282 22.995846 -0.29285011 0
19.563765 23.108807 -0.28861055 0
19.554668 23.212513 -0.28578734 0
19.57103 23.310638 -0.28392592 0
19.558262 23.448425 -0.28121689 0
19.565248 24.142525 -0.22472376 0
19.583937 24.230536 -0.22248797 0
19.581121 24.318966 -0.22121224 0
19.524416 24.539246 -0.20849353 0
19.534424 24.654373 -0.20495576 0
19.548458 24.743011 -0.20245425 0
19.567095 25.724518 -0.22343707 0
19.564682 25.824903 -0.22194909 0
19.525015 25.934214 -0.22078298 0
19.535435 26.034704 -0.21887705 0
19.521515 26.140875 -0.21692477 0
19.527918 26.371239 -0.21185507 0
19.526682 26.529865 -0.20833431 0
19.525637 26.664114 -0.20535468 0
19.524939 26.753613 -0.20336823 0
19.524242 26.843109 -0.20138177 0
19.586582 28.030029 -0.26564038 0
19.582859 28.120926 -0.26312846 0
19.579176 28.21084 -0.26064378 0
19.57365 28.345707 -0.25691676 0
19.568127 28.480576 -0.25318971 0
19.562603 28.615444 -0.24946268 0
19.557079 28.750313 -0.24573565 0
19.553396 28.840225 -0.24325097 0
19.549713 28.930138 -0.24076626 0
19.562492 24.83165 -0.19995271 0
19.578693 24.934082 -0.19706161 0
19.596418 26.582663 -0.17943752 0
19.509848 26.707775 -0.17466223 0
19.56716 26.811386 -0.17416099 0
19.563286 26.935358 -0.17965855 0
19.522848 27.022106 -0.19740891 0
19.557106 27.128433 -0.1924293 0
19.555901 27.20277 -0.19399999 0
19.547386 29.011168 -0.16355787 0
19.503704 29.484724 -0.14541 0
19.508205 29.571661 -0.14315313 0
19.59506 33.708843 0.04861303 0
19.594267 33.879841 0.056303531 0
19.523548 33.950268 0.074082814 0
19.547361 34.052593 0.067662954 0
19.545258 34.165012 0.073706314 0
19.549282 34.306381 0.081808984 0
19.543438 34.420315 0.089578725 0
19.548386 34.506332 0.095214188 0
19.554502 34.608383 0.10191905 0
19.512241 36.392311 0.21669979 0
19.533831 36.450363 0.22037672 0
19.547974 36.541737 0.22399203 0
19.542179 36.630428 0.22828472 0
19.561304 36.775463 0.23442559 0
19.52479 36.896496 0.24116279 0
19.518993 36.985188 0.24545546 0
19.513197 37.073879 0.24974814 0
19.507401 37.162567 0.25404084 0
19.501381 37.254665 0.25849849 0
19.541838 37.830208 0.25012118 0
19.528494 37.919918 0.2548438 0
19.515152 38.009632 0.25956652 0
19.579338 38.1106 0.26223615 0
19.56423 38.25322 0.26858848 0
19.559988 38.389091 0.27460727 0
19.582405 38.485401 0.27789393 0
19.590826 38.579216 0.2821528 0
19.500902 38.675266 0.29087898 0
19.512365 38.778309 0.29439723 0
19.506847 38.883472 0.29923555 0
19.505646 39.809196 0.27988601 0
19.539522 40.032738 0.28265512 0
19.511185 40.113903 0.28690746 0
19.562496 40.415352 0.29682413 0
19.58812 42.168705 0.2450956 0
19.517426 43.031506 0.27892748 0
19.556831 43.115501 0.28365031 0
19.533152 38.754467 0.32352895 0
19.528242 38.844631 0.32959378 0
19.524828 38.981422 0.32035795 0
19.56636 39.064781 0.30459148 0
19.513517 39.11512 0.34778836 0
19.506157 39.250366 0.35688564 0
19.532803 40.503193 0.30359405 0
19.670891 -0.98522073 -1.0684611 0
19.634348 -0.34417582 -1.0321445 0
19.659275 2.9553688 -0.91716838 0
19.675724 0.050066594 -0.85136664 0
19.6264 0.72747898 -0.89821255 0
19.62779 0.87294292 -0.89281297 0
19.63249 1.0261514 -0.88773042 0
19.638634 1.1609683 -0.88393104 0
19.631752 1.3003819 -0.87974036 0
19.637983 1.4532313 -0.87453824 0
19.630371 1.5724404 -0.87242782 0
19.698627 1.6527381 -0.87287152 0
19.639275 1.7421831 -0.86692685 0
19.667227 1.8385602 -0.86664605 0
19.699945 1.9038231 -0.86596346 0
19.640394 2.9503651 -0.82298785 0
19.600376 3.3716362 -0.89510894 0
19.66721 3.4328816 -0.89434016 0
19.64045 3.5724447 -0.88465744 0
19.659592 4.2553625 -0.85774529 0
19.645277 4.36062 -0.85440779 0
19.653481 4.5468969 -0.85511708 0
19.62417 4.6906118 -0.85135001 0
19.681967 4.7555604 -0.85070616 0
19.616907 4.8363476 -0.84825206 0
19.666109 5.0832691 -0.8493278 0
19.698301 2.030364 -0.74997991 0
19.674355 2.1633625 -0.76430786 0
19.65839 2.2520285 -0.77385986 0
19.642427 2.3406949 -0.78341186 0
19.618481 2.4736934 -0.79773986 0
19.699396 5.4929404 -0.77366221 0
19.642502 5.5545235 -0.76997566 0
19.617634 5.6460648 -0.78534448 0
19.625957 5.7721071 -0.78492117 0
19.643724 5.9609861 -0.76715893 0
19.647779 6.0290117 -0.77936018 0
19.62874 6.1672392 -0.77552736 0
19.643572 6.263639 -0.76879573 0
19.629309 7.4609261 -0.76327473 0
19.628603 7.6280832 -0.76011401 0
19.608112 7.7566028 -0.70725602 0
19.663809 7.8773155 -0.75448638 0
19.654978 7.9276142 -0.79463911 0
19.64835 8.0804691 -0.78973156 0
19.648615 8.1804066 -0.78534263 0
19.62882 8.3521461 -0.78184694 0
19.667311 8.6881065 -0.7365514 0
19.649704 8.0594015 -0.68810189 0
19.652445 8.1430292 -0.69318467 0
19.644087 8.2690983 -0.67939544 0
19.628862 8.3553295 -0.68329936 0
19.65139 8.4762793 -0.67725897 0
19.697529 8.5517511 -0.67086077 0
19.615389 8.6617508 -0.66184062 0
19.615665 8.7670031 -0.65800738 0
19.640722 8.8688688 -0.65612924 0
19.613934 8.9645948 -0.64993244 0
19.658564 9.0759964 -0.65004337 0
19.680996 9.1430979 -0.6488139 0
19.605299 9.2783699 -0.64269555 0
19.668488 9.3593683 -0.64323235 0
19.60096 10.391106 -0.59443659 0
19.672695 10.538624 -0.58802921 0
19.653463 11.427621 -0.58529365 0
19.643969 11.664048 -0.58063173 0
19.638329 11.806588 -0.57782435 0
19.620579 11.947037 -0.57316959 0
19.685637 12.060147 -0.57315296 0
19.62101 12.145177 -0.5690071 0
19.694462 12.685362 -0.55376124 0
19.650131 12.765456 -0.55410284 0
19.647793 12.886317 -0.55233943 0
19.632902 13.060615 -0.54776675 0
19.650925 13.173692 -0.5426358 0
19.670034 13.245344 -0.54054487 0
19.672249 13.539296 -0.51619369 0
19.690474 13.645739 -0.51098716 0
19.677132 13.74622 -0.50690514 0
19.62923 14.657239 -0.54010427 0
19.613571 14.032558 -0.49681926 0
19.643459 14.133017 -0.49501014 0
19.638287 14.247021 -0.49244073 0
19.665344 14.323125 -0.49086666 0
19.639046 14.611007 -0.48093915 0
19.626896 15.947396 -0.44074541 0
19.638428 16.030447 -0.43624178 0
19.650896 16.165079 -0.43631607 0
19.662094 16.287825 -0.434295 0
19.673328 16.371609 -0.4307254 0
19.697456 16.455563 -0.41318864 0
19.62557 16.50728 -0.43798393 0
19.645973 16.652731 -0.4338344 0
19.647156 16.788017 -0.42895454 0
19.641762 16.959221 -0.42268077 0
19.689884 17.441322 -0.40400314 0
19.656406 17.561325 -0.40210083 0
19.634089 17.641327 -0.40083256 0
19.62735 17.744835 -0.39707431 0
19.687645 17.83596 -0.39113754 0
19.651945 17.94079 -0.38693568 0
19.646429 18.785067 -0.37807435 0
19.615267 18.952156 -0.37069273 0
19.621147 19.129265 -0.36484459 0
19.633711 19.25667 -0.36037925 0
19.611988 19.392044 -0.35442963 0
19.639071 19.490408 -0.35190663 0
19.625544 19.609013 -0.34689489 0
19.652805 19.754702 -0.34292078 0
19.671789 19.913954 -0.33855107 0
19.656435 20.051178 -0.33413053 0
19.66906 20.157928 -0.33284959 0
19.695477 20.270641 -0.33262122 0
19.64114 20.356033 -0.32855165 0
19.63817 20.568701 -0.32531825 0
19.657875 20.660133 -0.32350406 0
19.634136 20.745861 -0.32048368 0
19.604977 21.646276 -0.32334074 0
19.655182 20.746975 -0.29840779 0
19.672083 20.834446 -0.29573953 0
19.689127 21.042503 -0.28943667 0
19.66843 21.13446 -0.28712872 0
19.618906 21.441103 -0.27259025 0
19.638954 21.525822 -0.27030709 0
19.666468 21.642092 -0.26717359 0
19.684261 22.951681 -0.29728395 0
19.677668 23.101976 -0.29286531 0
19.649384 23.212578 -0.28941146 0
19.67421 23.30171 -0.28785327 0
19.635534 23.419743 -0.28410122 0
19.660572 23.630898 -0.24478158 0
19.664585 23.750778 -0.24139512 0
19.606606 24.427843 -0.21773855 0
19.623123 24.515165 -0.21521017 0
19.639643 24.602488 -0.21268177 0
19.659382 24.754202 -0.20798495 0
19.663649 24.882296 -0.2033556 0
19.679699 24.979191 -0.20020038 0
19.685263 26.551521 -0.18289836 0
19.695154 26.629662 -0.18181902 0
19.656864 26.748085 -0.17773579 0
19.651962 29.051908 -0.16405846 0
19.688761 29.146578 -0.16334306 0
19.666502 30.829475 -0.12406486 0
19.67392 30.919106 -0.12123001 0
19.681337 31.008736 -0.11839516 0
19.692465 31.143179 -0.11414289 0
19.608229 33.762337 0.050664362 0
19.610106 33.983517 0.06052712 0
19.636036 34.042774 0.061525203 0
19.632771 34.126862 0.066141732 0
19.652714 34.249985 0.074217968 0
19.632301 34.402695 0.085027799 0
19.633413 34.512394 0.092641413 0
19.642426 34.606503 0.098507427 0
19.624004 34.752159 0.10851534 0
19.606749 36.388046 0.21194884 0
19.639158 36.446632 0.21561046 0
19.64127 36.550404 0.22099495 0
19.640415 36.636715 0.22529523 0
19.639561 36.72303 0.2295955 0
19.647766 36.833076 0.23487934 0
19.64864 36.96946 0.24126163 0
19.64838 37.080257 0.24653147 0
19.64798 37.168915 0.2507323 0
19.647539 37.24881 0.25451118 0
19.643103 37.86187 0.24760315 0
19.63847 37.97171 0.25330946 0
19.649296 38.135551 0.25980404 0
19.650335 38.274891 0.26626745 0
19.647141 38.381374 0.27152625 0
19.647194 38.503891 0.27765289 0
19.600725 38.674057 0.2858654 0
19.615889 38.766632 0.28988782 0
19.60961 38.856129 0.2941905 0
19.60343 38.944221 0.29842648 0
19.671892 40.332764 0.29190734 0
19.652758 40.417786 0.29564342 0
19.633625 40.502804 0.2993795 0
19.661013 42.122162 0.2450958 0
19.688181 43.193832 0.2890783 0
19.625647 43.422295 0.29910663 0
19.617762 40.573303 0.30247739 0
19.68644 40.820332 0.30989769 0
19.672943 40.900616 0.3133586 0
19.755255 -1.0153129 -1.0592469 0
19.720459 -0.3605299 -1.0256563 0
19.725866 0.65595722 -0.90319198 0
19.79439 0.80283117 -0.90381896 0
19.748734 3.0552981 -0.91596246 0
19.738302 0.042331584 -0.84698606 0
19.733656 0.80756426 -0.89937133 0
19.73403 0.93374062 -0.89550722 0
19.74894 1.0533007 -0.89295238 0
19.787886 1.1625867 -0.89207751 0
19.7519 1.2499039 -0.88665223 0
19.708153 1.3799897 -0.88145643 0
19.785564 1.4570476 -0.88195026 0
19.744154 1.5383267 -0.87648183 0
19.770075 1.7307343 -0.87312686 0
19.775099 1.8749416 -0.86985773 0
19.707382 2.8929889 -0.81311405 0
19.734041 3.494127 -0.89357138 0
19.744236 3.6603274 -0.8837924 0
19.768335 4.3064318 -0.85987377 0
19.738726 4.5783982 -0.85636526 0
19.761419 4.698842 -0.85494667 0
19.755354 4.8358622 -0.85425377 0
19.754272 5.0915728 -0.85326034 0
19.763727 5.5534906 -0.84763032 0
19.730688 5.7617145 -0.80166727 0
19.762585 7.787693 -0.800695 0
19.748339 1.7524424 -0.72003943 0
19.730228 1.8530316 -0.73087591 0
19.780741 5.4614668 -0.78526956 0
19.779552 5.5851846 -0.79014838 0
19.760162 5.6720281 -0.78751123 0
19.74077 5.7588716 -0.78487414 0
19.718412 5.8408265 -0.78843683 0
19.716513 5.9505072 -0.7715714 0
19.783369 6.250948 -0.75992924 0
19.781128 7.1981792 -0.77628398 0
19.720137 7.3612218 -0.77029407 0
19.763798 7.4536743 -0.76893443 0
19.71657 7.6191459 -0.76408494 0
19.750803 7.8443537 -0.75285667 0
19.739649 7.9619322 -0.79463267 0
19.777456 8.0549994 -0.79283547 0
19.753851 8.1365805 -0.74715358 0
19.721851 8.2406139 -0.78809547 0
19.77705 8.3091097 -0.78797507 0
19.718359 8.4020338 -0.78301281 0
19.75145 8.6570225 -0.74109489 0
19.740501 8.1277046 -0.68933219 0
19.731678 8.2575426 -0.68960828 0
19.737057 8.3427191 -0.68669581 0
19.785147 8.4474669 -0.68515456 0
19.79018 8.5535603 -0.68197823 0
19.739449 8.6348171 -0.67381006 0
19.719706 8.752532 -0.66391754 0
19.721359 8.8454924 -0.65969038 0
19.737272 8.9525938 -0.65918362 0
19.765844 9.0425138 -0.6580196 0
19.798527 9.2445612 -0.65340513 0
19.740749 10.169867 -0.61385387 0
19.78454 10.2415 -0.61049473 0
19.736902 10.670666 -0.58229399 0
19.754227 11.374884 -0.59052503 0
19.744053 11.475068 -0.58815759 0
19.7456 11.807803 -0.58181614 0
19.708708 11.917587 -0.57843596 0
19.779087 12.028586 -0.57904756 0
19.715422 12.111934 -0.57314545 0
19.738754 12.622986 -0.55686212 0
19.74614 12.746243 -0.55344665 0
19.771975 12.897426 -0.55065417 0
19.748928 12.992864 -0.54879797 0
19.789404 13.096454 -0.54918295 0
19.767584 13.196099 -0.54775763 0
19.759966 13.527561 -0.52079523 0
19.762247 13.626384 -0.51605171 0
19.772169 13.720644 -0.51301104 0
19.706846 13.829872 -0.50554937 0
19.712315 13.916372 -0.5034045 0
19.717672 14.005287 -0.50090921 0
19.743704 14.116489 -0.49887469 0
19.730555 14.237407 -0.4937546 0
19.76572 14.328339 -0.4927659 0
19.751104 14.453086 -0.48788795 0
19.773193 14.568583 -0.48527947 0
19.729073 15.98183 -0.44289911 0
19.742254 16.063093 -0.4381347 0
19.755438 16.144358 -0.43337026 0
19.76862 16.22562 -0.42860585 0
19.781803 16.306883 -0.42384145 0
19.760796 16.415848 -0.43104848 0
19.73612 16.544786 -0.44099939 0
19.770161 16.672552 -0.43849272 0
19.743416 16.79171 -0.43159783 0
19.710268 16.881893 -0.42715016 0
19.735323 16.988256 -0.42433456 0
19.769777 17.255791 -0.40815681 0
19.744398 17.342476 -0.40611789 0
19.767399 17.443354 -0.40536624 0
19.741451 17.525875 -0.402621 0
19.746288 17.62513 -0.39906114 0
19.702782 17.721487 -0.39579642 0
19.789745 17.962208 -0.39320073 0
19.736416 18.575901 -0.39034075 0
19.717684 18.866545 -0.37721568 0
19.720129 18.986311 -0.37273052 0
19.781059 19.026276 -0.3732366 0
19.707794 19.101295 -0.36908507 0
19.743387 19.253948 -0.36430302 0
19.722834 19.390633 -0.35844597 0
19.748867 19.476862 -0.35604459 0
19.71612 19.588181 -0.35090813 0
19.753582 19.689877 -0.34831685 0
19.72842 19.844963 -0.34278312 0
19.741642 19.947977 -0.33995256 0
19.743715 20.036953 -0.33858621 0
19.769239 20.156151 -0.33831188 0
19.771557 20.245497 -0.33694568 0
19.77677 20.350117 -0.33608353 0
19.705353 20.48868 -0.32954475 0
19.725058 20.580114 -0.3277306 0
19.783522 22.91106 -0.30166087 0
19.796541 20.862598 -0.29989722 0
19.74225 20.956219 -0.29373735 0
19.79422 23.013702 -0.29961446 0
19.776276 23.11261 -0.29636383 0
19.758741 23.20656 -0.29351872 0
19.737955 23.30447 -0.28975734 0
19.791628 23.596508 -0.25168303 0
19.741222 23.748663 -0.24454857 0
19.745235 23.868544 -0.24116211 0
19.745373 23.992329 -0.23754276 0
19.785767 24.113104 -0.23561658 0
19.743729 24.293097 -0.22971736 0
19.747213 24.404106 -0.22476014 0
19.714754 24.846615 -0.20683749 0
19.733442 24.934626 -0.20460173 0
19.752142 25.022694 -0.20236455 0
19.793293 25.79563 -0.22387365 0
19.78376 25.912184 -0.22283593 0
19.773996 26.031565 -0.22177298 0
19.764233 26.150948 -0.22071011 0
19.784523 28.116524 -0.26527265 0
19.775976 28.226311 -0.26269627 0
19.769037 28.315451 -0.26060438 0
19.758627 28.449158 -0.25746664 0
19.748217 28.582867 -0.25432882 0
19.737808 28.716574 -0.25119108 0
19.727398 28.850283 -0.24805327 0
19.720457 28.939421 -0.24596143 0
19.713926 26.292253 -0.19156072 0
19.733919 26.415327 -0.18954182 0
19.79468 26.53343 -0.18914752 0
19.77474 26.696892 -0.18291782 0
19.704153 26.709682 -0.18057057 0
19.788176 26.80542 -0.18114752 0
19.747622 26.932159 -0.17689848 0
19.707188 27.153479 -0.19203024 0
19.731085 27.212862 -0.18806401 0
19.725922 27.312447 -0.18436565 0
19.751043 27.455143 -0.18096869 0
19.783283 29.035107 -0.17051926 0
19.706829 29.251801 -0.16039044 0
19.720169 29.334455 -0.1584418 0
19.731388 29.417347 -0.15685815 0
19.761967 29.545795 -0.15246122 0
19.784052 29.675138 -0.14952579 0
19.798758 29.761261 -0.14757124 0
19.703592 31.277624 -0.10989062 0
19.711012 31.367252 -0.10705577 0
19.71843 31.456882 -0.10422091 0
19.725847 31.546513 -0.10138608 0
19.733267 31.636143 -0.098551229 0
19.740543 31.724054 -0.095770702 0
19.746943 34.01339 0.055253077 0
19.746914 34.149761 0.064552195 0
19.740976 34.304005 0.074669026 0
19.740818 34.413441 0.082506739 0
19.742279 34.522133 0.089165255 0
19.738678 34.622784 0.095646642 0
19.745686 34.74778 0.10475677 0
19.795544 36.220367 0.19865057 0
19.718441 36.441067 0.21258545 0
19.754936 36.549168 0.2185061 0
19.759867 36.63728 0.22272709 0
19.764799 36.725395 0.22694808 0
19.76973 36.813507 0.23116907 0
19.774662 36.901623 0.2353901 0
19.782059 37.033791 0.2417216 0
19.789457 37.165962 0.24805313 0
19.792345 37.217556 0.25052464 0
19.766237 37.891327 0.24394518 0
19.768261 37.965046 0.24775243 0
19.764038 38.058247 0.25302324 0
19.777678 38.164589 0.25775042 0
19.772968 38.263405 0.26222241 0
19.772104 38.353016 0.26595265 0
19.790306 38.437756 0.26810893 0
19.743107 38.616726 0.27819073 0
19.740307 38.750908 0.28382981 0
19.737507 38.885094 0.28946891 0
19.73564 38.974548 0.29322827 0
19.73457 39.025848 0.29538411 0
19.757988 39.950169 0.27509496 0
19.72929 40.077702 0.28069907 0
19.710157 40.16272 0.28443518 0
19.73386 40.265579 0.287462 0
19.781136 40.381844 0.28842947 0
19.766874 40.46801 0.29224592 0
19.731567 40.551872 0.29832521 0
19.790476 40.657387 0.29803571 0
19.745703 43.151138 0.28690827 0
19.774536 43.291813 0.29164854 0
19.710663 43.34779 0.29484802 0
19.724903 40.677643 0.30225772 0
19.790609 40.932976 0.30916178 0
19.839619 -1.0454054 -1.0500327 0
19.806568 -0.37688419 -1.0191683 0
19.883684 -0.26451075 -0.94224167 0
19.842585 0.8500284 -0.90449739 0
19.874514 0.96645904 -0.9017812 0
19.838194 3.1552277 -0.9147566 0
19.897833 3.2218473 -0.91395265 0
19.86244 1.0869918 -0.89706743 0
19.872288 1.2317244 -0.89242268 0
19.850677 1.388288 -0.88660198 0
19.838692 1.4975743 -0.8821739 0
19.821985 1.6508777 -0.87772608 0
19.834658 1.8466158 -0.87352467 0
19.800875 3.5553725 -0.8928026 0
19.867708 3.6166182 -0.89203382 0
19.813427 3.7189159 -0.88321573 0
19.809618 4.6284723 -0.85637152 0
19.846674 4.79881 -0.85837597 0
19.873114 4.8914557 -0.85945147 0
19.842438 5.0998769 -0.85719281 0
19.870192 7.6477714 -0.80675095 0
19.841261 7.7484145 -0.80343705 0
19.873476 7.9033585 -0.80005813 0
19.80562 2.808948 -0.79819167 0
19.80105 5.4889083 -0.79307193 0
19.815018 5.7667313 -0.79129332 0
19.848263 5.8466148 -0.78619629 0
19.872847 6.2654591 -0.7517162 0
19.895433 6.3323536 -0.75592506 0
19.859858 7.2014294 -0.77933371 0
19.854429 7.3599272 -0.77568656 0
19.898287 7.4464221 -0.77459419 0
19.848518 7.6057396 -0.77004129 0
19.873878 7.7026525 -0.70978165 0
19.828127 7.8489738 -0.75170666 0
19.825466 7.9791789 -0.79644674 0
19.851664 8.0621805 -0.78334439 0
19.852655 8.1503983 -0.75034332 0
19.820992 8.2395401 -0.79169011 0
19.85544 8.3854837 -0.74950159 0
19.838217 8.53934 -0.7850616 0
19.855104 8.6417799 -0.76520169 0
19.810596 8.1293879 -0.69228768 0
19.82568 8.2329416 -0.69456685 0
19.847176 8.364913 -0.69081289 0
19.864792 8.4447947 -0.68960994 0
19.872904 8.5338306 -0.68765861 0
19.890394 8.6140089 -0.68525618 0
19.816525 8.7396374 -0.66995794 0
19.81777 8.8204002 -0.66630048 0
19.832771 8.9411354 -0.6628294 0
19.856709 9.0459785 -0.66160154 0
19.882072 9.1423101 -0.66079473 0
