# .PCD v0.7 - Point Cloud Data file format
VERSION 0.7
FIELDS x y z intensity
SIZE 4 4 4 4
TYPE F F F F
COUNT 1 1 1 1
WIDTH 1370
HEIGHT 1
VIEWPOINT 0 0 0 1 0 0 0
POINTS 1370
DATA ascii
1.1225618 2.076844 -0.050727654 0
1.1544565 2.1564212 -0.068325773 0
1.1860218 2.2289228 -0.078985542 0
1.1885962 2.4467008 -0.096637651 0
1.161284 2.5314398 -0.083751872 0
1.1339719 2.6161785 -0.070866123 0
1.1569655 -4.3800974 0.0092040338 0
1.1157663 -2.5406797 0.013379331 0
1.1593145 -2.4682736 0.02132567 0
1.140686 -1.538092 0.016111987 0
1.1887987 -1.4558132 0.03520532 0
1.1302465 -1.3473719 0.044763155 0
1.143373 -1.2425495 0.046855103 0
1.127651 -1.1641434 0.029743539 0
1.1466312 -1.060779 0.034857981 0
1.1364843 -0.9585287 0.043396454 0
1.1263263 -0.86544597 0.012710932 0
1.167666 -0.76880312 0.040553052 0
1.1598611 -0.67519641 0.021653188 0
1.1493632 -0.56569457 0.01812738 0
1.1973032 -0.41315708 0.02870542 0
1.1503694 -0.35982034 0.025913263 0
1.14393 -0.24680308 0.025025457 0
1.1479149 -0.15130399 0.026009494 0
1.132416 0.24947709 0.039466701 0
1.1175401 0.32846838 0.041652966 0
1.1744947 0.46502727 0.010051985 0
1.181125 0.65621412 0.020103671 0
1.1500959 0.74839479 0.011629199 0
1.1724946 0.87789208 0.02614245 0
1.1529704 0.92754114 0.017001813 0
1.1745863 1.4913579 0.064719185 0
1.1187023 1.5698807 0.037366219 0
1.1590343 1.6487231 0.04264529 0
1.1111861 -1.2842008 0.10489552 0
1.1320469 -0.91629553 0.10667779 0
1.2000184 -3.5007725 -0.20458549 0
1.2703509 -3.3480942 -0.20587808 0
1.2889662 -3.1912172 -0.21752562 0
1.2274901 -2.7182138 -0.24178822 0
1.2498736 -2.6662347 -0.21798548 0
1.2755171 -2.5727284 -0.23262483 0
1.2464119 -2.4829731 -0.23635739 0
1.2701219 -2.3691554 -0.22446679 0
1.2284397 -2.2000654 -0.21354677 0
1.2688169 -2.1213784 -0.21380377 0
1.2617903 -2.009315 -0.21801387 0
1.2248168 -1.948228 -0.21926458 0
1.2415055 -1.8454977 -0.22495015 0
1.2638901 -1.7264611 -0.22411004 0
1.2825433 -1.651785 -0.24006711 0
1.2467555 -1.5520852 -0.23837088 0
1.2280098 -1.4485339 -0.23429358 0
1.2431754 -1.3503349 -0.23363139 0
1.2970362 0.6267249 -0.20233092 0
1.2432172 0.84577388 -0.23511076 0
1.2154323 0.94597858 -0.2327449 0
1.2327448 1.0120972 -0.22625056 0
1.2309954 1.1208248 -0.22218844 0
1.2391394 1.2149329 -0.21213377 0
1.277431 1.3886975 -0.25159132 0
1.2411424 1.4709778 -0.24599364 0
1.2200614 1.5894172 -0.23223744 0
1.2341993 1.6922927 -0.22293214 0
1.2619399 1.7346092 -0.24140325 0
1.2670293 1.8098555 -0.2569468 0
1.2210215 1.9481868 -0.27736551 0
1.2494859 2.0417016 -0.25879017 0
1.2126265 -3.8352866 -0.18228111 0
1.2380936 -3.7484608 -0.18427293 0
1.2345622 -3.6489835 -0.17545873 0
1.2580178 -3.5638597 -0.18000275 0
1.2716117 -3.4678831 -0.19864458 0
1.2563486 -2.9620709 -0.13429187 0
1.285584 -2.8644111 -0.14203608 0
1.2791411 -2.7574732 -0.18512408 0
1.2247937 -2.4482992 -0.16948891 0
1.2521439 -2.35969 -0.16510987 0
1.2952703 -2.2902238 -0.1358998 0
1.2449822 -2.1237829 -0.15413038 0
1.2467387 -2.0406353 -0.16459419 0
1.2553704 -1.9412854 -0.13343076 0
1.2476033 -1.8706806 -0.15660706 0
1.2378764 -1.7843459 -0.15411066 0
1.2515939 -1.4585989 -0.11509588 0
1.2293299 -1.3676625 -0.17491516 0
1.2753994 -1.2416387 -0.12826331 0
1.2491169 -1.1627858 -0.14676882 0
1.2487437 -1.0818661 -0.15173757 0
1.2668865 -0.73864555 -0.14848924 0
1.2401824 -0.66708171 -0.15002993 0
1.2461108 -0.54722917 -0.13229999 0
1.2562917 -0.44759044 -0.14911316 0
1.2485981 -0.35639822 -0.14931694 0
1.2554877 -0.25136039 -0.14169317 0
1.2452785 -0.12461502 -0.12266035 0
1.2447064 -0.038097695 -0.12658563 0
1.2596304 0.072646983 -0.12752827 0
1.2527915 0.13484164 -0.1572575 0
1.2425207 0.25077924 -0.13889109 0
1.255931 0.33812112 -0.15798292 0
1.2605007 0.4441869 -0.14230993 0
1.2459065 0.52313238 -0.15179971 0
1.2725596 0.65492642 -0.15079267 0
1.2493589 0.73818415 -0.14639026 0
1.2406679 0.84164411 -0.14002456 0
1.237962 0.93213868 -0.1655032 0
1.2568523 1.0435497 -0.13667209 0
1.2121162 1.1513112 -0.1400194 0
1.2756567 1.2420692 -0.15681194 0
1.2582042 1.3167491 -0.16360877 0
1.2833072 1.4260714 -0.15334584 0
1.2609676 1.5444672 -0.14734599 0
1.2545321 1.6572076 -0.15715487 0
1.2187023 1.75011 -0.17663296 0
1.2755619 2.1297798 -0.14455228 0
1.2546079 2.2314787 -0.13839884 0
1.2183309 2.3363092 -0.13491455 0
1.2174107 2.4307599 -0.1527089 0
1.2870888 -4.3375921 -0.0391513 0
1.2665939 -4.2832494 -0.048880141 0
1.2964739 -4.1574593 -0.063511819 0
1.2315183 -4.0823765 -0.038408093 0
1.2642268 -3.9517579 -0.059296906 0
1.2860326 -3.8646786 -0.073222786 0
1.2569191 -3.0982788 -0.0097396662 0
1.2702739 -2.4290681 -0.0083692167 0
1.2432489 -2.3861675 -0.013614011 0
1.2713596 -1.7656819 -0.081539102 0
1.2396725 -1.6883183 -0.069061004 0
1.2754138 -1.5425035 -0.072870761 0
1.275157 -1.448035 -0.019118756 0
1.2598379 -1.3434182 -0.03631619 0
1.2490568 -1.2685871 -0.049087428 0
1.255774 -1.1535219 -0.028667182 0
1.2651 -1.0661567 -0.016132496 0
1.2438372 -0.94744611 -0.025670461 0
1.2418822 -0.86521137 -0.034979612 0
1.254232 -0.75662637 -0.024639349 0
1.267017 -0.62828451 -0.048443247 0
1.2299179 -0.54389268 -0.02933648 0
1.2892556 -0.30933642 -0.044839919 0
1.2526252 -0.25067309 -0.067916408 0
1.2489231 -0.13437736 -0.0019909593 0
1.2248616 -0.082251564 -0.0093782395 0
1.2920263 0.046242099 -0.037105914 0
1.2601998 0.15290175 -0.049052034 0
1.2296375 0.28243363 -0.051452961 0
1.2554815 0.34988299 -0.045209698 0
1.2714014 0.44784588 -0.053028457 0
1.2489794 0.55379629 -0.068133637 0
1.2560163 0.63637328 -0.059789028 0
1.2574327 0.73053479 -0.051242366 0
1.235693 0.84267831 -0.036417414 0
1.2377511 0.93885881 -0.060771205 0
1.2749224 1.0297374 -0.048167646 0
1.2484094 1.14431 -0.046370134 0
1.292994 1.2460953 -0.083039314 0
1.2896439 1.3337902 -0.09188813 0
1.2039785 1.6427178 -0.023209767 0
1.2563381 1.7146716 -0.031000005 0
1.2280409 2.2806571 -0.081666671 0
1.2097282 -2.8399773 0.04577744 0
1.2513564 -2.766335 0.052570913 0
1.2929841 -2.6926932 0.059364378 0
1.2669958 -2.5030818 0.0036806865 0
1.2028629 -2.3958676 0.029272014 0
1.2681849 -2.2872589 0.041191522 0
1.2016956 -1.608411 0.021418154 0
1.2740411 -1.5167694 0.018692104 0
1.2965301 -1.4006186 0.039345387 0
1.2434442 -1.3459009 0.048282415 0
1.254701 -1.2496731 0.03837828 0
1.2339252 -1.153048 0.038369134 0
1.2592394 -1.0361068 0.017220916 0
1.2367337 -0.94542134 0.03393377 0
1.2470096 -0.86528206 0.01302297 0
1.2569885 -0.74404192 0.015719723 0
1.2216511 -0.62987715 0.011493323 0
1.2597454 -0.57435709 0.026937218 0
1.2741286 -0.42288673 0.0047514029 0
1.2678611 -0.32515469 0.019634278 0
1.2463577 -0.22935057 0.033541147 0
1.2261468 -0.15442482 0.023557402 0
1.2522832 0.18656115 0.030193526 0
1.2310352 0.26015285 0.032001801 0
1.2798512 0.38031736 0.016045881 0
1.2622924 0.55985731 0.021014847 0
1.2788172 0.83225787 0.017270457 0
1.2200004 0.94495159 0.029899774 0
1.2904421 1.0459551 0.037394445 0
1.2966235 1.2521257 0.041229736 0
1.2559443 1.3318697 0.049059547 0
1.2152654 1.4116138 0.056889366 0
1.2483217 1.5426668 0.069819182 0
1.2092402 1.6242806 0.075373478 0
1.2919037 -2.4468815 0.13972285 0
1.2329739 -1.245494 0.10375759 0
1.2567637 -0.93072289 0.1148922 0
1.3273779 -3.6551497 -0.23475486 0
1.351321 -3.5702667 -0.22356671 0
1.3872356 -3.4429424 -0.20678449 0
1.3685421 -3.2624884 -0.20142007 0
1.375618 -3.1624532 -0.20454454 0
1.3490767 -3.0674903 -0.21623556 0
1.3745527 -2.9813232 -0.22037823 0
1.3587533 -2.5423872 -0.22949086 0
1.3594753 -2.4574564 -0.23054682 0
1.3439491 -2.3420055 -0.24667656 0
1.3536512 -2.2375498 -0.23734578 0
1.3844109 -2.1281509 -0.21577694 0
1.3752414 -2.065223 -0.22904819 0
1.337302 -1.9488796 -0.2178026 0
1.307425 -1.845558 -0.22003372 0
1.3949013 -1.7443534 -0.21858639 0
1.3676326 -1.6583487 -0.23955634 0
1.3522156 -1.5368277 -0.24030103 0
1.3330871 -1.4277842 -0.23964149 0
1.3573027 -1.3186842 -0.2412447 0
1.3099223 -1.2472326 -0.24073699 0
1.325356 0.82956469 -0.23405989 0
1.334581 0.91313386 -0.22134419 0
1.3315196 1.0166056 -0.2151532 0
1.334644 1.1132929 -0.2097079 0
1.34482 1.2447884 -0.23424523 0
1.377509 1.330924 -0.24823797 0
1.3484869 1.4309219 -0.24930538 0
1.3667315 1.5336764 -0.2580882 0
1.339654 1.6232826 -0.26121035 0
1.3343846 1.7566211 -0.27512231 0
1.3005038 1.918469 -0.25680494 0
1.398344 6.3393364 -0.23310882 0
1.3646669 -3.7067263 -0.10756483 0
1.3514495 -3.6034412 -0.11500042 0
1.3732551 -3.516362 -0.12892629 0
1.3950608 -3.4292829 -0.14285216 0
1.3575962 -3.3872509 -0.19493084 0
1.3697356 -3.1306782 -0.10549247 0
1.3392471 -3.0590675 -0.12919396 0
1.3803059 -2.9637988 -0.14138456 0
1.3343765 -2.8258104 -0.13857469 0
1.3683372 -2.7465651 -0.15954772 0
1.3742609 -2.6452794 -0.17728263 0
1.3677561 -2.3594701 -0.14990772 0
1.3378763 -2.2403207 -0.15353064 0
1.3845104 -2.1542017 -0.13319491 0
1.3910252 -2.0285473 -0.17741945 0
1.3390566 -1.9533986 -0.14503543 0
1.3353356 -1.8461303 -0.15164651 0
1.3606687 -1.7559894 -0.13504377 0
1.333858 -1.6361877 -0.12193023 0
1.3297497 -1.5558463 -0.11398179 0
1.3344131 -1.3049258 -0.12958093 0
1.3485388 -1.2511948 -0.14674617 0
1.3602691 -1.0738543 -0.11752564 0
1.3631881 -0.81964797 -0.14813939 0
1.3477229 -0.75275522 -0.14930296 0
1.34181 -0.64032656 -0.1144 0
1.3409224 -0.54494601 -0.14846802 0
1.349878 -0.45091191 -0.14864671 0
1.3420713 -0.33932596 -0.14353178 0
1.3483236 -0.25025517 -0.1375457 0
1.3392727 -0.12918864 -0.12528914 0
1.3271201 -0.037101176 -0.12460814 0
1.3220476 0.037824906 -0.13363513 0
1.3423169 0.15911642 -0.157502 0
1.3493876 0.23776576 -0.13637705 0
1.3578577 0.3646642 -0.14951983 0
1.3532915 0.44030106 -0.13747711 0
1.3517001 0.54200566 -0.14551291 0
1.3540503 0.62209767 -0.13046716 0
1.339083 0.76026386 -0.15460812 0
1.3517812 0.82066214 -0.15002754 0
1.3443413 0.95118904 -0.15374953 0
1.3474636 1.055932 -0.15799135 0
1.3587197 1.1437492 -0.13601553 0
1.3538795 1.2705212 -0.13232999 0
1.3534904 1.3561451 -0.15876345 0
1.3551412 1.4265485 -0.17372486 0
1.3745481 1.5336894 -0.17165163 0
1.321707 1.6111217 -0.15343669 0
1.3497834 1.9593568 -0.14240882 0
1.3203344 2.0430028 -0.14214596 0
1.33504 2.2655981 -0.14911975 0
1.3228986 -4.3491125 -0.035856366 0
1.3234323 -4.2584133 -0.045311332 0
1.3424655 -4.1708527 -0.053342137 0
1.3467048 -4.0790462 -0.065455459 0
1.3677818 -3.9617262 -0.076359451 0
1.3751844 -3.855428 -0.093753964 0
1.3078382 -3.7775993 -0.087148651 0
1.3472929 -3.5147438 -0.026919518 0
1.3554899 -3.4298136 -0.019301677 0
1.3740784 -3.3640578 -0.028955515 0
1.3871571 -3.2509704 -0.045555308 0
1.3090518 -2.3392422 -0.010192948 0
1.3189429 -1.8479795 -0.090291619 0
1.3692604 -1.7433481 -0.073340587 0
1.3165851 -1.6531415 -0.050785445 0
1.3675443 -1.5719922 -0.08266113 0
1.341719 -1.4399097 -0.05452197 0
1.3558846 -1.3648754 -0.042536464 0
1.349705 -1.2569804 -0.047323551 0
1.3630406 -1.147789 -0.038740169 0
1.3585064 -1.0452429 -0.023421928 0
1.3478429 -0.94618487 -0.021460222 0
1.3346417 -0.83052945 -0.038668152 0
1.3491325 -0.74466878 -0.034198694 0
1.385901 -0.63243556 -0.026818981 0
1.3472958 -0.54226023 -0.03921942 0
1.3604517 -0.35265684 -0.047444683 0
1.3590858 -0.2517778 -0.03051319 0
1.3526729 -0.15723915 -0.054741077 0
1.3390634 -0.035733312 -0.032317132 0
1.3900561 0.025843628 -0.039763957 0
1.3706454 0.1442692 -0.058674797 0
1.343595 0.24833113 -0.045611441 0
1.3921177 0.32061201 -0.035202853 0
1.3648689 0.43454278 -0.054842494 0
1.3521303 0.55080676 -0.049882874 0
1.3425916 0.65165317 -0.057905421 0
1.3260726 0.75954419 -0.050854191 0
1.3532124 0.86492777 -0.032642454 0
1.3249189 0.963588 -0.060948081 0
1.3659134 1.0588719 -0.07729768 0
1.3596838 1.1336648 -0.01658654 0
1.3899988 1.4800241 -0.034474678 0
1.3545473 1.5662496 -0.00066353905 0
1.3786837 1.8978931 -0.098505281 0
1.3346123 -2.619051 0.066157848 0
1.3970543 -2.5085876 0.076348044 0
1.3613551 -2.3854809 0.015050003 0
1.3925674 -2.257843 0.00098556327 0
1.3282907 -2.1423781 0.031341292 0
1.3680023 -2.0449061 0.014906589 0
1.3023429 -1.7427416 0.027456308 0
1.371592 -1.6899195 0.026536783 0
1.3317335 -1.5496362 0.020658258 0
1.3256052 -1.4214722 0.024378603 0
1.3517447 -1.341449 0.05201086 0
1.3366914 -1.2587544 0.048374813 0
1.3451295 -1.1601161 0.039028712 0
1.3329458 -1.0503627 0.030057447 0
1.3239518 -0.9415465 0.024999348 0
1.3459492 -0.86539263 0.033038862 0
1.3639128 -0.76823092 0.014655773 0
1.3493105 -0.6442312 0.016832622 0
1.3345629 -0.56410599 0.022237904 0
1.3456916 -0.45646343 0.018479455 0
1.354683 -0.25534865 0.022612663 0
1.3384624 -0.19163433 0.021278648 0
1.363354 -0.088688508 0.034246225 0
1.3927333 0.086239599 0.015772903 0
1.3228053 0.13602412 0.02313865 0
1.3434862 0.44832316 0.031081539 0
1.3437021 0.85955107 0.019601991 0
1.3394333 0.9633171 0.032335371 0
1.3682389 1.0695664 0.03285858 0
1.349279 1.142874 0.030219445 0
1.365566 1.2978259 0.053156279 0
1.3069439 1.4202462 0.061487734 0
1.3662558 -2.4031131 0.13687228 0
1.3816205 -1.3777006 0.10482475 0
1.3533847 -1.2196954 0.11032099 0
1.3230679 -1.1467234 0.10770492 0
1.4272543 -3.2023866 -0.20952384 0
1.4401503 -3.0974221 -0.2118561 0
1.4745874 -2.9882572 -0.2197471 0
1.4444474 -2.849081 -0.22650479 0
1.4668885 -2.6948757 -0.23243977 0
1.4577564 -2.547426 -0.22890501 0
1.4422936 -2.4583337 -0.22939654 0
1.4687159 -2.3481407 -0.22456886 0
1.4717085 -2.2399302 -0.22224233 0
1.4810898 -2.1353936 -0.2289892 0
1.4737586 -2.0472391 -0.22842637 0
1.450652 -1.960935 -0.23243302 0
1.4232856 -1.8311819 -0.22519916 0
1.4707036 -1.727944 -0.2150888 0
1.4708476 -1.6492987 -0.23856999 0
1.4384557 -1.5132512 -0.23947753 0
1.4314393 -1.4108503 -0.2419873 0
1.400604 -1.2401446 -0.23937856 0
1.4446334 0.82189512 -0.21741891 0
1.4454361 0.94490576 -0.21542096 0
1.405162 1.0708992 -0.21641317 0
1.4484971 1.1428949 -0.24743389 0
1.4645337 1.25992 -0.24783283 0
1.4058077 1.5044725 -0.25254664 0
1.4152279 6.1751971 -0.20649171 0
1.4067858 6.2572675 -0.21980026 0
1.4531769 -3.5752521 -0.11938793 0
1.4836947 -3.4676516 -0.12651941 0
1.4231503 -3.315618 -0.19000226 0
1.4470932 -3.2307351 -0.17881413 0
1.4710362 -3.1458519 -0.16762598 0
1.4419692 -2.851373 -0.12576599 0
1.4671103 -2.7240336 -0.15068662 0
1.4800709 -2.6396828 -0.15869552 0
1.4391556 -2.56305 -0.14274247 0
1.4348691 -2.4285059 -0.18415898 0
1.4674139 -2.3139763 -0.14807183 0
1.4517046 -2.2378931 -0.1313082 0
1.464663 -2.1451404 -0.13287131 0
1.4674246 -2.0372722 -0.13639231 0
1.4555082 -1.8595451 -0.14940016 0
1.4329751 -1.710566 -0.14068674 0
1.4334246 -1.6999027 -0.13428679 0
1.4867034 -1.5584484 -0.11823415 0
1.4581207 -1.3469479 -0.12900001 0
1.4092023 -1.2860875 -0.12996459 0
1.4693488 -0.91216981 -0.12459157 0
1.4665452 -0.83831185 -0.14865777 0
1.4486023 -0.77252239 -0.1492638 0
1.465957 -0.63931626 -0.13369879 0
1.4656482 -0.53929979 -0.13014795 0
1.4497 -0.45772833 -0.12655187 0
1.4384788 -0.36410064 -0.13185681 0
1.445136 -0.25776887 -0.13307443 0
1.4538403 -0.14412746 -0.14725134 0
1.4439802 -0.023670061 -0.13274258 0
1.4309226 0.060902741 -0.14546238 0
1.471655 0.14187668 -0.12345729 0
1.4639366 0.25486395 -0.12781663 0
1.4387977 0.33989081 -0.13413584 0
1.4541351 0.43986923 -0.14438425 0
1.4582777 0.53025836 -0.14430605 0
1.4469837 0.64349961 -0.14342831 0
1.4256731 0.74853563 -0.14179669 0
1.4446778 0.8566972 -0.14413659 0
1.4328312 0.95973814 -0.13819222 0
1.454015 1.050216 -0.13315363 0
1.4429538 1.1515616 -0.14584859 0
1.4901006 1.2096363 -0.1518722 0
1.4902666 1.5436398 -0.14522515 0
1.4521899 1.6367055 -0.13200724 0
1.4130015 1.7324889 -0.11840336 0
1.4493605 5.84337 -0.15268256 0
1.4405538 5.9289861 -0.16656607 0
1.4278908 6.0520911 -0.18652892 0
1.4140785 -3.9105456 -0.078923643 0
1.4323139 -3.822834 -0.087536909 0
1.4471487 -3.689271 -0.097511567 0
1.4397036 -3.1575499 -0.070727021 0
1.4454086 -3.0309665 -0.085539967 0
1.4323903 -2.9230247 -0.097682193 0
1.4585687 -2.5283895 -0.045931548 0
1.4831698 -2.4710512 -0.043588489 0
1.4904625 -2.0883856 -0.076983511 0
1.4385594 -1.9443592 -0.054247025 0
1.4557534 -1.8582654 -0.060814653 0
1.4885278 -1.7319767 -0.067927815 0
1.4418977 -1.6535987 -0.062009968 0
1.4441534 -1.5649563 -0.030878026 0
1.4622598 -1.4785651 -0.058079556 0
1.4540303 -1.3504106 -0.05572255 0
1.4486858 -1.2536333 -0.045307133 0
1.4101835 -1.1475003 -0.031414598 0
1.4489131 -1.0768489 -0.043335736 0
1.4273647 -0.95416695 -0.030409763 0
1.4231027 -0.8576805 -0.05725076 0
1.4356114 -0.76303965 -0.024490342 0
1.4593753 -0.66179866 -0.039734829 0
1.4351951 -0.58050686 -0.029724484 0
1.4427354 -0.43859631 -0.054992914 0
1.4532866 -0.34794798 -0.051948205 0
1.4573678 -0.28657758 -0.031710893 0
1.4800655 -0.19031623 -0.066657118 0
1.4275148 -0.089755505 -0.050798122 0
1.4627639 0.03369176 -0.047210533 0
1.4468194 0.13276762 -0.057769116 0
1.473881 0.23529662 -0.058488343 0
1.4467216 0.32555914 -0.056668263 0
1.4357337 0.42588159 -0.065906189 0
1.4395137 0.55732179 -0.036402587 0
1.4540696 0.65890014 -0.045678049 0
1.4432787 0.74842364 -0.042096954 0
1.4575127 0.8464995 -0.04605335 0
1.4439095 0.94564122 -0.070330575 0
1.4397067 1.0127678 -0.021500004 0
1.449079 1.2305552 -0.028689664 0
1.4452823 1.3423494 -0.043823909 0
1.4019226 1.4175624 -0.071334995 0
1.4639355 1.5734743 -0.087118141 0
1.4782044 1.6377884 -0.05956151 0
1.441856 1.7327873 -0.073785096 0
1.4102699 1.8153402 -0.086145177 0
1.4377279 -2.337533 0.044042204 0
1.4858327 -2.2448721 0.0225155 0
1.4297471 -2.1910536 0.012824094 0
1.4567533 -2.0077364 0.039287779 0
1.4379927 -1.946213 0.020695094 0
1.4958367 -1.828218 0.020583747 0
1.4324954 -1.6434636 0.025728075 0
1.4304657 -1.5912399 0.0245087 0
1.4523028 -1.4240644 0.067942239 0
1.4465929 -1.3473049 0.045519594 0
1.45916 -1.2429146 0.039058879 0
1.4514138 -1.1577362 0.034866869 0
1.4503864 -1.0563133 0.034995429 0
1.4592112 -0.9695074 0.005982847 0
1.4508551 -0.87100375 0.027108001 0
1.4472271 -0.7600314 0.011653057 0
1.4458132 -0.66000795 0.021837501 0
1.4420912 -0.48232692 0.0090311561 0
1.4519365 -0.32136992 0.031121945 0
1.4273515 -0.18743566 0.017592711 0
1.4646525 -0.014413565 0.022394303 0
1.4660375 0.045878902 0.01112198 0
1.477579 0.55815011 0.0074619954 0
1.4637845 0.75473279 0.0091537442 0
1.4383316 0.862167 0.020842632 0
1.4750171 0.91514665 0.031448442 0
1.4565436 1.046754 0.03685135 0
1.4487189 1.1386328 0.044258848 0
1.4406261 1.2119995 0.040800985 0
1.474409 1.3313878 0.015471712 0
1.4563595 1.4470788 0.03810991 0
1.4491748 1.5588673 0.076801836 0
1.4232835 -2.3270507 0.13300166 0
1.4811907 -2.2603667 0.12951373 0
1.4270245 -1.4181656 0.11880092 0
1.4674776 -1.2979815 0.1010368 0
1.4567652 -1.1457716 0.1157857 0
1.5840474 -3.0995767 -0.20318535 0
1.5955927 -2.9961541 -0.21552794 0
1.5420426 -2.7708082 -0.23642911 0
1.5481902 -2.6857529 -0.23325126 0
1.5582645 -2.5516691 -0.22450975 0
1.5724598 -2.4615602 -0.2236788 0
1.5981088 -2.3904197 -0.22734474 0
1.5405476 -2.2572143 -0.21495217 0
1.5797527 -2.1592295 -0.22264498 0
1.5656061 -2.0837204 -0.21525423 0
1.5606405 -1.9703959 -0.23208641 0
1.543511 -1.8658353 -0.23325491 0
1.5705712 -1.7958194 -0.22423756 0
1.5567096 -1.6115156 -0.23773488 0
1.5399443 -1.501245 -0.238443 0
1.5115596 -1.3500919 -0.24114993 0
1.501352 -1.2439654 -0.23949394 0
1.5115237 0.84713578 -0.21954866 0
1.5523937 -3.4452486 -0.15014727 0
1.56916 -3.3620901 -0.1401851 0
1.5859263 -3.2789319 -0.13022293 0
1.5641059 -3.1513255 -0.15008232 0
1.5420544 -3.0275605 -0.12986667 0
1.5340863 -2.9444277 -0.12905145 0
1.5173175 -2.8395255 -0.14667661 0
1.5596092 -2.7536955 -0.14945379 0
1.5404679 -2.6554513 -0.1679807 0
1.5441146 -2.5543463 -0.15556298 0
1.5265211 -2.4644272 -0.13862737 0
1.5647628 -2.3482673 -0.15259254 0
1.5319157 -2.2699137 -0.14612783 0
1.5577986 -2.1573694 -0.13691424 0
1.5512793 -2.0734396 -0.12946817 0
1.5683552 -1.951784 -0.13333951 0
1.5773202 -1.8936546 -0.14294785 0
1.5310814 -1.7815926 -0.14145689 0
1.5200528 -1.6876858 -0.12630329 0
1.5908425 -1.5702113 -0.12120715 0
1.542978 -1.4666076 -0.10669479 0
1.5411783 -1.1277593 -0.11416613 0
1.5551348 -0.9377175 -0.12772843 0
1.5446072 -0.85291266 -0.14713581 0
1.5596679 -0.64513218 -0.14487611 0
1.5540062 -0.55274594 -0.14725961 0
1.5446395 -0.45131651 -0.14752178 0
1.5372612 -0.36000174 -0.12811132 0
1.5460801 -0.24189563 -0.14694934 0
1.545593 -0.15266824 -0.15105228 0
1.5321002 -0.071835406 -0.14963447 0
1.5451128 0.055543993 -0.14737123 0
1.549269 0.15765049 -0.14414498 0
1.5399042 0.23902431 -0.13886049 0
1.5579618 0.35650396 -0.13442388 0
1.5505131 0.45514774 -0.13957055 0
1.5511782 0.55326176 -0.14225344 0
1.5379801 0.65149587 -0.14237145 0
1.5399835 0.76289809 -0.12962267 0
1.5510031 0.8336426 -0.14112242 0
1.5414186 0.93754596 -0.14261103 0
1.55669 1.0726478 -0.15002795 0
1.5175052 1.1865613 -0.1308594 0
1.5631474 1.2515181 -0.13362177 0
1.5834628 1.3895621 -0.12602618 0
1.5426781 1.4725167 -0.13108864 0
1.5265166 1.5622655 -0.13928954 0
1.5012885 -2.5345063 -0.047748741 0
1.5813414 -2.4382949 -0.034739453 0
1.526327 -2.3697371 -0.044855282 0
1.5712326 -2.2649944 -0.04117886 0
1.5555757 -2.0114801 -0.069456168 0
1.5657007 -1.9491574 -0.075325161 0
1.5491024 -1.8449727 -0.083343752 0
1.5528733 -1.737636 -0.039271679 0
1.5569626 -1.6333028 -0.04526202 0
1.55292 -1.5526063 -0.036381137 0
1.5659336 -1.4526982 -0.037347801 0
1.5612981 -1.35234 -0.067577407 0
1.5497153 -1.2445662 -0.046444543 0
1.5532321 -1.1605843 -0.049003165 0
1.5272279 -1.0544 -0.055735268 0
1.5518546 -0.93856692 -0.055713527 0
1.5221502 -0.8445282 -0.04481525 0
1.5481176 -0.73591071 -0.036930881 0
1.5629152 -0.66296798 -0.060284708 0
1.5519409 -0.57017362 -0.063600205 0
1.5518576 -0.45765492 -0.042570468 0
1.5513722 -0.35169968 -0.038586706 0
1.5666684 -0.24817561 -0.038765259 0
1.5523703 -0.14243352 -0.034760952 0
1.5468822 -0.037128896 -0.045984205 0
1.5716239 0.043024946 -0.052172441 0
1.553223 0.1516552 -0.046635307 0
1.5448097 0.2484626 -0.056384571 0
1.5485171 0.35454991 -0.063511841 0
1.5541136 0.45003986 -0.043600664 0
1.5372097 0.55804938 -0.046476785 0
1.5547382 0.64630973 -0.039469026 0
1.5451317 0.7399959 -0.0380213 0
1.54018 0.84628063 -0.038934872 0
1.5393225 1.037524 -0.073894396 0
1.5439284 1.146513 -0.04979337 0
1.5004147 1.2744198 -0.013419246 0
1.5778898 1.3718437 -0.041084509 0
1.544824 1.4743177 -0.040873066 0
1.5204774 1.5012113 -0.052904449 0
1.5652975 -2.5135667 0.034064338 0
1.530568 -2.229239 0.081761248 0
1.5441217 -2.1527421 0.032504052 0
1.5540795 -2.0609777 0.030449485 0
1.5872622 -1.9988582 0.021138391 0
1.5281839 -1.8455288 0.022357257 0
1.5456498 -1.7659836 0.019932181 0
1.5145565 -1.6345974 0.029604776 0
1.5415901 -1.5511522 0.037134957 0
1.5395678 -1.4682964 0.051520105 0
1.5504906 -1.3605778 0.050138414 0
1.5442853 -1.2542511 0.045579959 0
1.5368748 -1.1573113 0.042922139 0
1.5591494 -1.0557193 0.021957064 0
1.5367612 -0.94662058 0.015387308 0
1.5551226 -0.86342806 0.041142315 0
1.5510811 -0.7427032 0.025000427 0
1.5528927 -0.64344883 0.0085358787 0
1.517972 -0.38360691 0.024862276 0
1.5886419 -0.2444635 0.04404502 0
1.5256246 -0.16109505 0.025508286 0
1.5059824 -0.09109696 0.029611208 0
1.5598959 0.65154976 0.0085224919 0
1.5675764 0.74892837 0.015569623 0
1.5480983 0.85362208 0.020588841 0
1.553373 0.92003495 0.035790641 0
1.5711699 1.0702926 0.02448822 0
1.5332203 1.175313 0.013952 0
1.5489018 1.2343154 0.024189092 0
1.538365 1.3307955 0.044070259 0
1.5083145 1.4076389 0.055098396 0
1.5489187 -2.4201267 0.14194091 0
1.5486435 -2.2128708 0.12715496 0
1.563279 -2.1507461 0.12371729 0
1.5561209 -1.6388663 0.12554257 0
1.5509079 -1.4516766 0.11714452 0
1.5278722 -1.3855635 0.10851801 0
1.5608237 -1.2634748 0.10082578 0
1.518893 -1.15169 0.12343244 0
1.628103 -2.8898208 -0.21553171 0
1.6550913 -2.7744365 -0.22382839 0
1.6672833 -2.6392212 -0.21828954 0
1.6873045 -2.5475388 -0.23856233 0
1.6748338 -2.4448822 -0.22092713 0
1.6443918 -2.3580477 -0.22132304 0
1.6368456 -2.2986639 -0.22657415 0
1.6867398 -2.1703084 -0.22476684 0
1.6541443 -2.0676284 -0.22690986 0
1.640137 -1.9862871 -0.21852992 0
1.6572458 -1.8807988 -0.22857778 0
1.6977178 -1.7810329 -0.2356675 0
1.6711529 -1.6657965 -0.2392887 0
1.6619068 -1.5772564 -0.2383512 0
1.6356287 -1.4749089 -0.23797767 0
1.6198107 -1.387506 -0.23843822 0
1.6120185 -1.2815355 -0.23855361 0
1.6624174 1.1389508 -0.20892833 0
1.6704911 1.278577 -0.20133342 0
1.6402597 1.3556322 -0.21141841 0
1.6100285 1.4326876 -0.22150338 0
1.6873417 2.4525759 -0.20234871 0
1.6799935 2.5495803 -0.20299898 0
1.6505409 -3.3309696 -0.14991559 0
1.6702429 -3.2151251 -0.15907164 0
1.6596028 -3.1459711 -0.15135337 0
1.6278839 -3.0160055 -0.19535185 0
1.6112171 -2.9057341 -0.14541849 0
1.6550217 -2.7426565 -0.17575154 0
1.6276497 -2.5495336 -0.17174406 0
1.6606932 -2.4177239 -0.12603909 0
1.6302238 -2.3126838 -0.12754706 0
1.6238753 -2.2528102 -0.11363469 0
1.6485212 -2.1402431 -0.14622407 0
1.6341711 -2.0301104 -0.12219157 0
1.6805451 -1.9676309 -0.15402563 0
1.651482 -1.8471838 -0.13322985 0
1.6544782 -1.7601739 -0.1208159 0
1.6118419 -1.672202 -0.12389202 0
1.6757078 -1.5368332 -0.11640041 0
1.6420304 -1.4711429 -0.10816501 0
1.6249785 -1.0087861 -0.13819718 0
1.6597869 -0.95247513 -0.13417159 0
1.6420887 -0.72767061 -0.13889162 0
1.6656604 -0.65853399 -0.14488119 0
1.6538655 -0.55403924 -0.14559598 0
1.6588205 -0.44116637 -0.14415361 0
1.6664597 -0.34820837 -0.14530936 0
1.657662 -0.24409556 -0.14468461 0
1.6484041 -0.1622819 -0.14524345 0
1.6590966 -0.054680705 -0.14458852 0
1.6558095 0.036090501 -0.1455604 0
1.6653769 0.14916416 -0.14314628 0
1.6587012 0.2566832 -0.14836362 0
1.6490133 0.34443149 -0.14478169 0
1.6463478 0.44989625 -0.14591418 0
1.6512765 0.54359758 -0.13630265 0
1.6219573 0.66047359 -0.12553759 0
1.6298678 0.70586765 -0.112 0
1.6368713 0.84475082 -0.12801197 0
1.686934 0.94765323 -0.16074887 0
1.6592706 1.0482945 -0.15949976 0
1.6779046 1.1705853 -0.1588559 0
1.6442885 1.2691922 -0.14932846 0
1.6710622 1.3595231 -0.15173504 0
1.6503197 1.4302505 -0.14512616 0
1.6221155 1.5462471 -0.13103384 0
1.6750879 1.7558857 -0.16103077 0
1.6694288 1.8390447 -0.15549086 0
1.6595273 1.944573 -0.15105946 0
1.6193588 2.0230939 -0.15164562 0
1.6284585 -2.984601 -0.09130808 0
1.6385366 -2.8819859 -0.085619263 0
1.6935481 -2.6201215 -0.053928856 0
1.6174395 -2.5514102 -0.034096293 0
1.6571544 -2.4223824 -0.048495516 0
1.6593568 -2.3457582 -0.059172552 0
1.6675498 -2.2560616 -0.069920965 0
1.6586347 -2.1577821 -0.052548975 0
1.6479684 -2.0740843 -0.03793405 0
1.6596971 -1.9416881 -0.060323682 0
1.6597644 -1.8575183 -0.063068636 0
1.6546828 -1.7783997 -0.055032957 0
1.6810436 -1.6650376 -0.041943599 0
1.6362239 -1.5714262 -0.059052933 0
1.6678826 -1.4663332 -0.05845286 0
1.6447182 -1.3681823 -0.049869806 0
1.6497177 -1.2384768 -0.043399569 0
1.6425205 -1.1399864 -0.015295372 0
1.641935 -1.0263181 -0.048325725 0
1.6684411 -0.93488765 -0.013220975 0
1.6508852 -0.86713177 -0.01457518 0
1.6514273 -0.7545706 -0.033141356 0
1.6434091 -0.66564012 -0.024333108 0
1.6386398 -0.55010742 -0.051946975 0
1.6479183 -0.45483056 -0.0085349986 0
1.6369801 -0.34035623 -0.025596702 0
1.680104 -0.23299588 -0.054309811 0
1.647204 -0.15720533 -0.034627512 0
1.6295921 -0.045932163 -0.037243072 0
1.6954333 0.081441611 -0.066305347 0
1.6662067 0.16465977 -0.072104923 0
1.6141003 0.24275388 -0.083976716 0
1.6234254 0.39305323 -0.046602193 0
1.6520624 0.55262554 -0.034450825 0
1.6347225 0.65586483 -0.024812253 0
1.6400791 0.76061028 -0.039408885 0
1.6421459 0.84729451 -0.070157103 0
1.6308174 0.93237185 -0.027125524 0
1.6589293 1.0251813 -0.016377833 0
1.6725124 1.1442058 -0.041613337 0
1.6498623 1.2625231 -0.048777767 0
1.6775763 1.380038 -0.067923181 0
1.654163 1.4611434 -0.076276138 0
1.610386 6.2876658 -0.0058882306 0
1.641591 -2.4664488 0.038660549 0
1.647801 -2.3802185 0.034049977 0
1.633963 -2.0585289 0.040679485 0
1.6590908 -1.9850972 0.025417039 0
1.6546295 -1.8728878 0.017999852 0
1.6394457 -1.7532599 0.020593701 0
1.6165742 -1.6479987 0.029578358 0
1.6606029 -1.5531641 0.039895169 0
1.6311946 -1.4572903 0.059867762 0
1.6441848 -1.3349532 0.053163808 0
1.653715 -1.2473003 0.025749091 0
1.6532651 -1.1611518 0.028299812 0
1.6789514 -1.0612589 0.033115167 0
1.650004 -0.95354855 0.030879788 0
1.6460619 -0.84876347 0.038349535 0
1.6710329 -0.73100585 0.024498887 0
1.6530062 -0.5212841 0.087813564 0
1.6344357 -0.36854413 0.043322109 0
1.614405 0.56778818 0.019940412 0
1.6797938 0.66965401 0.01940288 0
1.6603714 0.74133933 0.017727274 0
1.6570935 0.83426493 0.022842191 0
1.6816392 0.92533261 0.043368146 0
1.6448861 1.0569148 0.035105515 0
1.6815116 1.2997836 0.036680497 0
1.6702337 1.4440198 0.039166216 0
1.6803179 5.7652192 0.090654373 0
1.6686625 5.852294 0.074563928 0
1.6570071 5.9393687 0.058473494 0
1.6395242 6.0699801 0.034337852 0
1.6220412 6.2005911 0.010202211 0
1.6219102 -2.4214063 0.13142139 0
1.6291465 -2.331547 0.12931564 0
1.6596893 -2.2022417 0.1195179 0
1.6481357 -2.1624715 0.10470112 0
1.6549126 -2.0603142 0.11904999 0
1.6648353 -1.5518368 0.12127408 0
1.6613044 -1.4427265 0.10475406 0
1.6056467 -1.3604206 0.10058775 0
1.6790999 -1.2362984 0.10400871 0
1.6919733 5.6781449 0.10674479 0
1.7648231 -2.7604117 -0.20399643 0
1.7693473 -2.6507273 -0.2091088 0
1.7412372 -2.5616663 -0.2143736 0
1.7668078 -2.4784851 -0.22383632 0
1.7688023 -2.3762541 -0.22453724 0
1.7603339 -2.2700109 -0.22052932 0
1.7849593 -2.1788702 -0.22553657 0
1.78983 -2.0892563 -0.22434242 0
1.7668704 -1.9892747 -0.22424294 0
1.7431246 -1.8526388 -0.22836274 0
1.7074463 -1.7462088 -0.21449798 0
1.7865779 -1.6600242 -0.23715283 0
1.7508582 -1.5670294 -0.23743372 0
1.7338487 -1.466094 -0.23796086 0
1.7135335 -1.3609604 -0.23860058 0
1.7470719 -1.2387379 -0.23899105 0
1.7480404 0.94834113 -0.22388987 0
1.7207959 1.0205526 -0.22044535 0
1.7025743 1.101485 -0.20868692 0
1.7062957 2.3914707 -0.20400663 0
1.7521114 2.4977617 -0.20873867 0
1.7717586 2.563576 -0.20515206 0
1.7484922 -3.5500591 -0.15367825 0
1.747723 -3.1414316 -0.16390666 0
1.7231383 -3.0476449 -0.17899847 0
1.7694712 -2.9594707 -0.17910351 0
1.7266512 -2.8730314 -0.19185163 0
1.7931612 -2.7624555 -0.19482499 0
1.7864075 -2.6488674 -0.15577002 0
1.7564939 -2.5298998 -0.12943058 0
1.7411474 -2.4205856 -0.14215448 0
1.7355415 -2.3564954 -0.12655485 0
1.7660774 -2.2584703 -0.11350573 0
1.7349803 -2.1512353 -0.15344557 0
1.7597767 -2.0375018 -0.1514003 0
1.7804937 -1.9457066 -0.15857217 0
1.7636629 -1.8477521 -0.13802114 0
1.7456306 -1.7615343 -0.11697769 0
1.7024099 -1.6270303 -0.11121505 0
1.7826554 -1.5038954 -0.1065879 0
1.7300682 -1.033502 -0.13845454 0
1.7458572 -0.73832065 -0.13945079 0
1.75164 -0.66094011 -0.12287402 0
1.7376813 -0.55888695 -0.14462496 0
1.7044617 -0.42509335 -0.14399999 0
1.7350266 -0.36304042 -0.14475575 0
1.7495317 -0.25254333 -0.14128563 0
1.7210066 -0.14607237 -0.14199722 0
1.7586865 -0.049130674 -0.14075117 0
1.7647097 0.068236224 -0.14083347 0
1.7571352 0.15617315 -0.14172852 0
1.7542025 0.2480326 -0.14192441 0
1.7433907 0.34564653 -0.14222744 0
1.7226864 0.46834537 -0.13510355 0
1.7537569 0.66556746 -0.13251193 0
1.7536063 0.75989169 -0.13729371 0
1.7348855 0.85665703 -0.14625129 0
1.7645743 0.95186538 -0.1251197 0
1.7453221 1.0502917 -0.1352993 0
1.7337228 1.1441469 -0.16103706 0
1.7445941 1.2435648 -0.14598034 0
1.7701569 1.3526078 -0.12833512 0
1.7571037 1.463228 -0.14288573 0
1.7660451 1.528524 -0.14837977 0
1.7491243 1.6158823 -0.14869863 0
1.7227879 1.744367 -0.15338109 0
1.7391045 1.8462504 -0.15029697 0
1.7578855 1.9270779 -0.14799979 0
1.7991796 3.7440221 -0.16582958 0
1.794343 3.8334835 -0.15176922 0
1.7895066 3.9229448 -0.13770889 0
1.7846698 4.0124068 -0.12364855 0
1.7798332 4.1018686 -0.10958821 0
1.7303476 -2.541508 -0.045016814 0
1.7532324 -2.4441366 -0.043171301 0
1.7682568 -2.3527226 -0.030178266 0
1.7542274 -2.2539628 -0.047293164 0
1.7397512 -2.1653895 -0.047495086 0
1.7570249 -2.0572965 -0.049860474 0
1.7583745 -1.9559617 -0.048936125 0
1.750182 -1.8490028 -0.034188133 0
1.7452477 -1.7548676 -0.060643319 0
1.7618897 -1.6575485 -0.054131828 0
1.7417792 -1.5419971 -0.050538477 0
1.7572842 -1.4470572 -0.032822818 0
1.7782223 -1.3331811 -0.054984029 0
1.7559991 -1.2428701 -0.060931619 0
1.7457286 -1.1303395 -0.045711566 0
1.7481476 -1.0362924 -0.039910868 0
1.744408 -0.95407087 -0.037355799 0
1.7455419 -0.84028572 -0.041342251 0
1.7475637 -0.77028674 -0.054612208 0
1.729672 -0.65918839 -0.032930974 0
1.7465396 -0.54050839 -0.015946353 0
1.7453973 -0.41697359 -0.026912877 0
1.7362533 -0.33221611 -0.044381637 0
1.7413291 -0.25872359 -0.057014875 0
1.7458273 -0.17651814 -0.044195566 0
1.7225538 -0.00093402679 -0.061518177 0
1.7707511 0.063167989 -0.065123297 0
1.7588899 0.54512328 -0.052122235 0
1.7311789 0.6397711 -0.025128167 0
1.7374992 0.72912621 -0.029353518 0
1.7398295 0.84373212 -0.048007376 0
1.7361107 0.96978116 -0.032419827 0
1.7445655 1.0433049 -0.065143414 0
1.7593712 1.1447247 -0.067954645 0
1.75161 1.2696508 -0.081518903 0
1.7749966 4.19133 -0.095527872 0
1.7701602 4.2807922 -0.081467532 0
1.7653236 4.3702531 -0.067407198 0
1.758698 4.4928079 -0.048145767 0
1.7987983 -2.5141668 0.033837624 0
1.7281994 -2.4538064 0.037811041 0
1.7683811 -2.3476031 0.044395506 0
1.7655281 -2.276233 0.026228007 0
1.7864692 -2.1484082 0.022833759 0
1.7509197 -2.0276926 0.083880827 0
1.7372801 -1.9248127 0.050311923 0
1.7880081 -1.8235382 0.072201274 0
1.7518562 -1.7412443 0.039807882 0
1.7263188 -1.6400148 0.027666884 0
1.7676587 -1.5559164 0.048178691 0
1.7380652 -1.4441226 0.055510875 0
1.7460694 -1.3708787 0.043054629 0
1.7770875 -1.2546031 0.057005763 0
1.745499 -1.1092281 0.021987388 0
1.7484897 -1.0476418 0.030613521 0
1.7521126 -0.95310348 0.053356603 0
1.74347 -0.8509047 0.05087081 0
1.7512605 -0.76755071 0.040491205 0
1.766108 -0.65021771 0.049461145 0
1.7390568 -0.54152179 0.051130727 0
1.7107805 -0.46498924 0.028722262 0
1.7401966 0.62656111 0.023497365 0
1.737143 0.75577497 0.011650329 0
1.7475741 0.84259909 0.050545104 0
1.7615987 0.93561661 0.02542641 0
1.7311012 1.0455632 0.024458267 0
1.7182071 1.1672568 0.030219696 0
1.7359128 1.2521244 0.028959343 0
1.7271781 1.4630381 0.039615571 0
1.704581 -2.3937628 0.12153629 0
1.75104 -2.2484028 0.11669858 0
1.7360207 -2.1776836 0.11727734 0
1.7428254 -2.0346627 0.10921763 0
1.748631 -1.942541 0.11275303 0
1.712541 -1.7122959 0.11040767 0
1.7681636 -1.6557281 0.11399461 0
1.7962822 -1.5038464 0.1085476 0
1.773172 -1.4975601 0.10589997 0
1.7665278 -1.2193788 0.10927834 0
1.717362 5.4884701 0.14179474 0
1.7036285 5.5910707 0.12283523 0
1.8879598 -2.8929684 -0.20238216 0
1.8762836 -2.7687821 -0.21190828 0
1.8614812 -2.671648 -0.21430925 0
1.8695134 -2.5469401 -0.21203643 0
1.8652309 -2.4587882 -0.220634 0
1.8694961 -2.349705 -0.21265015 0
1.8621559 -2.2687581 -0.22989821 0
1.8806508 -2.1627121 -0.2237649 0
1.8625972 -2.0441332 -0.22394848 0
1.8781675 -1.9417526 -0.22669947 0
1.8598622 -1.8329277 -0.2275103 0
1.8369772 -1.7450799 -0.22032771 0
1.8748826 -1.6448011 -0.23692204 0
1.8549157 -1.5508541 -0.23761262 0
1.8392371 -1.4359393 -0.23838663 0
1.8205653 -1.325876 -0.23920846 0
1.8983943 -1.2316035 -0.23864765 0
1.8414869 -3.2704723 -0.14412294 0
1.8489293 -3.1784739 -0.17433138 0
1.8709425 -3.0680437 -0.17767036 0
1.8766373 -2.9591658 -0.18618804 0
1.8489653 -2.8440251 -0.1826928 0
1.8842145 -2.7521887 -0.16960008 0
1.8625365 -2.6536345 -0.15525094 0
1.8625267 -2.5540936 -0.17195994 0
1.8214858 -2.3287632 -0.14251502 0
1.8409652 -2.2498674 -0.15933315 0
1.8391776 -2.1503575 -0.13505857 0
1.8841932 -2.0384049 -0.14630078 0
1.8401337 -1.8067714 -0.13174103 0
1.8493478 -1.7109495 -0.11512262 0
1.8552752 -1.0668515 -0.13574736 0
1.847353 -0.74988854 -0.14074661 0
1.8429892 -0.64158195 -0.12435831 0
1.8608625 -0.55731958 -0.12506229 0
1.8438745 -0.41990274 -0.13024634 0
1.85147 -0.34653181 -0.1306926 0
1.8494563 -0.24711137 -0.13177577 0
1.8287014 -0.1639827 -0.14072746 0
1.868109 -0.050039571 -0.13555114 0
1.8370733 0.038914327 -0.14292686 0
1.8469198 0.14451492 -0.13868076 0
1.8611922 0.26049751 -0.14005148 0
1.8552999 0.36216033 -0.14245254 0
1.8465701 0.44040006 -0.14405276 0
1.8481768 0.50834388 -0.14190699 0
1.8307863 0.85372597 -0.12813623 0
1.8438814 0.93375522 -0.11421806 0
1.8522238 1.0432545 -0.12788242 0
1.8439016 1.1527617 -0.1416349 0
1.8289623 1.2468345 -0.15364093 0
1.886086 1.3443189 -0.14173262 0
1.8771738 1.4322469 -0.15403351 0
1.8650918 1.7216026 -0.14713097 0
1.8497887 1.8363661 -0.14801954 0
1.8344855 1.9511293 -0.14890808 0
1.8603392 2.0473928 -0.14880525 0
1.892235 2.1530445 -0.14980619 0
1.8064344 3.6098297 -0.18692008 0
1.8827454 -3.1575656 -0.0049080993 0
1.8929174 -3.0697863 -0.014534084 0
1.8518351 -2.6471169 -0.042508606 0
1.8326341 -2.5361516 -0.049508423 0
1.8725638 -2.436574 -0.045786474 0
1.8278992 -2.3607321 -0.043191079 0
1.8204398 -2.2389743 -0.022289492 0
1.8511186 -2.1476185 -0.048350263 0
1.8650646 -2.0422149 -0.040306058 0
1.8525131 -1.9457964 -0.054770086 0
1.8306193 -1.8383194 -0.059990544 0
1.8621409 -1.728754 -0.044274759 0
1.8477471 -1.6414522 -0.025265688 0
1.8732777 -1.5704564 -0.064564146 0
1.8859396 -1.4646103 -0.051380698 0
1.8230913 -1.3417783 -0.052359544 0
1.8543419 -1.247004 -0.04251739 0
1.8594515 -1.0207489 -0.027384749 0
1.8361706 -0.93029159 -0.051862475 0
1.8164915 -0.85998416 -0.04644822 0
1.8629378 -0.73813957 -0.050814144 0
1.8133216 -0.38722703 -0.042283788 0
1.805178 0.48966959 -0.066428535 0
1.8775622 0.58530581 -0.063652456 0
1.8435619 0.65539467 -0.038554713 0
1.8550189 0.75118297 -0.054737501 0
1.8446275 0.8194055 -0.056425083 0
1.8262553 0.93970388 -0.061293274 0
1.8481417 1.0606804 -0.062237293 0
1.8691741 1.1437491 -0.065896071 0
1.8649261 1.2229149 -0.076143503 0
1.848794 1.3321608 -0.073478512 0
1.8130292 1.444263 -0.085730053 0
1.8725704 -3.2453723 0.0047208471 0
1.864982 -2.6258552 0.086408928 0
1.885956 -2.5455217 0.075895227 0
1.8257521 -2.4404092 0.034228813 0
1.8543727 -2.3502698 0.042724326 0
1.8396529 -2.2338612 0.050806936 0
1.8618227 -2.1360469 0.036846042 0
1.8656611 -2.0456104 0.029921474 0
1.8397197 -1.9370064 0.054574471 0
1.8798566 -1.8073452 0.037803043 0
1.8339813 -1.7432648 0.038774684 0
1.8591585 -1.6647522 0.032403246 0
1.8551935 -1.5524267 0.040787064 0
1.8450979 -1.4661115 0.047765758 0
1.8404505 -1.3529202 0.055530559 0
1.8412735 -1.2376243 0.038813923 0
1.8421106 -1.1557815 0.03387275 0
1.8442353 -1.0651211 0.032260723 0
1.85129 -0.91684353 0.04376312 0
1.8466675 -0.84467649 0.047723427 0
1.8491093 -0.73969442 0.04409916 0
1.8704443 0.54018402 0.020292655 0
1.8458561 0.66351706 0.017675901 0
1.8202823 0.73209584 0.031861965 0
1.8560487 0.83964771 0.022640467 0
1.8808219 1.0459789 0.026653327 0
1.8083935 1.1356441 0.02063713 0
1.837494 1.2361541 0.031855814 0
1.8441974 1.3396479 0.038441572 0
1.8346165 1.4758093 0.042466916 0
1.896559 -2.1033645 0.11342435 0
1.8136734 -2.0952308 0.10969905 0
1.8863803 -1.9718536 0.10282285 0
1.8219992 -1.839298 0.10665181 0
1.8164679 -1.6076794 0.10721811 0
1.8985471 -1.5610901 0.10187616 0
1.8438464 -1.4631847 0.10147248 0
1.8286054 -1.3727047 0.10998952 0
1.8622751 -0.8837266 0.10698531 0
1.9802604 -2.8024621 -0.20564869 0
1.9427284 -2.7040818 -0.21686459 0
1.9036136 -2.6076789 -0.22032993 0
1.958872 -2.5820496 -0.23498324 0
1.944536 -2.443223 -0.2163156 0
1.9457355 -2.3600748 -0.22198349 0
1.9564223 -2.2590425 -0.22370578 0
1.9802779 -2.1409929 -0.21905819 0
1.9675411 -2.0216086 -0.22004941 0
1.9616597 -1.9355876 -0.21639517 0
1.9337419 -1.8263321 -0.22131784 0
1.956756 -1.7256078 -0.23712076 0
1.971423 -1.6217409 -0.23734999 0
1.9501249 -1.5325685 -0.23792067 0
1.9512184 -1.429675 -0.23802306 0
1.9262053 -1.3288338 -0.23796016 0
1.9889715 -1.2249731 -0.23945153 0
1.9842589 -3.20474 -0.14342761 0
1.9884766 -3.155555 -0.14696841 0
1.9371287 -3.0709453 -0.18801893 0
1.9543961 -2.9986093 -0.19382922 0
1.975529 -2.8976288 -0.19794063 0
1.9797564 -2.7083952 -0.10390255 0
1.9866489 -2.640908 -0.14578336 0
1.9374018 -2.5480723 -0.16240539 0
1.9067707 -2.4328151 -0.16002424 0
1.9565667 -2.3442926 -0.16596198 0
1.9638401 -2.2487555 -0.18756773 0
1.9505672 -2.1956761 -0.17893586 0
1.9317842 -2.0025413 -0.1054315 0
1.9013333 -1.7023441 -0.11119092 0
1.9575782 -1.1258234 -0.14413029 0
1.9614865 -0.80512851 -0.14022864 0
1.9470159 -0.73190987 -0.14225926 0
1.9473413 -0.64477456 -0.12294358 0
1.946932 -0.51883954 -0.103713 0
1.9261498 -0.4272325 -0.12737708 0
1.9452521 -0.32719934 -0.1271069 0
1.9490708 -0.22690281 -0.12974821 0
1.944719 -0.15039459 -0.11829263 0
1.9382724 -0.069262922 -0.13490097 0
1.9431034 0.069918334 -0.13317987 0
1.9625708 0.15672614 -0.13626878 0
1.9574375 0.26617578 -0.13803861 0
1.9515382 0.3509573 -0.13819763 0
1.9300479 0.4497461 -0.14130825 0
1.9542365 0.5436604 -0.13388979 0
1.9455602 0.96443713 -0.10870776 0
1.97012 1.0361264 -0.10996599 0
1.922197 1.1890337 -0.14184506 0
1.9611229 1.2647929 -0.16035703 0
1.9433396 1.3908614 -0.10809231 0
1.9464862 1.4470286 -0.12323522 0
1.9151486 1.7763246 -0.14302734 0
1.9103497 1.8552226 -0.14444704 0
1.9055508 1.9341208 -0.1458668 0
1.9841142 -3.1599636 -0.038745906 0
1.9867592 -3.0562165 -0.029521905 0
1.9560242 -2.961725 -0.03621278 0
1.9429967 -2.8291941 -0.033374291 0
1.9557081 -2.7325554 -0.040780872 0
1.9724191 -2.6286194 -0.042073838 0
1.9601706 -2.5353203 -0.058465242 0
1.9419459 -2.4586482 -0.044561978 0
1.9423206 -2.3495908 -0.055879258 0
1.9408706 -2.2525737 -0.025638411 0
1.9478806 -2.1487575 -0.022303481 0
1.962485 -2.0645282 -0.018104227 0
1.9483941 -1.9374139 -0.050135702 0
1.9525503 -1.8210801 -0.041753247 0
1.9628843 -1.7365774 -0.021646634 0
1.9408215 -1.6492499 -0.048879884 0
1.9458885 -1.5354134 -0.05537618 0
1.9578073 -1.4758483 -0.069739826 0
1.944358 -1.3255832 -0.075923413 0
1.9235955 -1.1236591 -0.057182983 0
1.943975 -1.043499 -0.070452943 0
1.9690608 -0.94574028 -0.076068856 0
1.9494519 -0.84652513 -0.049374837 0
1.9352291 -0.76477891 -0.048746862 0
1.969331 0.47101384 -0.010682276 0
1.9373345 0.54852873 -0.030330701 0
1.9334869 0.65315574 -0.043003552 0
1.9489207 0.76616055 -0.037829954 0
1.926468 0.8813445 -0.070216157 0
1.9388479 0.94983399 -0.04837168 0
1.9496979 1.0388939 -0.060827043 0
1.9409587 1.1516591 -0.076287039 0
1.9728054 1.282233 -0.079160482 0
1.9349684 1.3539404 -0.051556669 0
1.9393865 1.4060582 -0.077991061 0
1.9085025 -2.6306801 0.06158359 0
1.9238982 -2.5455699 0.028842166 0
1.9668443 -2.3477757 0.040705871 0
1.9682841 -2.2814612 0.02459787 0
1.9656427 -2.1627316 0.038668033 0
1.9605803 -2.0445964 0.033361807 0
1.9622411 -1.9471314 0.025130864 0
1.9587587 -1.8596479 0.046028242 0
1.9464929 -1.7516618 0.071324572 0
1.9647604 -1.6445603 0.055143125 0
1.9683727 -1.5131515 0.063941911 0
1.9344081 -1.4551094 0.058540039 0
1.9036815 -1.0255681 0.053254947 0
1.9220246 -0.92535073 0.054909997 0
1.9365246 -0.85735863 0.042451773 0
1.93748 0.57986665 0.0027613696 0
1.9156587 0.68999708 0.016312143 0
1.9552861 0.77777517 0.025582884 0
1.9429352 0.85513276 0.029126434 0
1.9494002 0.97411609 0.018549947 0
1.9611977 1.0589335 0.035962168 0
1.947481 1.1799947 0.036357071 0
1.972396 1.2492478 0.021396767 0
1.9768202 1.3576034 0.035212144 0
1.9225377 1.4534297 0.037814315 0
1.9940418 -2.3651102 0.16810673 0
1.9962726 -2.289515 0.15718442 0
1.9908314 -2.0733423 0.11461923 0
1.9217745 -1.4240817 0.11226691 0
1.9834614 1.366062 0.11087349 0
2.0659122 -2.6095295 -0.2142193 0
2.0620866 -2.4394188 -0.2226411 0
2.0266497 -2.3367701 -0.2070988 0
2.0441186 -2.25702 -0.22040614 0
2.0896859 -2.1575737 -0.21977654 0
2.0654948 -2.0489874 -0.21955398 0
2.046097 -1.9361969 -0.22295345 0
2.0484233 -1.8411719 -0.22487165 0
2.0553217 -1.7496269 -0.22267483 0
2.0806839 -1.6511809 -0.23670283 0
2.0450671 -1.5133625 -0.23720612 0
2.0461512 -1.39633 -0.23745276 0
2.0682144 -1.2638533 -0.23920053 0
2.0628145 -3.1541553 -0.15618588 0
2.0436809 -3.0490708 -0.16382377 0
2.0369139 -2.9429135 -0.16417503 0
2.0649588 -2.8503473 -0.17591396 0
2.0693214 -2.7435098 -0.15018177 0
2.064991 -2.6438446 -0.16476835 0
2.0702572 -2.5618873 -0.14998631 0
2.0080028 -2.4682279 -0.13662699 0
2.0055504 -2.3543775 -0.15142956 0
2.04211 -2.2600172 -0.13338986 0
2.0570803 -2.1496744 -0.13114935 0
2.0504723 -2.0547287 -0.14250404 0
2.0492308 -1.9793566 -0.17581595 0
2.0754108 -1.8532789 -0.15252194 0
2.0685897 -1.7649086 -0.13696048 0
2.0698085 -1.6816767 -0.12161571 0
2.0588887 -0.82206583 -0.13961112 0
2.038131 -0.73537242 -0.13985896 0
2.0430207 -0.65930706 -0.14108339 0
2.0277774 -0.54278874 -0.1032305 0
2.0508544 -0.4494518 -0.10597721 0
2.0457942 -0.34396139 -0.10884675 0
2.0583599 -0.2388282 -0.11286867 0
2.0611315 -0.14694543 -0.11692329 0
2.0658937 -0.050941061 -0.11996437 0
2.0583832 0.062659919 -0.13208467 0
2.0607786 0.15737265 -0.13357677 0
2.0642998 0.25365525 -0.13485497 0
2.0684474 0.34916148 -0.13549154 0
2.0500257 0.44931608 -0.13719036 0
2.0691226 0.54178578 -0.13598621 0
2.0842962 0.75136757 -0.1038643 0
2.0563536 0.82372999 -0.10390468 0
2.0493639 0.93444759 -0.12726475 0
2.0653341 1.0664582 -0.12512839 0
2.0395877 1.1690781 -0.14250019 0
2.0476174 1.2512145 -0.14105898 0
2.0693772 1.3729839 -0.13542402 0
2.0746205 1.4370846 -0.15354173 0
2.0643926 -3.033294 -0.05903827 0
2.0463197 -2.9448376 -0.038998641 0
2.0525236 -2.84571 -0.045669038 0
2.0696712 -2.7281096 -0.070141047 0
2.0573111 -2.6579609 -0.044051319 0
2.0580521 -2.5527146 -0.065041281 0
2.0312634 -2.4657505 -0.046098225 0
2.0823529 -2.3306298 -0.018403269 0
2.0452571 -2.238091 -0.021188335 0
2.0452414 -2.1554232 -0.012369471 0
2.0859549 -2.0340729 -0.037126519 0
2.0566244 -1.9391387 -0.043700274 0
2.0810788 -1.8747334 -0.043942299 0
2.0664873 -1.6780813 -0.049616866 0
2.0738022 -1.5537348 -0.046069436 0
2.0171089 -1.4481461 -0.043656573 0
2.0650103 -1.3608456 -0.026336312 0
2.0601931 -1.254408 -0.025362836 0
2.0424981 -1.1586018 -0.063925207 0
2.0650256 -1.0364356 -0.047103442 0
2.0692163 -0.93217266 -0.048702143 0
2.0298061 -0.83119047 -0.080968812 0
2.0202823 -0.74269885 -0.098865986 0
2.0268953 -0.65624839 -0.09942355 0
2.0587664 0.61393631 -0.034734424 0
2.0823884 0.76483542 -0.064660788 0
2.0497477 0.84758747 -0.063970312 0
2.0453646 0.94726825 -0.056055535 0
2.070714 1.0384868 -0.034911197 0
2.0391719 1.159752 -0.04662437 0
2.0320249 1.256632 -0.068037912 0
2.0133014 1.3587667 -0.07190901 0
2.0311697 1.455574 -0.077401556 0
2.0502043 -3.1091986 0.07432384 0
2.0494165 -3.0256596 0.059326477 0
2.0488324 -2.9637232 0.048207249 0
2.0122161 -2.8301551 0.0059496337 0
2.0194502 -2.7239149 0.020502305 0
2.0336566 -2.6704481 0.0066771596 0
2.0449698 -2.547354 0.0088070184 0
2.0657988 -2.4415734 0.016848642 0
2.0561781 -2.3604732 0.023732537 0
2.0480497 -2.2365744 0.045615446 0
2.043678 -2.1508844 0.033993639 0
2.0485349 -2.0491006 0.028555343 0
2.063745 -1.9649127 0.037601791 0
2.0090148 -1.8576753 0.094790339 0
2.0139413 -1.7674956 0.05493426 0
2.0212817 -1.6598002 0.054140717 0
2.0034175 -1.5258389 0.040800802 0
2.0258498 -1.4278152 0.025420267 0
2.0659661 -1.353799 0.020958222 0
2.0191333 -0.83401257 0.023345524 0
2.033782 0.62384248 0.018361153 0
2.0724792 0.75527912 0.021096788 0
2.0930097 0.86323154 0.036397673 0
2.0519838 0.9455272 0.040980633 0
2.0505626 1.0572094 0.032599222 0
2.0380633 1.1450841 0.03235694 0
2.0345745 1.2425877 0.0534584 0
2.0443189 1.3655224 0.03016524 0
2.0394695 1.4515811 0.030069632 0
2.0041258 -2.1341827 0.13001093 0
2.0296524 -2.0393708 0.11700536 0
2.0064664 -1.9440434 0.10726915 0
2.1699526 -2.8073328 -0.20081207 0
2.1617563 -2.6940408 -0.20787659 0
2.1573901 -2.5892663 -0.21842596 0
2.1527052 -2.4444046 -0.22185746 0
2.150528 -2.3061447 -0.2192791 0
2.1007292 -2.2037866 -0.20776363 0
2.1927612 -2.1540325 -0.23143469 0
2.188904 -2.0829725 -0.21842211 0
2.1704543 -1.9639261 -0.22114308 0
2.1609058 -1.8438185 -0.22248523 0
2.1546109 -1.7705865 -0.22281907 0
2.1419725 -1.6849318 -0.22325902 0
2.1806006 -1.5932829 -0.23679674 0
2.1457024 -1.4912063 -0.23780844 0
2.1235206 -1.3631712 -0.23863897 0
2.1940322 -1.1891448 -0.24040096 0
2.1870706 -4.0702152 -0.11978776 0
2.1845076 -3.9596145 -0.12904301 0
2.1824198 -3.8695183 -0.13658242 0
2.1803319 -3.7794216 -0.14412184 0
2.1782444 -3.6893253 -0.15166126 0
2.1751125 -3.5541809 -0.16297036 0
2.1719809 -3.4190361 -0.17427948 0
