# .PCD v0.7 - Point Cloud Data file format
VERSION 0.7
FIELDS x y z intensity
SIZE 4 4 4 4
TYPE F F F F
COUNT 1 1 1 1
WIDTH 1361
HEIGHT 1
VIEWPOINT 0 0 0 1 0 0 0
POINTS 1361
DATA ascii
1.2672106 1.2886947 0.0474834 4.5
1.2842857 -1.2259901 0.11652002 6.5
1.2207004 -1.0066286 0.12107103 6.3333335
1.2926171 -0.97682875 0.16415283 6.5
1.2950224 -0.76720285 0.17134437 8.5
1.2655518 -0.61718714 0.17968784 8.5
1.260693 -0.41908565 0.1017189 8.5
1.2020135 -0.35659164 0.15403564 10
1.2335252 0.40257683 0.11109833 5.5
1.2149546 -3.3805015 0.21576723 6
1.2750722 -2.0707557 0.2375872 8
1.2488209 -1.0016336 0.21988064 7
1.255963 0.41208443 0.2577703 8
1.2522976 0.67508084 0.23172402 6
1.2547497 1.2969056 0.25242496 8
1.2820719 -0.66755235 0.30413985 11.5
1.284107 0.91015464 0.3101114 13.5
1.2685 -2.777133 0.47721535 8
1.2937125 -2.090008 0.44425055 11.5
1.2088333 -0.53827369 0.44201514 11.5
1.2227459 0.55586797 0.42611417 9
1.2563545 1.305112 0.46817827 11
1.2834328 -2.723335 0.59764481 9.5
1.2340599 -0.85040396 0.58822578 21
1.2080065 -0.78593236 0.57887423 20.5
1.2865163 0.90981185 0.52189994 19.333334
1.2699115 1.0129589 0.5379315 18
1.2081826 -3.0389121 0.68899256 9
1.2083511 -1.8879062 0.61467737 14.5
1.2631284 -0.72861451 0.6180293 19.5
1.2884973 -0.69198686 0.69650263 16.5
1.2723056 1.3012408 0.66699797 14
1.2534267 -3.0668364 0.79741096 10
1.2442189 -1.0849042 0.76585352 23
1.2443719 -0.89794135 0.79604179 24
1.2353585 -0.65908015 0.74725693 23
1.2336516 -3.0706117 0.89122188 11
1.2144597 -0.64262325 0.93968594 27
1.2340864 -0.57287115 0.95317847 27.5
1.2218494 1.3207257 0.91779411 16.5
1.2611601 -2.9133885 1.1967384 17
1.2091215 1.2966397 1.4030406 22.5
1.2288949 1.269479 1.8360965 26.5
1.2764748 -5.6055903 1.911823 14
1.2634935 -5.5812325 2.1632783 14
1.2512197 1.3474959 2.1778667 27.75
1.2909263 -2.3287809 2.3842678 29
1.2165143 -2.1806228 2.3548987 29.5
1.2968849 -0.1896262 2.3495712 31
1.2906944 0.29585999 2.3838317 28
1.2499062 0.75072223 2.3980765 31
1.244875 2.3392737 2.3380542 22
1.2240366 -2.6214592 2.4981558 29
1.2614379 -4.008965 2.5153375 19
1.292012 -1.7467326 2.579004 29
1.200007 -1.6487331 2.5800037 30
1.2442564 1.8502194 2.5536489 30
1.2978055 2.7526777 2.5809982 24
1.2142227 -2.0080874 2.64816 29
1.3107321 1.3245544 -0.20085157 1
1.3603619 0.60247433 -0.035701174 2
1.3001275 0.88809288 -0.012857179 3
1.3649893 1.3891035 -0.085859194 2.5
1.3657634 -1.351501 0.032296024 4
1.380695 0.50798094 0.096753366 5
1.3104819 0.89981973 0.096360132 7
1.3643025 -1.0667114 0.18544509 9
1.3149726 -0.80739975 0.1914579 9
1.3033934 -0.089656539 0.13031445 6
1.3821532 0.8664791 0.1094477 6.5
1.3675748 1.3962365 0.11372939 5.5
1.3330753 3.1235163 0.19640005 4
1.3780608 -2.6874566 0.29167315 7
1.3746186 -1.3456482 0.22783285 7
1.3598578 -1.0438595 0.27168354 8.333333
1.3342942 -0.77508855 0.22789994 10
1.3805228 -0.61537999 0.21356107 11.5
1.3975023 -0.52886987 0.27416834 12
1.395161 0.51345557 0.23392494 7.5
1.343307 0.86510777 0.21429466 9
1.3486602 1.3942908 0.26670021 8
1.3912179 0.90456086 0.32751414 11
1.387328 0.98922366 0.49070677 10
1.3713917 1.4213535 0.46346051 11
1.3089954 -0.75496954 0.57500273 14
1.3622943 -0.66116118 0.5250966 19.5
1.3218528 0.87720686 0.55171704 17.5
1.35596 -0.64508212 0.64508909 25.75
1.3600404 -0.35833651 0.67350268 20
1.3790761 0.43481243 0.6360063 15.5
1.3583016 -0.64096451 0.72156769 22.75
1.3932673 -0.36450109 0.73035467 21
1.3239005 0.92304999 0.76307201 24.5
1.3905908 -0.97101152 0.80354232 26
1.3285187 0.92505074 0.82671726 26
1.3286138 1.4009354 0.90691906 16
1.3385545 -3.0356431 1.0229498 13.5
1.3258371 1.3631257 1.0316503 18
1.3581645 -2.9874382 1.6543611 19.5
1.3563197 -2.9794602 1.793209 21
1.3681059 -2.8889754 1.9127837 24
1.3724992 6.8688593 1.9363793 11
1.353286 -4.8376503 2.2786579 18
1.3054103 -4.5548859 2.2771075 19
1.3185666 1.3433577 2.285949 28
1.3024162 1.8071225 2.2770777 31
1.3816649 -2.2513387 2.38831 30.5
1.3726075 0.46377367 2.3765538 26.5
1.326654 0.7776975 2.3943846 26.5
1.3731266 2.1368661 2.3969843 24
1.3012245 2.3478203 2.3287246 25
1.3944626 -4.5446429 2.4801505 20
1.3292477 -3.3678658 2.4804804 24
1.3313645 -3.0487876 2.472502 26
1.308131 -1.7519904 2.4944015 30
1.3829966 -1.4498007 2.5790038 31
1.3284723 1.1123711 2.5589879 30
1.4967384 -2.8456697 -0.10174073 3
1.4965287 -1.0249764 -0.096303791 2
1.4016755 -0.53074348 -0.017042169 2.5
1.4517813 0.86527437 -0.036058795 2.25
1.4057498 1.3940248 -0.0034013197 4
1.482505 -1.3653417 0.09581165 5.5
1.4688218 -1.0006974 0.024581572 6.3333335
1.4017003 -0.52706933 0.088693053 6
1.4608105 -0.10219263 0.052518237 4.5
1.4665738 1.0080738 0.076000609 5
1.4869806 -3.1368873 0.11072306 5
1.4837437 -1.0461359 0.15745221 10
1.4258657 -0.80471861 0.13334429 7.3333335
1.4091644 -0.59815675 0.10592347 6.75
1.4026462 0.86006725 0.16600071 6
1.4641247 0.9605301 0.1366147 4.5
1.4691703 -3.1272604 0.20060638 6.5
1.4130704 -1.394284 0.2208128 7
1.4324136 -1.2181084 0.26744771 11
1.4898866 -1.0108374 0.26143405 13.05
1.4407914 -0.84780389 0.26881072 10.916667
1.429104 -0.73471224 0.27450845 12.5
1.4696431 0.85512018 0.22200082 7
1.4759231 -1.0696357 0.34122241 11.166667
1.4523499 -0.85282427 0.32754847 14.666667
1.4949133 -0.70389318 0.37336746 16.5
1.422645 -0.66823947 0.34939376 12.75
1.4827601 0.46179944 0.31986886 10
1.4176025 0.69268519 0.32688648 7
1.467486 0.87029606 0.30803889 8.5
1.4054576 -3.1054764 0.40624318 8.5
1.4776217 -1.0461036 0.47341341 19.5
1.4474744 -0.9787268 0.45633775 19.4
1.4361596 -0.84759361 0.422979 18
1.4101402 -0.64936352 0.48726711 18
1.4440548 0.46399277 0.48840767 13
1.4467008 -3.1173668 0.5434624 10
1.4752278 -1.0125887 0.55760759 22
1.4351609 -0.82457489 0.50131285 18.25
1.401898 -0.75088316 0.59319681 17
1.4920621 0.90025204 0.57637084 20.5
1.4041293 -3.0580366 0.69016647 10
1.4482383 -0.70264608 0.66889626 24.5
1.4768609 -3.0059886 0.75899774 11
1.4131836 -0.68097067 0.79125714 25
1.4595119 -0.57750422 0.75717181 27.5
1.4527055 -0.28666416 0.70426273 21
1.4759403 0.9227953 0.70530313 23.200001
1.4066511 -3.0017493 0.84903657 12
1.4309952 -2.5866854 0.84445715 13
1.4176351 -0.70301229 0.83703619 26
1.4741851 0.91649067 0.8255533 25.5
1.4051312 -0.64189172 0.96324718 25
1.4594086 -2.8289318 1.0227591 16
1.4765071 1.3097144 1.6938971 26
1.4951084 1.2611327 1.8172767 27.5
1.4104829 1.2747923 2.1403546 26
1.456663 -3.1435087 2.3642135 26.5
1.4358493 -2.8153365 2.3466706 28
1.4887327 0.3841736 2.3968894 28
1.489977 1.1615347 2.3937869 30
1.430671 -3.171839 2.4660685 25
1.4577479 -3.0541289 2.4109383 28
1.4912481 -2.6211002 2.4918535 30
1.4340762 -1.7376667 2.4594204 29
1.4091092 2.0498302 2.4979992 27
1.4753023 -2.6344161 2.5003037 30.5
1.4623263 1.1275711 2.5567863 30.75
1.481123 1.9988899 2.5899992 27
1.4345099 -2.5279889 2.6454158 28
1.4197935 -2.3803439 2.6184783 28
1.5821487 -1.2436602 -0.14483473 1
1.5921025 1.2231038 -0.15912305 1.5
1.5467311 -1.6149037 -0.032618579 1.5
1.5916744 0.47886911 -0.059093572 2
1.5450678 -2.8965042 0.006002761 4
1.5529653 -1.5500482 0.095134087 6
1.5899246 1.2241782 0.057877868 5
1.562439 -1.4553993 0.18135028 8
1.5317744 -1.1463848 0.18017448 6.25
1.5697793 0.49787715 0.10469377 5.5
1.5380466 0.86673546 0.16466215 5
1.5677006 1.2315981 0.18770748 7.5
1.5219839 -2.6801336 0.25164071 6.5
1.5159584 -1.4783298 0.26123729 11
1.5344722 -1.2239722 0.20455359 7
1.5301298 -1.1453203 0.27371755 13
1.5476463 -0.84849334 0.27471927 11
1.5183635 0.4679572 0.23420593 8
1.5737557 -1.5086607 0.30512452 13
1.5091085 -1.0863849 0.37422249 16
1.5672064 0.064636737 0.37910691 9
1.5234205 0.78394198 0.35853586 10
1.5383947 0.87139452 0.37361258 8
1.5873711 1.2255062 0.31237936 9
1.587907 -2.6584342 0.40201509 8
1.5400983 -1.0302616 0.42539683 19
1.5212424 0.49580055 0.49694687 13
1.5802099 1.2421288 0.43292448 11.333334
1.597375 0.89074671 0.51890945 19
1.5076771 0.91935885 0.52957237 15.5
1.5331491 0.47507924 0.67735958 17
1.5124959 0.91489124 0.6382817 17.5
1.5758213 1.2441411 0.68841171 15
1.5828162 1.3736882 0.69651192 16
1.5233449 -0.66230255 0.71582139 26
1.549395 0.87655073 0.78462869 13.5
1.5460792 -3.4653285 0.88263822 12.5
1.5389682 0.87969482 0.89555609 15
1.5652282 1.2192241 0.84481615 17
1.588699 1.2617406 1.0221858 19.5
1.5262338 1.2338518 1.1258652 21
1.5293177 1.2242867 1.2038398 22
1.5317166 -5.6043105 1.5733066 12
1.5781192 -2.9721951 1.843906 22
1.5990393 1.2151061 2.0645621 29.5
1.5945712 -2.9651012 2.2500913 24.5
1.502353 -5.4390187 2.3608577 16
1.5260025 -4.9953141 2.3570912 17
1.5004516 0.52653545 2.3974106 28
1.5929995 1.0715716 2.3922112 30
1.503284 1.2401743 2.3167598 31
1.5826836 1.6762028 2.3733671 26.5
1.5471781 -2.7769523 2.4223311 29
1.5864608 -2.6694412 2.441395 25.5
1.592467 0.30274284 2.4281526 30
1.587384 -2.5600162 2.5312777 29
1.5379343 1.0196611 2.5572052 26
1.5444795 1.5054417 2.5515161 28
1.6679083 -1.7349454 -0.04737344 1
1.6942061 -0.79197013 -0.028960172 1
1.644073 -0.67980641 -0.005807241 2.5
1.6940757 0.38060713 -0.085348248 2
1.6784949 -1.5057676 0.040072188 2
1.6420108 -1.3124133 0.047964245 2.5
1.6294876 -0.81226051 0.075717479 6
1.6932197 -0.45649707 0.090187684 6
1.6013863 -2.6504347 0.19700803 6
1.67012 -1.7200105 0.1652153 8
1.6354779 -1.4018598 0.12180777 4
1.6500492 -1.336431 0.16591772 6
1.6248388 -0.65156114 0.11714619 7.5
1.6374106 -0.53804499 0.18065885 6
1.6556791 -1.4180713 0.21800393 6.5
1.626161 -1.3261288 0.29249594 12.5
1.6424707 -0.8474263 0.29720587 14.75
1.6291733 -0.66337579 0.216691 11
1.6548373 0.9151451 0.21833697 9
1.6927599 1.2643232 0.29785067 7
1.6388959 -1.6951375 0.39692041 9
1.6336886 -0.5530414 0.37833121 12.666667
1.6071533 0.92495447 0.30916768 10.75
1.611627 -1.2882842 0.41787276 18.5
1.6811726 -0.77105176 0.41000912 19
1.6187656 0.86473399 0.49602181 10
1.6236644 -3.3062615 0.57504851 10
1.6419486 -0.76171082 0.53917068 21.5
1.6584179 0.84434628 0.55154926 15
1.6812744 -0.93889034 0.6849919 25.5
1.637385 -0.84355825 0.67802662 25.5
1.6801668 -0.74922079 0.61729348 23.25
1.6074258 -0.68101639 0.64089566 23.5
1.664071 0.84412056 0.8445676 17
1.6746755 -2.9713521 1.3849796 18
1.6368488 -3.2034183 1.4431595 20
1.6178846 1.3156726 1.4248737 23.5
1.604458 7.0105257 1.748346 10
1.6955101 6.6414938 1.9315884 11
1.6019009 6.8571038 2.0336244 12
1.6040591 -4.6513462 2.2836378 19
1.6623809 -5.3590717 2.350642 15
1.6750113 -1.8157797 2.3770046 26
1.6640669 0.053756084 2.3994477 30
1.6170943 -3.8188453 2.485574 23
1.6179295 -2.8622544 2.441983 28.5
1.6918612 -2.7243023 2.4983306 30.5
1.6720308 0.27970099 2.4319527 29
1.6198212 0.55497408 2.424026 27
1.6719143 2.1419156 2.4729488 28
1.6857114 -3.1930799 2.5012407 23
1.6542219 -2.6894879 2.5135381 27
1.6066151 -2.5577948 2.523313 28
1.654652 0.61965913 2.576725 28.5
1.6734091 2.068455 2.5535846 29
1.6869942 -2.5869923 2.6262012 27
1.7493731 1.460235 -0.10192694 2.5
1.7869043 -1.7169374 -0.014695976 2
1.7875016 -0.71320981 -0.014860076 2
1.7702312 -0.641487 -0.025055308 1
1.714211 0.63885605 -0.09753415 1.5
1.7467558 0.83235431 -0.036985271 2.5
1.774013 -1.6255841 0.045194726 3
1.761988 -1.111549 0.086692631 6.5999999
1.7865579 -0.81409705 0.090003453 5
1.790545 -0.79410064 0.024003429 4
1.7109169 0.53668118 0.067894578 4.5
1.727101 0.79710138 0.077769563 4.5
1.7696232 0.85567755 0.089667879 5
1.7278211 0.93932766 0.033490647 3.75
1.7000065 -3.3992462 0.13018352 5
1.7563059 -1.8589399 0.15569735 5
1.7168822 -1.6282852 0.16322258 5
1.764271 -1.3258498 0.18408825 9
1.7396489 -1.0566878 0.16549699 9.75
1.7561712 -0.79662132 0.19552715 8
1.7281947 -0.3032048 0.16418007 10.5
1.7266252 -0.15057035 0.16900462 9
1.7235827 0.97112817 0.14957222 5.666667
1.7556672 -3.3659754 0.25802034 6.5
1.797069 -1.1780473 0.28966942 13.5
1.7351385 -1.0483288 0.2467756 12
1.7067214 -0.8042016 0.27129775 11
1.7822326 0.62683523 0.29197356 8.5
1.7377936 0.87091839 0.25300902 8.75
1.7186292 0.96621412 0.26021796 8
1.7790318 1.4877038 0.21808545 7
1.7902877 -2.7587061 0.35231721 8
1.7720115 -0.96925223 0.35511699 17.5
1.7611648 -0.43333551 0.36694986 21
1.7461201 -0.27180251 0.31289554 14
1.7785242 -3.2746422 0.44691446 8.5
1.7734258 -2.7092962 0.4238624 9
1.7586783 -1.12132 0.40002653 17
1.7050683 -1.0017761 0.44164851 18.666666
1.7195845 -0.80178994 0.49897069 22.200001
1.7921079 1.5121442 0.47506839 11
1.763618 -1.1305623 0.56137419 27.5
1.7326494 -0.94868225 0.55484611 25.071428
1.7015789 -0.87902385 0.56942433 28
1.7570729 -0.76168031 0.59094793 22.458332
1.7827243 -0.67674184 0.59337085 26.75
1.7101547 -0.49337828 0.58163786 26.25
1.7284923 -0.16805239 0.57743496 21
1.7639384 0.63999403 0.54893452 13
1.7458692 -3.0476573 0.62681097 11
1.7762851 -0.95895851 0.62404323 25.5
1.7133797 -0.8413589 0.60792416 19
1.7237657 -0.73009682 0.60842007 21
1.7966427 -0.60818267 0.6086005 25
1.7382226 -0.14549546 0.64126146 22
1.7646842 1.4820601 0.63943142 13.5
1.7856578 -3.0417838 0.7222057 12
1.7806721 -1.1416116 0.70456493 26
1.7814509 1.5082816 0.79779029 15.5
1.7133648 0.89941913 0.84559172 24.5
1.7226654 1.456846 0.90135008 17
1.7281302 -1.4719194 1.0048772 25
1.7530376 1.4631311 1.0232148 18.5
1.758247 1.5023555 1.2040417 20.5
1.7014019 -3.006593 1.7778981 19.5
1.7450923 1.008469 1.8545632 29
1.7239186 -5.3264384 1.9019113 13
1.7649406 -3.1855071 2.0623062 25
1.7437689 -2.9855332 2.0246811 21.5
1.757015 -5.2997694 2.1547627 16
1.765788 1.4871058 2.1190875 28
1.775241 -2.9583087 2.34254 25
1.7205493 2.2501028 2.3664727 22
1.7476897 2.3154314 2.3632243 21
1.7009952 1.0865186 2.5472801 29.5
1.7151334 -2.5177801 2.6631296 30
1.7117319 -1.645884 2.652071 30
1.862967 -3.1649413 -0.10646593 3
1.8384339 0.99850792 -0.11971834 2
1.8578035 -3.1755486 -0.01058697 4
1.8528082 -0.92641497 -0.016014919 1
1.8175869 -0.72844124 -0.011873086 2
1.8971778 0.72777969 -0.066252664 2.5
1.8408844 0.92519653 -0.045028135 2.25
1.8436261 -1.8949815 0.062686741 2
1.8291498 -0.8112762 0.062081762 3.5
1.8063029 -0.70847583 0.093944423 6.1666665
1.8315926 0.94884002 0.054824002 4.6666665
1.8060317 1.5017112 0.090447828 5.5
1.8876871 -1.9452628 0.11520337 6
1.8118671 -1.60227 0.18629609 5
1.8453288 -1.3208222 0.1420151 8.8000002
1.8821365 -1.2499201 0.16752295 10.571428
1.8741655 -1.1232861 0.183367 8.5
1.8254198 -0.98326093 0.15557754 8.333333
1.8368309 -0.844962 0.14777865 6.3333335
1.8254735 -0.751845 0.16007549 7.2142859
1.8034405 -0.5117538 0.16138588 10.5
1.8847983 -0.39419839 0.16230157 10.5
1.808309 -0.19289054 0.14984407 10
1.815279 0.65911299 0.14610839 6
1.8905748 0.88567346 0.12161335 6.75
1.812089 -1.2896799 0.24548186 11.4
1.8704818 -0.87103903 0.23165476 10
1.8031206 -0.20704837 0.21823193 11
1.8082018 0.89938569 0.26388767 8
1.8725464 -1.8195333 0.32992139 11.333333
1.836046 -1.6784136 0.38577026 10.25
1.8736444 -1.3353615 0.3295947 20
1.8983842 -1.2883097 0.34335989 16.166666
1.8577629 -1.1890998 0.33515382 18.142857
1.8644543 -1.0474424 0.3235563 22.5
1.8748479 -0.93366563 0.3823429 16.714285
1.8174444 -0.76131123 0.33046782 15.95
1.83801 -0.63439178 0.37437394 21
1.8949152 0.03681767 0.35842445 14.5
1.8257811 0.86175323 0.37408093 12.5
1.841071 0.99281067 0.30735534 11.5
1.8016213 1.4972098 0.32238996 8.5
1.8346205 -1.8265127 0.45465529 15.166667
1.8474144 -1.6413711 0.48199138 12
1.8679794 -1.327763 0.42882195 21.25
1.8460923 -1.1595398 0.47682595 24.25
1.8623936 -0.85718685 0.46066514 21
1.845857 0.86350286 0.47027165 16
1.8369828 0.94378829 0.43145585 10
1.8142865 -1.7485242 0.55482906 16.5
1.8676814 -1.4618583 0.54870826 21.75
1.8343632 -1.24876 0.51316577 22
1.8761451 -1.1453538 0.54667956 23.5
1.8556709 -1.0670209 0.57021612 22.5
1.8859799 -0.86918801 0.5802561 25
1.859409 -0.74775255 0.59034556 25.5
1.8902233 -0.0081292 0.56869847 21
1.8275009 -1.6358604 0.62953073 22.25
1.8485547 -1.5753142 0.6376 21
1.871755 -1.1500694 0.65214485 24
1.8809915 -0.95647413 0.60985535 24.666666
1.8913132 -0.79773319 0.63379699 25
1.8811117 -1.0165703 0.74938673 27.5
1.8301665 0.92836678 0.73455012 27.5
1.8639625 -3.0702808 0.91748196 14
1.8765714 -2.7322807 1.0403527 18
1.8164113 -1.6659914 1.0154158 25
1.8866719 -2.7059622 1.1598971 19
1.8308183 -3.2622919 1.3632755 18.5
1.8951762 1.8566344 1.7948456 23
1.8560444 -5.3376589 1.8436671 14
1.8167504 -2.9275653 1.8980155 23
1.8655355 -3.2626498 1.9118624 23.5
1.8143682 1.5856212 2.0982399 27
1.8506898 6.5251727 2.0781975 12
1.8602982 -3.3241115 2.1914914 30.5
1.8109053 -5.2144785 2.2859411 17
1.8578477 -3.2701955 2.3289461 24
1.8487928 -3.0091865 2.3477514 27
1.859868 0.82298011 2.3614562 31
1.8882657 -2.8999927 2.4381878 24
1.8612183 -4.7903323 2.5510006 19
1.8589314 -2.4060478 2.5346704 30.5
1.8470024 -1.6498336 2.5790045 27
1.8699957 -1.4058865 2.5870042 28
1.8893671 1.2324084 2.5898108 28
1.9203342 -2.6631346 -0.057461809 1
1.9773165 -2.4389119 -0.061079491 3
1.9496521 0.90608954 -0.013427787 2.5
1.9289273 -1.8307862 0.033434905 2
1.9443382 -1.4691405 0.059280675 2.3333333
1.9019315 0.73664528 0.025777085 4
1.9695538 -2.4708562 0.11776511 5
1.9150865 -1.8383706 0.16198954 7.75
1.9140884 -1.7982095 0.12763652 8
1.9452518 -1.4910103 0.13920483 5
1.9812464 0.8120454 0.12426563 5.5
1.9592472 0.92276305 0.11371846 5
1.9406685 -1.530075 0.24401735 14.5
1.9352486 -1.454082 0.21107012 8.3999996
1.9288965 -1.2713885 0.21237941 11
1.9062827 -1.0016978 0.20387717 10.5
1.9323043 0.82648295 0.27266717 8.5
1.9306109 0.91250443 0.27227777 7.5
1.941301 -2.244725 0.33390942 7.5
1.9811422 -2.0489109 0.34587669 11.75
1.9863971 -1.9146219 0.36155149 21.75
1.9456508 -1.7682518 0.37290737 22.5
1.9501904 -1.6168394 0.34783277 17.916666
1.9290155 -1.3566234 0.33729538 14.178572
1.9197208 -1.1712699 0.32703221 14.5
1.9105272 -0.11395105 0.34490505 15.75
1.9010055 0.83910125 0.31116387 11.666667
1.9951476 -2.0477757 0.45627382 12.5
1.9406655 -1.5684837 0.43280739 11
1.9042318 -1.4981153 0.45559749 28
1.9356329 -1.342826 0.45108485 19.75
1.9221759 -0.12252533 0.44714195 19.5
1.9836817 -1.8681206 0.52009481 26.5
1.9388011 -1.5624433 0.54325342 16.25
1.9432331 -1.4511 0.5330267 23.055555
1.93135 -1.3508503 0.54171407 20.666666
1.9690922 -1.2429938 0.51669097 25.4
1.9553031 0.81801486 0.52827847 11.75
1.9397584 0.91871846 0.53834683 12
1.922711 -3.2764225 0.68996984 11.5
1.9582516 -1.3343612 0.62113154 21
1.9691247 -1.1628361 0.62412125 26.5
1.9606973 0.90430623 0.66045833 14.5
1.9668677 -3.0058568 0.79382169 13
1.9309088 -3.2951796 1.2066621 17
1.9806131 -3.1504431 1.4928923 20
1.9681609 -2.9999843 1.58033 18
1.9943053 6.355134 1.5089926 10
1.9699768 2.2106476 1.8009603 21
1.976792 1.825218 1.9924985 25
1.9349506 -2.895962 2.00388 24
1.9408928 1.7639908 2.0957291 26
1.9455538 -3.2094116 2.1253176 24
1.9259393 -2.8902974 2.1246803 25
1.9537314 -3.0657759 2.2156339 25.5
1.9854903 -4.7387137 2.3497934 18
1.9237447 -3.2220461 2.312983 25
1.9050081 -1.8048133 2.391005 25
1.9491043 0.86897433 2.3940015 28.5
1.9271994 1.0911913 2.3685081 30.5
1.9971837 2.2566929 2.3855407 24
1.9079944 -1.2434289 2.4995043 28
1.967369 -0.52107704 2.4480033 30
1.9536103 -0.89397675 2.5600038 29
1.9285105 0.46146178 2.5968952 29
1.9184822 1.1243855 2.578001 29
1.9502587 1.9947189 2.5674481 24
1.9182856 -2.0304334 2.6646531 29
1.9060601 -1.9757459 2.6556344 30
1.9355009 -1.6575181 2.6604447 29.5
2.0605867 -2.9059837 -0.085555866 3
2.0565817 -0.83530456 -0.0030018778 2
2.0013313 -2.4482884 0.0020503579 4
2.0461571 -2.1444848 0.040495139 2.5
2.0454071 -1.9771643 0.051805127 4
2.0303915 -1.6502318 0.042746905 2.25
2.0630658 -0.85126895 0.074717842 4
2.061198 -2.9165072 0.12739481 6
2.0512664 -2.1245341 0.19363776 10.75
2.0451181 -1.9592824 0.11258781 5
2.0208158 -1.6255189 0.15885216 6.1111112
2.0967748 0.79579508 0.10806556 6
2.0415537 2.3259916 0.12633795 5
2.0557764 -2.9163888 0.26284876 7.5
2.0472376 -2.5331709 0.21087721 6.5
2.0580876 -2.1231987 0.21544439 10
2.0066648 -2.0464089 0.27114403 16
2.0012217 -1.9085032 0.21294284 12.5
2.0465522 -2.9170716 0.37825498 9
2.0666459 -2.3379798 0.34810203 13
2.047441 -2.0725765 0.31384671 17.857143
2.0021343 -1.9814515 0.37305084 18.799999
2.0144627 -1.892941 0.3941603 24.5
2.038378 0.78860152 0.3618584 8
2.0466816 2.3105927 0.32363755 7
2.0908575 -2.5936029 0.47549161 10
2.0041668 -2.0324302 0.46649921 14.5
2.0044436 -1.9764839 0.48303983 23
2.0520349 -2.2883704 0.53964019 19
2.0924673 -2.1289604 0.53046423 26.5
2.0769398 -1.4895356 0.50940502 19
2.0232053 2.3164361 0.5416159 9.5
2.0338094 -1.2449909 0.64503223 24
2.0611873 -1.1840205 0.61088812 27
2.0278034 2.3283348 0.6962539 11
2.0618649 3.9700232 0.67484778 8
2.0173635 0.79818386 0.76818299 14
2.0421262 2.3027525 0.82824337 12.5
2.0622609 3.9469569 0.85239184 9
2.0339508 -3.3024986 0.96170616 14.5
2.0587089 -2.6747546 0.95385236 17.5
2.0286574 2.3239384 1.0502605 14.5
2.0995686 -3.3172812 1.1471161 16.5
2.0001352 2.3474388 1.1811298 16
2.069592 -3.3136845 1.379421 18.5
2.02619 -2.897536 1.3128644 18
2.0703208 -2.6860247 1.512224 24
2.0768363 -2.6414506 1.6003922 25
2.0545869 -3.312422 1.7021661 21.5
2.0195069 2.0259776 1.7992535 22
2.0572896 1.2702347 1.8299305 26
2.0296745 1.8554779 1.8502362 24
2.0350916 -2.2871528 2.3308282 26
2.039778 -2.1069844 2.3511963 27.5
2.0217998 -3.1016502 2.4788795 26
2.0563819 -2.9071763 2.4255168 30
2.020427 -2.7102528 2.4510503 26
2.0731933 -2.4219429 2.4775841 31
2.0273345 -2.2655005 2.4521253 30
2.0741048 -1.7658777 2.4583838 29
2.0479965 -1.4209083 2.4190044 26
2.0115314 -1.145444 2.4807909 30.5
2.0295973 -0.87293917 2.4240038 28
2.0023737 -0.52805418 2.4560034 29
2.0962782 0.86847281 2.4128501 30
2.0755062 -2.6391826 2.5430675 29.5
2.1964059 0.86085033 -0.10386457 2
2.1542189 -2.7892647 -0.055841744 1.5
2.1156569 -1.6125505 -0.027612627 1.5
2.1281619 1.1851864 -0.077049449 2
2.1782076 1.4251428 -0.060778841 2.5
2.1250212 -2.7597158 0.070055127 4
2.1673789 -1.3081552 0.052247819 5.5
2.1863501 1.4490193 0.023548052 4
2.1797657 -2.7867882 0.12615824 4.6666665
2.1333072 -2.4296319 0.13935946 5.5
2.1089709 -1.6379545 0.16057989 7.5
2.1316612 0.76875734 0.16018353 5
2.1877577 1.4814588 0.13028254 5
2.1619806 -2.7289636 0.25758675 7
2.1916723 -2.3909023 0.23143798 10
2.1240649 -1.345549 0.23879012 13
2.1084657 -1.2593402 0.23864542 12
2.1195321 0.79893625 0.25006771 10.5
2.1483412 -2.7115242 0.46072137 9
2.1275194 -2.2607749 0.45059744 20.875
2.171598 -1.9964228 0.42887861 13
2.1375022 -1.328862 0.49658769 19.666666
2.1125603 0.79989183 0.44550809 15.5
2.1802104 -1.4668044 0.66319335 24
2.1275289 0.76896799 0.62559855 12
2.1283312 -2.7131135 0.7018854 11
2.1328177 0.76809967 0.73965734 14
2.15399 -3.3460495 0.81574404 13
2.1733947 -2.8942316 1.0970086 14
2.1152415 -2.8656316 1.1772736 17
2.1202633 -5.1800365 1.9948375 15
2.1296241 -2.9170902 2.0251725 22
2.1758459 -3.4439197 2.1748693 23
2.1938949 -3.4980059 2.2071235 29.5
2.1934078 -4.9892712 2.3543551 17
2.1980288 -4.8732104 2.3317237 16
2.1050079 -1.8468324 2.3780053 24
2.1885269 1.51976 2.3885105 28
2.1286883 -2.6465909 2.4714346 31
2.1303811 1.188706 2.4074266 28
2.156251 -1.7053549 2.5602124 30
2.1851969 -0.23603086 2.5910032 29
2.1701386 -0.13807017 2.5940032 30
2.1347508 0.5646928 2.5890021 29
2.2728982 -2.2737496 -0.024586776 2
2.2859249 0.95055503 -0.022514144 4
2.2018969 1.4279587 -0.0406285 2.5
2.203954 -2.424782 0.055011664 2
2.2716074 -2.2564731 0.08589384 3.5
2.2125745 -2.1730645 0.00063130254 2.5
2.2940645 -1.4476041 0.097248659 6.6666665
2.2722139 0.91412312 0.036793321 6
2.210484 1.2677615 0.06488353 4
2.2738874 -2.6871831 0.16570717 5.75
2.2617962 -2.2748637 0.10831375 3.5
2.2048979 -2.1277115 0.13699834 5.5
2.2803166 -2.6684628 0.21066956 7
2.2221701 -2.0578072 0.20860939 6
2.2190788 -2.602499 0.3665587 13
2.2421103 -2.1287084 0.3116847 9
2.2002413 -2.0823092 0.30657026 9.333333
2.2866883 -1.293795 0.3048144 16.5
2.2403657 0.98941565 0.31767416 9
2.260381 -2.5278056 0.46524218 10.5
2.2284131 0.75025856 0.44526455 10
2.2284527 -2.8449907 0.58137548 10
2.2312312 -3.3816133 0.65810537 11
2.2611508 -2.3728075 0.6073373 13.5
2.2772341 -1.3707992 0.68149751 26.75
2.2231681 -3.3749866 0.75084716 12
2.2535615 -2.8362827 0.75490373 12.5
2.2734022 -5.6230268 0.82372355 9
2.2660286 -2.8421991 0.81658429 12.5
2.2632217 -2.6193113 0.86346579 17
2.295337 -5.6177845 0.92243385 10
2.2946606 -2.6017597 0.94724828 18
2.2078602 -1.5019232 0.97711837 27
2.2593369 -2.8369689 1.1084777 16
2.258786 -5.6369538 1.235755 12
2.2439365 -4.1220951 1.255072 17
2.2329614 -4.0915532 1.3874972 18
2.2165365 -2.8832736 1.3955474 17
2.2265182 -5.6229343 1.4239275 13
2.2222395 -2.8232908 1.4938294 20
2.2169609 -2.8275363 1.5698774 21
2.2095661 3.3053071 1.5473137 14
2.2843676 -2.8906541 1.6688679 19
2.231863 3.2654705 1.7412386 15
2.2250423 -4.9857225 1.877514 14
2.2709222 -2.8727047 1.8003091 20
2.2923431 -3.6386056 2.2024696 28
2.2343357 -2.8829257 2.2261209 23
2.2095511 -3.4727111 2.3103251 31
2.2001874 -2.152091 2.3395143 27
2.2638571 2.1526892 2.3806815 22.5
2.2868524 -3.4448349 2.4432652 23
2.2505114 -3.3497341 2.4273303 21.5
2.2381554 -3.2759786 2.4969778 25
2.2838039 -2.2278216 2.4502964 30.5
2.2085576 2.036751 2.4535065 29
2.2534428 1.0087906 2.5985305 30.5
2.268604 1.3179017 2.5852711 28
2.2500579 2.1264637 2.5697827 29
2.3668878 1.3085222 -0.017200347 3
2.3064444 -2.6810489 0.051470473 2
2.3101168 -2.2075062 0.02755592 2
2.3263106 -2.0846612 0.036811925 1
2.3803401 -2.5543461 0.12345476 3
2.3295705 -2.4165866 0.1504741 6.5
2.3383262 -2.2424624 0.13737056 4
2.340786 -5.6073904 0.28399509 5
2.3079672 -2.3091099 0.23575954 6
2.3285701 -2.4207151 0.31169781 9
2.3962157 1.1708527 0.31673199 9
2.3335428 -5.6176386 0.41986468 6
2.3894882 1.1255211 0.44836748 11
2.3986871 2.1253262 0.55575371 10
2.3779531 3.8907182 0.5505721 7
2.3103614 -5.6223626 0.60473442 7.5
2.377048 -2.8411646 0.68885726 10
2.3517327 -2.5812044 0.65623677 13.5
2.3791497 2.1440687 0.63268018 11
2.3245509 -4.0431571 0.71720868 9
2.3296905 -2.3817356 0.73601413 15
2.370563 -2.3190448 0.83639103 17
2.3188534 -2.281441 0.8596046 17
2.3048246 -2.8742237 0.98557234 13
2.3508859 -5.6608229 1.0838065 11
2.3727832 2.137311 1.0536015 15
2.3748071 -3.3840191 1.168239 15
2.3945057 2.1133769 1.1486765 16
2.3472924 -2.8771422 1.2699028 15.5
2.3667731 2.1202092 1.2284395 17
2.3770125 -5.9024863 1.3070687 11
2.3273444 -2.8230057 1.4031392 19
2.369709 2.1178212 1.7244917 21
2.3791432 -2.7774532 1.8939738 24
2.3906271 6.4204807 1.9401399 11
2.3494065 -4.9037356 2.0219119 16
2.3155336 -2.786768 2.0023949 25
2.3767219 -3.8603549 2.2102425 26.5
2.3311329 -3.3379498 2.2385674 26
2.3513234 -3.4584513 2.3269031 23
2.3939126 -2.8965423 2.3517544 25
2.3564353 -2.752991 2.3444476 26
2.3832953 -2.6028488 2.324285 25
2.3953185 -2.450454 2.3388488 26
2.3669236 2.2872593 2.3613584 26
2.3620811 -2.4672277 2.4465055 28.5
2.3801527 -1.7705197 2.4820118 28
2.3050249 -3.2996373 2.536056 24
2.3120291 -2.3517764 2.5960062 23
2.3550005 -1.671896 2.5920053 25
2.3694859 -0.6967867 2.5915041 27.5
2.3991568 -0.16691634 2.5910034 28
2.3674254 1.837514 2.5672078 27
2.3907924 2.0557737 2.5029042 26
2.3628364 0.70062047 2.6544261 28
2.3796318 1.33699 2.6604433 24
2.4284065 2.1239014 -0.10649666 2.5
2.4674478 1.2526541 -0.0083109932 3
2.4692297 -2.7718291 0.050510552 3
2.4110427 -2.6006002 0.06445507 2
2.4908667 -1.4203981 0.067129172 5.5
2.4364023 -2.7691872 0.13361831 4.5
2.4198151 -2.6526773 0.16652539 4
2.4688375 -1.2288144 0.19962986 13.5
2.4979217 -3.3072817 0.2279043 5.5
2.4742558 -3.2615438 0.23039915 5.5
2.4676654 -1.2295581 0.2241419 15
2.405647 2.1265216 0.21680838 6.5
2.4759555 -5.9391494 0.35157916 4.5
2.4460588 -3.2525649 0.38051909 7
2.454726 -2.720459 0.30874199 7
2.4680066 -1.3452559 0.32682639 17
2.4901061 0.96864372 0.33224982 9
2.4259689 -3.1791172 0.48300785 8
2.4451711 -2.3129966 0.43869281 11
2.4926012 0.9366076 0.45741439 11
2.470679 2.2402971 0.41925126 8
2.4727881 -2.2381818 0.64352047 14.5
2.4016483 2.1140296 0.74172413 12
2.4646447 -5.9362154 0.86763716 8
2.4813406 -5.6398335 0.83605748 9
2.4019523 -2.8396289 0.83726585 11
2.4256172 -3.7642894 1.0203117 13
2.4571042 -2.839278 1.0912106 14
2.4411817 -5.882493 1.1598388 9.5
2.4463129 -3.7798362 1.141291 14
2.4027824 3.0539722 1.1209661 11
2.42238 -3.7766497 1.2474099 15
2.4761021 -3.3537366 1.2330188 16
2.4942591 3.0845406 1.2436603 12
2.4564903 -5.6412253 1.3806453 13
2.4922521 -2.8614097 1.3015891 20.5
2.4888413 2.2305868 1.3764484 18
2.4779384 1.5333201 1.5386509 22
2.4729671 -2.8028059 1.8769882 27
2.4958396 3.0960674 1.8005491 16
2.453985 -2.7418673 1.9207375 28
2.4207845 -3.6263642 2.2225046 26.5
2.4375086 -2.822542 2.2398002 26
2.4422421 -2.6044662 2.3633356 27
2.445004 -1.81488 2.3970058 23
2.4786839 -3.4505327 2.4993279 24
2.4991424 -0.14185989 2.5870035 27
2.4351859 0.88946408 2.5901387 30.5
2.4635673 0.9008317 2.5850022 27
2.4045234 1.5490066 2.5867598 29.5
2.4241426 -1.6284982 2.6843212 30
2.4755249 -0.87941337 2.6488552 30
2.4161317 -0.49623513 2.6489143 31
2.4243958 0.9272545 2.6472509 27
2.4101946 -2.5768716 2.7142193 25
2.5011752 -3.3397105 -0.056321532 3
2.541111 -2.5462871 -0.052445229 3.5
2.5722418 -5.632678 0.051398989 3
2.5379467 -3.3349652 0.083713822 4
2.576616 -1.2899556 0.024849484 4
2.5029337 -5.9387884 0.17023675 3
2.5166714 -1.1725868 0.12451585 10
2.5141394 -2.9321628 0.24934255 5
2.5227067 -1.3176237 0.29378411 14
2.5780351 -1.1104966 0.27079082 18.5
2.5812087 0.84133607 0.2349633 7.5
2.5108576 -3.2509375 0.36595002 7
2.5913765 -2.1402721 0.81200653 17.5
2.5648139 -3.3617067 1.0040901 14
2.5282953 -2.9662516 1.2242525 19
2.5665493 -1.9164004 1.3056624 27.5
2.5663917 -4.7481084 1.5770837 13
2.5862894 -3.1891315 1.5838908 21.5
2.5213604 1.3566186 1.5170132 22
2.5544951 1.3547252 1.8468683 26
2.5451655 1.5269276 1.8453875 25
2.5638056 -4.77423 1.933356 15
2.5554101 1.3519857 1.907371 25.5
2.5534575 1.3551176 2.0498681 27
2.5155554 2.0447032 2.0435505 24
2.5602226 -3.5226777 2.350683 23
2.5015547 -2.7279036 2.334609 28
2.5343409 1.2820897 2.5700998 30
2.5892589 1.8365108 2.5771122 27
2.5712571 2.0133657 2.5741599 26
2.5300419 -2.6487582 2.604007 22
2.5224102 0.62544113 2.6662536 29
2.5325937 0.74697852 2.6226883 27
2.579093 1.0843376 2.6659677 26
2.641789 1.2553072 -0.050490178 2
2.6375918 -1.8676809 0.093930386 5
2.670197 1.1457198 0.0096064322 3
2.6380858 1.2436107 0.048406791 4
2.6711006 1.1508908 0.14065371 5.5
2.6229045 -2.3629868 0.20787846 7
2.6002545 0.72114325 0.29418173 10
2.6656752 0.62392414 0.31613445 11
2.6717725 0.77814484 0.38133946 10.5
2.6873729 1.1729081 0.32479864 9
2.6898921 -3.4522276 0.48618773 8
2.6416178 -2.361608 0.49244228 11
2.6862113 -2.0974212 0.51674247 13
2.6702483 0.62206113 0.68461943 18.5
2.6505959 -2.1292002 0.72791851 16
2.6091437 0.45536506 0.71843171 19.5
2.6676633 -4.7326536 0.88401526 9
2.6484666 0.62134498 0.88119143 22
2.6821187 -3.4376676 0.96497041 13
2.6248424 0.53473586 0.92392397 22
2.6377008 -1.8920354 1.1751096 26
2.6948359 -3.4221194 1.2817725 17
2.6796064 3.1517792 1.3839113 13
2.6207039 3.0430248 1.5369748 14
2.6950967 -5.8798037 1.61687 12.5
2.6281776 -4.8797746 1.6812351 14
2.6613142 -5.980433 1.7961416 14
2.6883919 -4.700119 1.7658459 14
2.6235242 -3.2860479 1.8689753 23
2.6324456 -3.3331723 2.1306584 23
2.6646297 1.1976402 2.1905358 31
2.6611042 -4.6161804 2.22909 22
2.6343307 -3.5973439 2.2748377 29
2.6496336 -3.3562658 2.2275124 25
2.6034949 -4.6688609 2.3311753 17
2.6714325 1.7793427 2.3801086 24
2.6479189 -3.43999 2.4982007 24
2.6978154 -3.1141131 2.4012096 24
2.6366529 -2.8882251 2.5281546 26
2.6080456 -2.7387543 2.5210071 21
2.6125569 0.13031101 2.5119288 31
2.6077802 0.49303663 2.584003 26
2.6389341 1.1079576 2.59395 28
2.6642017 1.7137572 2.585309 29
2.6471829 -2.197408 2.6505337 29
2.6037569 0.54689008 2.6485868 28
2.7803471 -1.165372 -0.12935208 2
2.7710526 -0.76543456 -0.10437676 1.75
2.7929189 -2.0007422 -0.084511854 3
2.7978811 0.47762904 -0.02308487 2
2.7776666 -1.1668599 0.013684515 5
2.7715631 -0.92343158 0.058565311 6.75
2.7665789 -0.81879997 0.012911107 5.5
2.7687516 -0.71866852 0.040518768 7
2.7995033 0.36778018 0.064495586 5
2.7063317 -3.5271769 0.12464184 3
2.7855814 -0.19286679 0.19456032 11.5
2.7789018 0.49137136 0.14945696 3.5
2.7805843 0.9598003 0.11544314 5
2.729712 1.5297035 0.17025162 4
2.7052157 -3.5174687 0.20146294 4
2.7875249 -0.23617972 0.29779321 16.375
2.7749524 0.7364707 0.28328994 7
2.7824728 -1.2426438 0.36905795 18
2.7747445 -0.92105037 0.38521627 13.5
2.7233887 0.4267745 0.35798544 12
2.7872491 0.70340294 0.33101606 8
2.7194908 1.5562001 0.39020431 5.5
2.7380016 -0.24539962 0.49546039 24.285715
2.7217283 -5.9510169 0.57381755 6
2.7180498 -0.14816338 0.53887558 26.5
2.7069576 -3.4574964 0.646882 9.5
2.7199817 0.43530753 0.65696502 18
2.7185764 0.53674769 0.67723012 19
2.7667255 1.1293638 0.62452662 9
2.7623947 0.91496253 0.79414135 11
2.7897127 3.4057508 0.77295572 9
2.7510943 0.88176179 0.81622767 12
2.7957382 -1.8037099 1.1466845 26
2.7156451 -1.8430467 1.2653793 27.5
2.7760005 0.88031614 1.2756363 16
2.7286525 -4.7449331 1.4822621 13
2.7690039 0.097476833 1.5224427 23
2.7239988 3.090399 1.6823702 15
2.7110624 -4.7555757 1.8903353 15
2.7475386 -4.6850395 1.9956322 17
2.7072241 3.0712788 1.994773 17
2.7055838 -4.1734819 2.0933051 18
2.7374227 1.3562003 2.0422912 28
2.7466023 -4.6590271 2.1002667 18
2.7491527 -5.0114498 2.2388906 20
2.7094481 -3.7187459 2.253792 25
2.7045224 -3.5272746 2.2774191 22
2.778688 1.9496592 2.2789574 23
2.7131698 3.9734099 2.2640986 14
2.723803 -4.2257738 2.3294225 18
2.740129 -3.2503572 2.3384597 23
2.7711957 -2.6900046 2.3073871 30.5
2.7242353 2.2459047 2.372771 25
2.7757406 -2.3239472 2.4702733 27
2.7283039 -1.7555335 2.483341 27
2.710207 0.28437907 2.4617045 29
2.7255938 0.34903124 2.4574232 28
2.7359099 1.2358171 2.4811995 24
2.7958221 -4.0390916 2.5368309 20
2.7263384 -3.0682285 2.5328746 25
2.7818017 -1.9932959 2.5940902 30
2.777283 0.14821216 2.5792277 30
2.7102592 0.77111697 2.5972919 28
2.7603397 1.5133053 2.5921345 29.5
2.7127249 1.6964785 2.5593331 27
2.7811544 1.8508019 2.5613267 26
2.7942307 -2.6576755 2.6344426 24
2.7943003 -0.63755107 2.6682034 28
2.8677509 1.8042359 -0.21098979 1
2.8082364 -0.67524529 -0.17054021 0.5
2.8834326 1.7604451 -0.12279356 2.5
2.863688 -1.7734331 -0.041925341 2
2.8085434 -1.1012014 -0.070562243 2.5
2.8989677 -0.86545807 -0.0094032502 3
2.8979416 -0.56964743 -0.017473143 5
2.8584244 0.39749351 -0.062565446 1.5
2.8436255 1.8829023 -0.080501281 4
2.8381639 -3.3923175 0.068442971 2
2.8417909 -2.0232632 0.06485983 5.5
2.8097637 -1.1184541 0.056095321 6.5
2.8827066 -0.91595477 0.070207663 6
2.8187783 1.1305629 0.041317809 2.5
2.8282757 1.8845968 0.058994152 5
2.8072426 -1.1231123 0.18513668 10
2.8443048 0.43239465 0.11172172 6
2.8581376 0.78230464 0.1643856 4
2.8756928 1.7751523 0.18540618 7
2.8626769 1.8159204 0.17629759 8
2.8996584 -3.5235164 0.26720151 5
2.8731894 -2.0489759 0.20702468 8
2.8195293 -0.82690471 0.22402443 11.5
2.8885136 -0.72703308 0.28486469 16
2.8108857 0.62063199 0.22176138 6
2.8650124 1.0102918 0.26485461 5
2.8863111 -5.9215751 0.32658803 4
2.8877726 -3.5388088 0.35740763 6
2.8803511 -0.6220969 0.38496315 22.5
2.8914552 -0.5378747 0.30205959 18.375
2.8107877 -0.44056249 0.3686001 22
2.8732705 0.10593043 0.34074527 7
2.8772085 0.36210281 0.32454211 11.333333
2.8551049 3.2880797 0.34810686 6
2.8017592 -1.23478 0.46323451 21
2.858398 -0.78118485 0.42504305 15
2.8669004 -0.62883633 0.4724071 26
2.8583393 -0.52725756 0.44255275 24.75
2.8772349 0.15888919 0.45920637 13
2.881551 0.33513013 0.47167116 15
2.8400297 1.8523617 0.4173215 10
2.8843596 -1.9871159 0.54947621 13.5
2.8209841 -0.76381958 0.52703613 25.5
2.8539846 0.10476749 0.57548523 10.5
2.8665614 -1.9839612 0.61056519 15
2.8028362 -1.3298249 0.68980777 25
2.8956864 -0.65083104 0.63001913 27.5
2.8880506 -0.2089797 0.65396905 26
2.8377092 0.31885821 0.66499257 19.200001
2.8724475 0.43447265 0.69325376 11
2.8434136 0.72420651 0.67868024 10
2.854682 1.8125067 0.61171609 12.5
2.8425031 -5.911305 0.719405 7
2.8997626 -4.4525828 0.70347446 6
2.8900051 -3.5266099 0.73029029 9
2.886606 -0.25460222 0.71789783 28
2.8477404 1.825561 0.781093 14.5
2.8088131 0.44934899 0.84874374 14
2.8033969 0.50737214 0.80533296 13
2.865202 -3.5032282 0.99955368 12
2.8814254 2.4475591 0.90370911 11.5
2.8407195 2.8754015 1.1126782 14
2.8854282 1.772487 1.2491592 20
2.8911259 1.7579961 1.333304 21
2.8648582 0.030316031 1.4645134 23.5
2.8988912 -0.38274974 1.5704764 28.5
2.8728399 -0.18987392 1.5423186 26.5
2.8280766 1.897627 1.5789406 22
2.8229165 2.8978693 1.554074 17
2.8810234 1.746415 1.6855266 27
2.8412242 2.8527269 1.6713713 18
2.8392389 -3.2612283 1.7557547 17.5
2.8476958 1.3705193 1.7617545 27
2.8415594 -5.8261514 1.8948778 14
2.8829558 1.2762009 1.866119 27
2.8787248 -4.6387343 1.977657 16
2.8862908 -2.8520858 1.9950477 29
2.8855619 -5.7720571 2.0077837 15
2.8425963 -4.6070156 2.0393164 17
2.8699431 6.0179129 2.1009789 12
2.8402386 -4.5765085 2.2441978 22
2.8377337 -3.7133934 2.259217 27
2.874784 -3.4605391 2.2792599 27
2.8742528 -3.051156 2.304949 22
2.8280189 1.9636794 2.369525 25
2.8382742 2.1660697 2.3753543 24
2.8052411 2.7949395 2.3663082 23
2.8050039 -4.1685352 2.4144871 20
2.8016753 -2.6046526 2.4718938 26
2.8114626 2.0986569 2.4214382 25
2.8529158 1.3574545 2.5740666 29
2.8360269 -2.5198073 2.6120071 21
2.8229256 -1.15531 2.6730101 27
2.8190954 -1.6381363 2.7048523 29
2.9439349 -0.11428663 -0.11094249 0.33333334
2.9416106 1.9189658 -0.17200343 1
2.9710155 -3.8411958 -0.060108539 3
2.9090657 -1.945618 -0.08925204 2
2.9710948 -0.29167628 -0.097140782 1
2.9259763 1.6837014 -0.057819422 4
2.9690342 -3.8301704 0.076298088 4.5
2.9221601 -1.0286199 0.05186544 5.4000001
2.9890199 -0.91693413 0.070060909 1
2.9888742 -0.012836688 0.094840609 6.4000001
2.985553 0.035436541 0.021947518 2.9000001
2.9176283 0.41162682 0.087366275 2.5
2.9963713 0.56311655 0.077265896 4.3333335
2.9915283 1.6812457 0.079306312 4.6666665
2.9902744 2.4621286 0.031226752 4
2.983232 -3.221679 0.14961027 3
2.9842877 -0.88100541 0.10438095 2.5
2.9422636 -0.31941941 0.16495326 10
2.9991877 -0.2907092 0.12630081 3.5
2.938647 0.14652117 0.14124879 6.25
2.9918115 0.20791909 0.16243982 4
2.9991343 -1.9447256 0.23748165 8
2.9983513 -1.5745195 0.23201442 7.4285712
2.979229 -0.95088786 0.26473391 10.166667
2.9723334 -0.87841558 0.23911388 6.75
2.9139359 -0.31433433 0.22832493 13
2.9708569 -0.21535064 0.2583867 8.75
2.9341233 0.17895874 0.24825539 10.5
2.9042664 0.42372674 0.21624544 5
2.9495592 1.5811516 0.22692367 9.5
2.9875817 1.6751696 0.29490823 7.5
2.9929533 2.6478422 0.2655881 6
2.9701581 -4.6185532 0.39646152 6
2.984323 -0.84269106 0.33977064 16
2.964005 -0.47773814 0.36376822 18.5
2.9773896 -0.23671474 0.36515003 12.25
2.915534 0.35010216 0.33966267 9
2.942976 1.5641999 0.35986742 12
2.9744716 2.4565477 0.3261444 6.5
2.9104869 -2.08599 0.41517907 11
2.9905541 -1.5510798 0.41591418 14.833333
2.9930089 -1.3791587 0.46351203 16.5
2.994236 -1.0642656 0.45861942 14
2.9600527 -0.96549594 0.43198755 13.6
2.9572747 -0.87596536 0.42576399 13
2.988662 -0.35740238 0.48319349 21
2.9919925 0.027682126 0.49454969 14
2.9107723 0.36947674 0.4446145 9.333333
2.9847834 -1.5179342 0.59844673 20.75
2.9909265 -1.1019579 0.56232744 17
2.9817841 -1.0064397 0.5800854 21.5
2.9058645 -0.92865002 0.53600037 25.5
2.9791133 -0.52689153 0.53230172 23
2.916548 -0.21670759 0.56602907 23.5
2.9820175 0.12574986 0.51330131 17
2.9918194 1.685014 0.53053516 10.5
2.9733362 -1.435989 0.65843058 22.5
2.9781144 -1.2318515 0.6502732 21.5
2.9851127 -1.0581052 0.68148804 19.5
2.9549544 -0.97001904 0.6111877 18.75
2.9824939 -0.82477707 0.63203788 27.5
2.9818506 -0.66512692 0.63309985 26
2.9464989 -0.55053341 0.66571438 27.5
2.9725754 -0.4358131 0.63895446 26.5
2.982919 -0.23392434 0.66767585 13.5
2.9160039 0.1822239 0.65922838 22
2.9384606 0.25735167 0.6574012 11.5
2.9880192 1.6566223 0.66931939 12.5
2.9843159 2.6641445 0.64124811 9
2.9394865 -3.0438075 0.71508425 12
2.9480562 -2.2010872 0.77631056 15.5
2.9775002 -1.0546528 0.79906011 22.333334
2.9394207 -0.87506515 0.74937069 20.75
2.9521747 0.12064042 0.73356432 18
2.9262104 0.25772056 0.73087168 21
2.9031322 1.6890075 0.75982511 17
2.9072807 2.4531851 0.70242596 9.5
2.9984343 -3.4104559 0.81019694 10
2.971344 -1.5572726 0.86328161 27
2.9483635 -1.2251124 0.83777183 26.25
2.9508615 -0.97453016 0.84734654 24
2.9975464 -0.48965514 0.81113416 18
2.9299276 -0.039343718 0.89469409 16.5
2.9388902 1.5791931 0.89298815 17
2.9989793 1.665861 0.83350724 14.5
2.9126647 1.7288936 0.85458487 16
2.925132 -0.95550221 0.93462664 26
2.9079776 -0.020809518 0.99782771 18
2.9442968 0.39664623 0.96902364 23
2.9325359 -3.199085 1.0288348 15
2.9615331 -0.21170408 1.0349666 19
2.9891067 0.10769971 1.0470202 24
2.9098279 1.6662943 1.0731561 19
2.9483385 -3.019464 1.1696531 12
2.9916978 -0.58031857 1.1571496 23
2.9710889 -0.39256525 1.1664026 23.5
2.9757092 -0.17331994 1.1703429 21
2.9642093 2.7610564 1.1471038 13
2.9571292 1.9280202 1.2643275 17
2.9487817 2.7087061 1.2450347 14
2.9837427 1.6733481 1.3079334 19.5
2.9918706 -3.0604105 1.4377471 15.75
2.9375699 -0.19894366 1.4987886 25.5
2.925616 0.096410334 1.4821322 30
2.9414461 0.12402784 1.4336097 29
2.9676859 1.6626298 1.4457057 21
2.9421353 -0.60488331 1.5447624 30
2.9401817 -0.59086514 1.5390826 28.5
2.9070511 -0.42831194 1.5219699 26.5
2.9159153 1.7337029 1.5315763 23
2.9584286 6.0388355 1.6837186 11
2.9664307 1.8213854 1.7807626 22
2.9636908 1.0887794 1.8341693 27
2.9932485 -2.9206831 1.9162884 28
2.9950726 -4.4903269 2.0729275 16
2.918927 2.4560034 2.1902485 22
2.9109883 -4.6524839 2.2552743 19
2.909488 -3.4254429 2.2727745 25
2.9689891 -3.2371707 2.2362697 24
2.9827132 -3.1654675 2.2951796 24
2.9178777 1.615647 2.2792287 24
2.9895954 1.3127701 2.3176563 26.5
2.991406 -2.6669898 2.439584 28
2.9941602 -2.0563128 2.4687502 28
2.9961855 -0.48900118 2.4741561 26
2.9949586 -0.37421519 2.4803164 27
2.9087522 1.3422145 2.4056041 29
2.9739761 1.4614475 2.4327734 25
2.9146891 1.8936911 2.4144597 28
2.9946268 2.1132164 2.4487755 24
2.9377513 -4.8914566 2.5102208 19
2.9621921 -2.7315924 2.5144367 28
2.9596291 -2.5509262 2.5099375 27.5
2.9236953 -2.3215027 2.5378115 29.5
2.9218442 -2.1071546 2.5042264 28
2.9790103 -1.7418169 2.5041103 27.75
2.9140391 0.63696539 2.5037735 27
2.9996338 1.1406968 2.5900795 26
2.9989147 1.6134417 2.5652826 26
2.9695897 1.9442136 2.5917568 27
2.9316189 -1.9316028 2.656081 30.5
2.9523394 -1.2313817 2.6623328 27.75
2.9163914 -0.80749607 2.668304 27
2.9967973 0.45330814 2.6020033 25
3.0570338 -0.62638903 -0.10158061 1.5
3.0412331 -0.5975042 -0.12166311 2
3.0303521 -0.43804663 -0.10456188 1
3.0921423 -0.3986775 -0.18514125 0.5
3.0719299 0.22856645 -0.10395819 1.5
3.0262833 1.8445761 -0.13560589 2
3.0501642 -0.68220991 -0.027015427 5
3.0778465 -0.52882099 -0.024616757 0.75
3.0301709 -0.42183504 -0.075295746 3.75
3.0979047 -0.28745773 -0.051039256 1
3.007875 0.10778913 -0.069750413 1
3.0140009 0.53825504 -0.049890384 0.75
3.0548906 1.310439 -0.033189759 4.5
3.0818915 2.25629 -0.036227174 3
3.0701323 2.6808586 -0.0031867079 3
3.0828052 -3.2484851 0.023786776 3
3.0837257 -2.5489624 0.090230547 2.5
3.0599754 -1.428126 0.077227764 1
3.013124 -1.3344809 0.068974324 0
3.0189433 -1.1693776 0.051124707 0
3.0101843 -1.0683464 0.094875664 2.5
3.048604 -0.6320101 0.013210233 5.5
3.0245314 -0.44996083 0.043009475 7
3.0626791 -0.34630829 0.045510322 3.5
3.0475464 -0.23164597 0.02595146 2
3.0421126 -0.18478385 0.066099353 2
3.0688834 0.24431446 0.062574945 6
3.0129666 1.8666847 0.022412473 4
3.0802813 -3.2621963 0.17699097 4.5
3.0384822 -3.1119273 0.14868838 4
3.0354629 -3.078737 0.13673732 4
3.0982845 -2.5339541 0.13549285 4
3.0677025 -1.6725564 0.14717963 6.75
3.0045636 -1.5582702 0.1038596 2
3.0766761 -1.4796729 0.126077 3
3.0832038 -0.73212767 0.19376859 4.5
3.0503407 -0.63992023 0.19364645 9.75
3.0701363 -0.58494401 0.1827419 4.5
3.0320647 -0.43804953 0.14700927 9.5
3.0679424 -0.29108295 0.19677678 7
3.0430672 -0.1081724 0.10265236 7
3.0390019 0.14306241 0.11671501 5.666667
3.0356271 0.40301687 0.16042453 6.5
3.0110884 -3.915014 0.25758463 6
3.0965452 -3.0699849 0.26993743 4.5
3.0497353 -1.6822704 0.24897012 9.5
3.0691245 -1.4731133 0.22150198 6.916667
3.0509913 -1.1183716 0.26328802 6.75
3.0011756 -1.0631043 0.21621877 6.4000001
3.0624387 -0.65640104 0.22445859 12
3.0781362 -0.53135896 0.23453562 12.5
3.0261588 -0.35109997 0.24978727 13
3.0324545 -0.1589874 0.26328161 10.166667
3.0174444 -0.07018438 0.25417471 9.666667
3.0699513 0.22511703 0.26507673 11
3.0432868 -3.859359 0.33220032 6
3.0403342 -3.5886178 0.30089813 6
3.0280719 -3.1205153 0.36420935 7
3.0423179 -2.714612 0.31551442 5
3.0711179 -1.0063777 0.3495034 16
3.0469196 -0.61075735 0.30901939 16
3.0915272 -0.38741103 0.32732049 7
3.0995681 0.090500511 0.33599499 7
3.0955467 0.14825282 0.315115 10.5
3.0466433 0.34768972 0.31833777 10.5
3.087867 2.2048287 0.37151587 7
3.0386 -1.4271101 0.41175631 14.5
3.00265 -1.0992695 0.40524575 12.5
3.0314529 -0.80957144 0.45536771 12
3.0552394 -0.65204185 0.44716933 16.944445
3.0390856 -0.16159455 0.41100556 8.5
3.0963521 0.21202667 0.41571996 13
3.0323215 1.4261365 0.44202077 11.5
3.0125222 1.8518625 0.43934202 9
3.0705221 2.6639125 0.45831558 7
3.0763261 -3.0779688 0.57724887 9
3.027828 -2.7366626 0.50810337 6
3.0210207 -1.395604 0.59921056 20.5
3.0731919 -1.1620456 0.59270769 21.5
3.0944381 -0.82776362 0.55415416 23
3.0055151 -0.63801706 0.53705055 23
3.0441167 -0.13828965 0.57481033 17
3.0867836 0.089872591 0.58478093 9.5
3.0614743 0.12298816 0.58305961 10
3.0054796 0.21045208 0.53470027 10
3.0488756 1.3502535 0.51678866 15
3.0138493 1.4624754 0.59489578 14.75
3.0620415 -3.2606781 0.62070358 10
3.0218263 -3.1694846 0.64579189 10
3.026845 -2.159606 0.61641341 13.5
3.0516796 -1.1542908 0.63428801 23
3.0669861 -0.84267384 0.64118367 26
3.0448427 -0.72406185 0.64180255 18.5
3.0997517 -3.0682397 0.76241606 12
3.089421 -2.9357004 0.75601244 13
3.0929816 -2.149231 0.77765286 18.5
3.0181408 -1.4050162 0.79908025 25.6
3.0689073 -0.72640079 0.76677257 20.5
3.0693383 -0.56873548 0.78604913 17.5
3.0507255 -0.27572972 0.75902551 22.5
3.0402613 -0.15318228 0.74897367 20.5
3.07816 -2.9346306 0.82681727 14.5
3.0899184 -2.3709388 0.86077023 19
3.0197163 -1.2272655 0.84272325 19
3.0730281 -0.70652288 0.84544778 26
3.0401301 -0.57860368 0.85099125 21
3.0011716 -0.26338196 0.80096614 16
3.0463262 1.3684534 0.85866809 20.5
3.0254526 2.6333342 0.86665732 12
3.09096 -3.03476 0.99636483 10
3.0888574 -0.87445325 0.96046585 26
3.0961163 0.99345857 0.9377346 15.5
3.0235114 1.4551948 0.94526315 18
3.0690153 2.645633 0.96409559 13
3.0473435 -3.2707062 1.0686756 15
3.0662212 -2.9175997 1.0668969 18.5
3.0920858 -2.5755012 1.0629663 20.5
3.0720968 -2.3810592 1.0438132 22
3.0865543 -2.104898 1.0109733 24
3.067466 -2.068543 1.0930251 25.5
3.0757699 -1.8172199 1.0115778 13.5
3.0571892 1.6036959 1.0605576 17
3.071043 -2.2741978 1.1874523 25
3.0497773 -0.30274323 1.1497077 20
3.0703244 -0.24037251 1.1024395 28
3.0390766 -0.11946289 1.1129823 23.333332
3.0404701 0.093117632 1.1065032 24
3.0320888 -3.5362208 1.243307 16
3.0916054 -2.6744342 1.2389686 25.5
3.0838735 -2.5044043 1.2060946 23
3.0986125 -1.809598 1.2132443 15.5
3.0533671 -0.63480473 1.2024298 25
3.0390739 -2.6738467 1.378974 24.5
3.0391572 -2.4248943 1.3682122 26.5
3.0344467 1.3731194 1.3837328 27
3.054234 -3.2726951 1.4050119 18
3.0227776 -2.9807332 1.4473717 23
3.0307236 -0.56645846 1.4459196 26.5
3.0923798 1.0095792 1.4540033 21
3.0353222 -3.2561693 1.5143484 19
3.0747118 -2.3931332 1.5309228 26.333334
3.0937243 -0.95411021 1.5558604 22
3.0123618 -0.78967559 1.5425127 29.5
3.0392954 -0.66529989 1.5226796 28
3.0468709 -0.54991883 1.5419469 28
3.0830941 -3.0456457 1.7243083 20.5
3.069895 1.0930156 1.7715909 26
3.0201163 1.2689008 1.7476048 25
3.0462406 -4.4703116 1.9403946 15
3.0498564 -4.6465168 2.0195007 17
3.0232491 1.4066896 2.092751 29
3.034549 2.671921 2.0588827 21.5
3.0420887 -4.6091805 2.1328042 18
3.0502243 1.3460932 2.1641409 25
3.0781662 -3.9868171 2.2900715 23
3.019119 -3.3306179 2.2063386 24
3.0675504 -2.8988163 2.2945113 25
3.0511432 2.035424 2.2004225 25
3.0627415 -4.2105188 2.3643386 19
3.0202701 -1.4001164 2.3061812 31
