# .PCD v0.7 - Point Cloud Data file format
VERSION 0.7
FIELDS x y z intensity
SIZE 4 4 4 4
TYPE F F F F
COUNT 1 1 1 1
WIDTH 1443
HEIGHT 1
VIEWPOINT 0 0 0 1 0 0 0
POINTS 1443
DATA ascii
9.8194113 8.6411123 1.2109357 8
9.8611612 12.184017 1.2870167 7.5
9.8575029 12.844657 1.2986122 8
9.8274956 6.5960131 1.3186553 13
9.8839798 14.415134 1.4190049 8
9.8393364 6.5753789 1.582462 10.5
9.8086061 6.0273209 1.6284456 16
9.8698416 7.5869942 1.7428792 11
9.8851852 8.4752407 1.789703 11
9.8126545 13.663877 1.8352516 7
9.8582964 12.428088 2.0251207 8
9.8470688 7.8044968 2.1118398 15
9.8173294 9.62222 2.1216698 10
9.8665581 10.92135 2.1069949 10
9.885766 12.898998 2.1263876 10
9.8291483 7.3138847 2.299875 9
9.8833866 12.579992 2.2280302 10
9.8209391 8.8090401 2.3718534 11
9.8843031 5.0313759 2.4543586 19
9.8184853 7.238235 2.4279051 10
9.8004313 7.5191641 2.4508896 11
9.8259888 -0.52189612 2.5921314 26
9.830121 -0.47353381 2.5676286 28
9.8154335 3.913415 2.5928481 26.5
9.8155832 4.4017653 2.5052695 25
9.8153353 6.4876485 2.5753553 9
9.8811102 9.2205744 2.5604796 15
9.8544588 9.6685276 2.550596 11
9.8885231 11.830862 2.576118 12
9.8380604 4.393302 2.6023302 26
9.8540802 9.0611677 2.6335652 12
9.8189621 -0.63605016 2.7492242 27
9.8178406 7.393117 2.7906168 19
9.8483953 8.0812521 2.7208388 12
9.8132591 5.8914862 2.8865876 10
9.8217859 12.90053 2.8495681 11
9.8472452 7.1137323 2.9237893 10
9.8417625 5.7112575 3.0579326 13
9.8580828 13.490586 3.025007 13
9.8534975 5.5006986 3.1946836 25
9.8490143 8.713563 3.2891543 19
9.8572302 5.462894 3.311059 26
9.8031435 10.850061 3.4628468 11
9.8912373 6.5969381 3.6438737 15
9.845542 12.435357 3.6899941 14
9.8174543 7.25946 3.7906702 13
9.8276291 8.897872 3.7806273 13
9.8000641 6.4394679 3.909066 13
9.8062992 2.2460337 4.0831752 23
9.8937416 6.7059922 4.0786834 25.5
9.8451805 7.0986676 4.045692 14
9.8314991 5.3272257 4.1509738 26
9.87117 6.6111193 4.1371636 25
9.8430672 7.173233 4.1566901 25
9.8455086 6.6757073 4.2797804 14
9.8537846 -0.991745 5.3701868 27
9.9247704 4.2365618 -0.15525015 4.5
9.9067554 4.2105761 0.04665399 6
9.9388914 -0.054559574 0.10192445 8.5
9.902813 4.1720204 0.15964925 7
9.946476 4.2880893 0.26118648 9
9.9216614 21.968019 0.2562601 4
9.9263935 19.943729 0.36023879 4
9.9267797 4.2176995 0.4119572 10
9.9600992 22.947796 0.42102149 4
9.9387827 20.264851 0.51972198 5
9.9517422 23.174101 0.67953163 5
9.9024105 17.615417 0.76232243 6
9.9486961 21.04804 0.78247958 5
9.9546614 23.990669 0.71364361 5
9.9512348 20.258669 0.83344007 6
9.9813948 23.335297 0.80500609 6
9.9616756 21.946354 0.90521306 6
9.9096584 19.296766 1.053491 6
9.9502001 20.679014 1.0108957 6
9.9259682 17.663128 1.1699971 7
9.9673004 20.21427 1.1662728 7
9.9691677 4.2174931 1.2040023 17
9.9099598 17.180275 1.3402009 8
9.9598179 19.51083 1.3548266 7
9.9173832 17.05875 1.5828749 9
9.9698792 20.063574 1.5252578 8
9.9853172 22.307653 1.5471145 8
9.9637671 21.463802 1.6316675 8
9.975132 20.711969 1.7679505 8
9.910944 15.420496 1.9520851 9
9.9859581 21.339727 1.9707898 9
9.9631214 7.3969269 2.0023887 12
9.9148474 15.143033 2.0321739 7
9.9677801 19.810123 2.0446293 9
9.9454012 24.278278 2.073802 7
9.9257088 15.883874 2.1276157 10
9.9196224 16.55962 2.1155663 10
9.9779453 20.228651 2.2578902 10
9.9936857 21.278719 2.3726029 10
9.9788694 15.94775 2.423378 11
9.9947891 18.80827 2.4727166 11
9.9810429 12.356384 2.5040109 11
9.974474 15.85331 2.5278809 8
9.9191446 16.29953 2.5877776 12
9.9356413 24.516724 2.599236 8
9.9687901 -6.6600561 2.6403577 26
9.9850368 17.991072 2.665709 12
9.9459133 14.932815 2.7200627 12
9.9872932 18.817715 2.7072551 12
9.9063282 12.954798 2.8063412 12
9.9269009 13.191986 2.8701699 10
9.999898 0.097067364 2.9230816 28
9.9399557 16.627832 2.9037895 13
9.9184351 15.891531 3.04617 9
9.9394474 27.155161 3.0166717 8
9.9138603 25.079964 3.1182308 7
9.9401989 16.418957 3.2449272 14
9.9081488 15.337955 3.3543713 10
9.9697008 27.109972 3.3333042 9
9.9098387 9.3884745 3.5481718 15
9.9298658 11.342824 3.5885878 15
9.9387159 13.222179 3.5906229 11
9.9730625 16.589437 3.5767841 15
9.9094124 9.3363714 3.7662914 16
9.9370718 12.478915 3.7695379 15
9.9914503 17.469767 3.7171485 15
9.9204073 2.4564865 3.813127 23
9.9253941 11.225448 3.8735893 16
9.9395609 12.331697 3.8895299 15
9.9477386 13.523209 3.8901396 15
9.9382362 15.405514 3.806844 15
9.9273186 11.577651 3.957823 16
9.9417753 12.985209 3.9726608 15
9.9147129 6.9222951 4.1412554 16
9.9303083 9.4152737 4.1785297 17
9.9367981 10.989479 4.1856346 17
9.9386177 12.365939 4.166482 16
9.9532423 13.629046 4.137259 16
9.9170551 8.0085545 4.2839246 17
9.9423981 13.021973 4.2696195 16
9.9444675 13.498857 4.2697811 16
9.9476585 5.2204695 4.3034282 27
9.9071255 5.5072813 4.3060455 27
9.9792709 7.5276909 4.3870015 24
9.9522457 13.276877 4.4164953 17
10.000868 25.870583 0.67777795 5
10.033664 26.523954 0.93169236 5
10.054465 30.334723 0.93735015 5
10.06877 32.289688 1.0600533 5
10.018425 26.376524 1.144513 6
10.074779 33.157597 1.1226618 5
10.087243 35.241772 1.1274973 5
10.009656 25.306089 1.2802753 7
10.074887 30.384947 1.2888749 6
10.072445 32.260315 1.2991248 6
10.070725 34.514328 1.2538791 5
10.087152 35.267647 1.4671421 6
10.093046 32.973824 1.5164165 6
10.085299 34.237068 1.5972253 6
10.028704 25.688894 1.6885936 8
10.027824 26.329836 1.6565814 8
10.084523 32.159058 1.6081758 7
10.002993 22.62665 1.7549299 9
10.096833 39.857273 1.7682828 5
10.087612 26.390827 1.8565619 9
10.076715 34.507256 1.9555076 7
10.013391 23.009504 2.0829978 10
10.05574 25.633087 2.0905445 9
10.077693 29.594528 2.1580341 9
10.000409 11.062674 2.2853231 11
10.07098 26.478716 2.2116721 9
10.02977 18.648994 2.3467879 7
10.094129 34.33466 2.3101621 8
10.041683 12.951862 2.4011788 11
10.06526 26.597437 2.4464769 10
10.034464 39.659309 2.4989188 5
10.06786 15.204546 2.5445116 11
10.001361 21.376823 2.5718799 11
10.050913 -6.5186429 2.6306412 27
10.057874 24.646051 2.6427295 11
10.09561 -6.4262972 2.7434781 28
10.008353 18.663071 2.7436402 8
10.086191 8.5826454 2.8307815 10
10.061013 25.854628 2.8289258 11
10.069265 27.645039 2.888304 10
10.046987 21.552536 2.9173493 12
10.044349 22.875999 2.9657531 12
10.061229 25.643711 3.0051866 12
10.066765 25.847342 3.0147793 12
10.036015 21.834251 3.1812274 13
10.00626 26.595678 3.1037912 12
10.096048 25.861626 3.2993693 13
10.055995 23.259489 3.308804 13
10.024159 21.52791 3.4630201 14
10.037951 22.453875 3.4409614 14
10.080229 25.224819 3.4332812 13
10.028781 35.480438 3.5497513 12
10.013776 2.1910787 3.6292634 13
10.044131 22.412035 3.642791 14
10.095674 27.330839 3.6507919 13
10.009895 16.293642 3.7938027 15
10.026205 34.538784 3.8289168 13
10.031526 3.5827317 3.9760132 28
10.095267 27.272263 3.9055572 10
10.032766 1.0003927 4.2677808 29
10.03548 5.9732561 4.3357158 28
10.033901 6.8513422 4.3612719 26
10.048297 16.222698 4.5763416 16
10.1831 1.2650312 -0.069512367 5
10.100237 33.093132 1.7591323 7
10.186714 32.435318 2.006619 8
10.122515 30.88649 2.3398061 9
10.128442 35.222359 2.3610981 8
10.107985 30.136118 2.4848397 10
10.118682 32.173893 2.583905 10
10.106431 34.979736 2.5070565 9
10.126904 31.1658 2.7064016 10
10.130579 25.463226 2.8951428 6
10.121796 34.446468 2.8186121 10
10.169728 38.84927 2.8620739 8
10.125874 39.903519 2.8583593 7
10.127728 21.657486 2.9692912 10
10.104818 23.848877 2.9298129 12
10.117342 29.6192 3.0097919 11
10.187799 38.687088 3.05354 10
10.153174 39.4259 3.024545 6
10.13977 31.233353 3.2647336 12
10.191755 39.960423 3.4272242 8
10.106926 26.898815 3.5097973 13
10.145323 34.30975 3.6032441 12
10.113574 26.813065 3.7198417 14
10.183174 31.189903 3.8457587 13
10.150333 29.502357 4.0581956 14
10.159036 30.86812 4.0105991 14
10.113844 6.4770842 4.3428688 26
10.151888 6.8171201 4.3228765 17
10.172616 7.6830759 4.3784099 25
10.177299 31.789326 4.404376 15
10.105972 27.500975 4.5780692 11
10.17155 11.368427 15.710497 29
10.129383 4.5955677 16.641628 28
10.260344 0.21806361 0.18746451 8.5
10.267012 0.16905019 0.33810973 10
10.202991 1.1059132 0.3633779 8.5
10.274295 30.531206 1.9166329 8
10.242114 40.316864 2.0584843 6
10.21851 38.816586 2.9129119 8
10.277121 8.608654 3.1020277 11
10.215799 34.914783 3.1415663 8
10.261695 34.706566 3.2438941 9
10.211843 39.048115 3.2730157 11
10.204228 39.157246 3.2494009 9
10.243738 40.030743 3.2285695 9
10.208979 27.859364 3.5979731 11
10.204471 35.145817 3.5220757 9
10.241212 39.078892 3.6069748 10
10.225271 27.357714 3.8791251 12
10.278794 34.683346 3.8726974 10
10.213881 27.328016 3.9076383 12
10.298379 6.3507438 4.3848891 28
10.244934 6.5519509 4.3814888 27
10.20187 34.274231 4.5439711 15
10.243642 39.48563 4.5299783 14
10.270205 10.923645 16.462532 27
10.332209 -0.010761672 -0.040275365 5.5
10.316456 0.15065959 -0.020077391 4.5
10.32979 0.39934808 0.17511898 6
10.308272 1.2562582 0.16904983 7
10.375072 7.2779512 0.10483694 5
10.303583 6.2692261 0.24777965 7
10.312562 30.48761 3.0223389 11
10.310133 37.107628 3.1598272 9
10.32945 8.1230078 3.2954726 12
10.357125 8.8359833 3.4098997 12
10.356972 38.703251 3.5786803 10
10.373555 38.049614 3.647779 10
10.311223 34.108707 3.7620289 10
10.355187 47.181293 5.4351983 10
10.30418 9.9779339 16.822273 28
10.458055 -5.8624921 -0.40813419 4
10.485579 3.5558999 -0.24478324 4
10.414152 1.8754361 -0.17138109 4
10.422412 17.045071 3.1901255 9
10.438279 15.026851 3.3565292 14
10.412735 33.546497 3.4591396 9
10.460857 15.348991 3.570821 15
10.405017 36.728638 3.6096191 10
10.439738 2.6731131 3.7828076 23
10.444938 14.644414 3.7444153 15
10.490043 15.168363 3.8842041 16
10.46039 3.5753767 3.9771762 27
10.496401 14.502293 4.1371322 16
10.471952 6.5637693 4.368113 28
10.471002 47.007904 5.5061965 11
10.425958 7.7830338 16.748541 29
10.493249 -13.577589 16.852648 26
10.407237 5.6800284 16.86422 29
10.422066 4.2409883 16.926689 28
10.478067 11.630438 17.075333 28
10.562403 3.3813312 -0.12915273 5
10.584771 3.3766599 -0.026283238 6.5
10.588165 3.6627192 -0.027602633 6.5
10.514917 6.0961118 0.13143136 6
10.553312 6.1121268 0.18687664 6.5
10.558656 1.9127792 0.25379333 7
10.578989 3.2736959 0.3381893 10.5
10.506043 7.278379 0.31531 6
10.578588 7.7102818 0.38267988 7
10.528085 1.8124838 0.40034586 8
10.556291 20.803196 3.3239632 14
10.54229 23.678062 3.3495419 14
10.520002 19.014484 3.4893904 15
10.540192 20.843441 3.4332252 12
10.522074 -2.4562366 3.6481314 28
10.57761 20.800966 3.6765387 15
10.516645 7.6089072 3.9996085 14
10.575989 13.733676 4.1968083 15
10.56587 8.2895222 4.2857637 24
10.507273 15.269995 4.5214167 16
10.579199 -12.810859 10.473044 14
10.563025 2.7049005 17.096832 28
10.672866 0.067021184 -0.23236543 4
10.624555 3.4208853 0.1037631 8
10.674799 0.020434922 0.26221308 5
10.632608 7.7923799 0.21341951 6
10.642286 3.5747468 0.34991902 10.5
10.601624 6.1779203 0.34355626 8
10.650702 -2.3853335 3.6415522 27
10.613062 3.6936986 3.806004 26
10.627373 23.549089 3.8538222 15
10.660911 7.6232333 3.9043868 13
10.643549 6.7314453 4.3417158 28
10.668553 8.1802282 4.3774381 25
10.616749 -7.4373145 8.2952785 16
10.690994 10.426338 17.361263 28
10.746967 0.073177792 0.46370226 6
10.798235 -0.10783721 1.0750198 7
10.730732 -0.12682965 1.5453919 8
10.777353 -0.18149149 2.9627712 26
10.723085 37.020569 3.9576855 8
10.734035 2.2169166 4.084631 23
10.742386 37.157211 4.0271401 9
10.733852 35.893112 4.1137762 14
10.753335 37.791939 4.1625204 14
10.776824 37.171783 4.2057633 15
10.726016 37.826324 4.3115726 15
10.762562 36.027718 4.4141989 15
10.754085 36.244217 4.5203056 16
10.732147 -7.0653768 14.265939 27
10.7262 23.807264 15.118469 25
10.759217 37.603409 17.639565 28
10.859919 0.3847076 -0.15131961 6
10.887821 -5.8530531 0.17002462 10
10.860191 40.083557 3.9239943 13
10.893952 39.934101 4.1434774 14
10.88011 40.158806 4.8222432 15
10.962054 0.75787693 -0.49339557 2
10.98559 0.49384457 4.1753941 28
10.9648 3.5227945 9.8025169 26
11.033951 0.7136746 -0.3956261 2
11.027116 0.44164467 -0.17945616 5
11.01804 0.43841246 -0.065782949 7
11.048291 -5.69068 0.94639015 15
11.086871 -1.7064741 4.1414948 26
11.004539 49.171425 18.302254 27
11.133137 -5.6468053 -0.41411465 4
11.16831 0.78620189 -0.41178054 2
11.144634 -5.5555973 -0.28289762 5
11.176847 17.610296 3.5721271 15
11.172459 24.583553 3.9022212 11
11.16541 6.7421441 4.3476434 26
11.133976 7.4596286 4.3370857 27
11.192118 42.093754 15.982736 27
11.16839 38.394611 17.86615 26
11.157819 74.483521 19.657845 14
11.238288 0.42086405 -0.32164836 3
11.226589 -5.6101813 -0.27989632 6
11.282539 0.42034289 -0.29207861 4
11.250179 0.52634865 -0.14795685 5.5
11.258424 0.44793871 0.011909016 8.5
11.256939 -5.5990124 1.0220889 10
11.234255 -6.3834491 2.7018414 26
11.22691 19.791746 3.9747779 17
11.249551 25.048517 4.3216639 12
11.37981 -5.6626658 -0.4791595 4
11.325377 40.751503 16.037905 28
11.309464 41.53096 17.065216 28
11.495719 0.36444008 1.876099 28
11.407984 -0.61135823 3.5601361 13
11.453162 1.3142297 3.8062735 29
11.453634 12.378419 15.262578 28
11.526705 0.64786816 0.014731983 6
11.588693 0.72118974 0.18897909 7
11.59089 0.80079246 1.9634391 27
11.564599 0.11732774 3.8565102 26
11.589561 6.1424899 4.2322288 28
11.509255 12.341151 15.364799 29
11.650573 -5.5676198 -0.2019711 7
11.671436 0.51281071 1.5166466 25.5
11.600255 -5.2592769 2.1329525 27
11.69884 1.623648 3.8331838 28
11.699162 8.4320965 3.8474247 24
11.690143 6.2553363 3.9254286 26
11.603168 1.7573203 4.073669 25
11.659789 31.432974 4.4512224 15
11.671263 1.7933285 13.810907 27
11.715639 0.57159919 -0.41898632 3
11.79544 0.67476302 -0.30765015 4
11.736212 -5.4324288 0.19833197 10.5
11.733037 -5.3916054 0.20407416 10.5
11.741355 -5.4088287 0.37565082 8.5
11.702388 -2.6188323 3.6385181 15
11.758781 2.2067931 3.8905184 15
11.707214 2.3703828 3.869148 17
11.74546 3.1685233 3.8964829 13
11.717758 4.2646985 3.8149686 17
11.776643 5.1307654 3.8267899 24
11.745818 5.7513356 3.8755853 13
11.771581 7.3018174 3.8684137 15
11.751485 10.209088 3.8970087 14
11.724579 3.463382 3.9511344 17
11.765883 5.2735701 3.9473262 15
11.799057 6.8062401 3.969192 27
11.760644 7.6559234 3.9331272 26
11.764225 14.557404 4.0676308 14
11.777317 3.1535339 4.1796041 16
11.773293 6.9959555 4.1272473 16
11.789328 2.261343 4.2403002 18
11.759776 2.7474952 4.2674208 14
11.761074 5.1288528 4.2098441 17
11.768377 5.5198097 4.2966514 18
11.792279 2.3009636 4.3614864 19
11.795035 3.4754741 4.3200598 18.5
11.772923 -0.099501915 4.4444604 18
11.705167 0.24290013 4.492301 16
11.762448 -1.8700895 4.5039001 18
11.786357 3.147954 4.5896354 17
11.746569 1.5759767 4.9835148 15
11.7731 8.6612988 5.4069328 17
11.788599 8.740963 5.6073189 18
11.793312 2.7235014 8.6948748 25
11.719532 3.3887229 8.8456106 28
11.746877 4.1469212 9.0172844 28
11.75015 1.7836545 13.863519 26
11.753489 32.272545 14.834053 27
11.826879 0.69677275 -0.41568112 3
11.82608 4.3231549 -0.39320505 2.5
11.880613 -5.4776897 -0.21409562 7
11.828126 -5.6489148 -0.19589293 4
11.80904 4.3060737 -0.19898771 4.5
11.850205 4.3566365 -0.012367856 7
11.875057 4.4055805 0.15802725 9
11.878281 6.9902759 3.8529654 23
11.838161 7.7236333 3.9385185 27
11.868784 8.0076551 3.9260862 20
11.89331 8.5963564 3.9674406 19
11.873829 10.078674 3.9760885 19
11.825458 6.6180439 4.0130501 28
11.892166 6.9450488 4.0071907 24
11.828957 7.4595065 4.0287204 27
11.895889 8.4178562 4.0371141 20
11.819677 15.451399 4.0673075 19
11.802086 3.9265733 4.185298 14
11.845241 5.3017473 4.1343622 14
11.871718 6.3559027 4.1346354 14
11.887632 7.3895302 4.1710649 14
11.857292 7.5448346 4.1194801 28
11.833367 7.4290266 4.2126346 26
11.834433 24.079679 4.2214541 15
11.806961 4.8896923 4.3430376 16
11.824503 5.1910844 4.4677982 17
11.874211 7.2847123 4.4972844 15
11.822095 11.668041 4.4393697 17
11.897976 6.1012602 4.634542 26.5
11.83701 11.592775 4.7968001 18
11.888885 13.576026 5.1409035 19
11.803602 -0.45068201 5.4958029 18
11.845779 9.3401947 5.5494313 26
11.816439 0.81822145 5.9982271 16
11.848772 6.9628139 6.1479135 20
11.882324 5.3559489 6.209446 22
11.869133 6.6909833 6.2394352 22
11.892382 5.2468877 6.3497272 23
11.89917 1.286553 7.2656412 19
11.873278 4.1010003 8.5534601 25
11.892611 6.1849632 8.5790176 25
11.848174 -0.45657158 8.6234884 18
11.806822 10.751259 8.7770367 26
11.847697 5.7824368 9.0770483 26
11.838694 13.748837 9.1773338 27
11.839305 -0.050957069 13.758975 27
11.860096 12.434525 14.090344 28
11.863295 13.610261 14.85845 28
11.893292 68.514496 16.786192 9
11.950023 -5.2762051 0.70064336 15
11.971804 -5.1602798 2.416837 27
11.98949 -5.0473218 2.4844782 28
11.913561 10.772074 4.0225768 20
11.908484 11.275188 4.0309939 19
11.918593 8.4481087 4.1926613 20
11.931635 12.079376 4.1925411 20
11.964249 15.331411 4.137753 19
11.919998 11.766868 4.2077975 19
11.922998 9.1127872 4.3574247 21
11.958092 10.200184 4.3008552 20
11.923191 11.730697 4.3281274 20
11.929943 12.787348 4.313859 19
11.948475 13.84259 4.3267851 19
11.993426 15.720568 4.3535767 13
11.912069 6.908071 4.4109883 20
11.931841 11.151134 4.4069643 21
11.939966 13.543715 4.4796367 19
11.993906 17.947828 4.4909029 20
11.999779 18.477341 4.4089565 19
11.917594 7.4326806 4.5978951 21
11.954457 13.893011 4.5686374 20
11.921307 11.831172 4.6472192 21
11.941665 13.430223 4.6134443 20
11.923396 14.953735 4.6051159 14
11.906754 9.190156 4.7838058 16
11.912871 10.873784 4.7172728 21
11.959512 13.748028 4.7670689 21
11.96509 17.787676 4.7400417 16
11.952653 13.546827 4.89359 21
11.984137 16.307741 4.8692617 14
11.961322 16.070032 4.9717789 20
11.922534 7.6141086 5.2086177 20
11.962167 7.5892982 5.3009186 21
11.916944 5.1822419 5.519238 29
11.990396 16.862385 5.5697193 18
11.978279 11.928611 5.7291307 24
11.969568 11.817926 5.9012728 24
11.999349 16.135098 6.0342669 21
11.998407 16.396412 6.4086695 24
11.944218 4.1610126 6.7779408 19
11.904969 4.8264413 6.7347956 19
11.919272 6.62005 6.7044392 23
11.910862 10.006989 6.8767595 20
11.983126 12.163906 6.8499947 19
11.923132 7.4026456 6.9699955 23
11.923914 11.519651 7.1179204 26
11.923857 11.382657 7.6210012 27
11.903405 11.567407 8.716507 22
11.932363 10.130841 8.961524 22
11.920486 3.0635583 9.0566874 26
11.907729 8.282135 9.0769577 25
11.983839 10.17645 9.2720928 23
11.981439 18.017647 9.2545128 26
11.920857 4.1748366 9.3505325 29
11.982686 11.108851 9.3586578 27
11.988871 15.864063 14.077784 28
11.962081 12.959353 14.107953 28
11.961532 12.837794 14.320735 29
11.900161 13.75354 14.877398 29
12.081912 0.71040493 -0.14695798 6
12.058605 1.2903968 0.050425272 7
12.097138 7.5067148 0.065652706 5
12.065258 1.235587 0.23189712 9
12.096068 7.4506102 0.66493422 8
12.02682 21.483202 4.2998095 14
12.037967 23.591419 4.2365031 17
12.047169 27.229387 4.382215 11.5
12.014944 19.318167 4.4549789 19
12.033928 19.441149 4.4444108 20
12.024546 19.734749 4.4740748 18
12.045815 29.193977 4.4193654 18
12.075239 33.789108 4.5715055 16
12.022516 17.51166 4.6474662 12
12.079767 21.669554 4.6614771 17
12.023601 19.306349 4.7700443 21
12.097165 26.040949 4.763916 18
12.007578 18.025257 4.8704076 21
12.051108 20.593081 4.8112135 21
12.098579 21.521261 4.8757215 19
12.02964 18.625769 4.945755 20
12.037454 18.872763 4.9617662 14
12.074599 21.434994 4.9130225 20
12.098479 23.989813 4.9317021 21
12.082644 22.151114 5.0565443 20
12.027127 18.679626 5.2003837 15
12.049873 22.4137 5.3728852 15
12.099396 21.105438 5.4500408 16
12.079529 22.111897 5.4396954 22
12.040109 17.175844 5.5748363 20
12.069283 13.381172 5.6617212 20
12.076716 24.922729 5.6589727 15
12.024759 9.1908798 5.7714505 27
12.088926 21.520479 5.7700572 22.5
12.069366 22.478262 5.7845635 16
12.03858 17.150078 5.8676572 21
12.047987 18.572191 5.8565207 24
12.078388 20.574337 5.8867445 22
12.065363 18.742798 5.9939966 22
12.060553 19.297573 5.9901762 23
12.098632 24.961767 6.0571628 16
12.077048 24.204828 6.158927 16
12.08093 6.6768603 6.2945499 21
12.03629 10.044584 7.0910892 21
12.067166 15.795273 7.0995212 26
12.02697 10.80777 7.1539016 28
12.078238 17.341082 7.3956189 24
12.0663 11.209782 7.4534097 21
12.039112 7.5585079 9.2218351 26
12.010893 8.1221704 9.3706951 26
12.074356 12.732511 9.3466215 22
12.06788 11.900232 9.459631 22
12.088037 15.647704 9.4475145 28
12.003464 7.0930057 10.419156 28
12.005975 19.313915 14.167978 27
12.005398 27.624897 14.798779 28
12.05185 33.227139 14.791219 28
12.074822 68.416588 17.829969 10
12.19766 1.1423796 0.13332874 6
12.102966 7.6336956 0.1536344 6
12.130045 7.5654955 0.47368014 7
12.148717 0.65079826 1.9350656 27
12.105113 25.875702 4.8102593 19
12.189328 27.003494 4.8924689 16
12.116488 21.60004 4.9588857 20
12.115569 27.246397 5.0459332 21
12.108994 23.632912 5.1934628 22
12.103379 24.116972 5.1887636 22
12.142117 26.050381 5.1031365 21
12.142802 26.212585 5.1990905 20
12.171101 29.837858 5.1419373 20
12.167766 37.739079 5.1127925 12
12.103158 22.749126 5.2802734 21
12.10757 23.540703 5.355722 23
12.116444 24.166372 5.3851557 23
12.152009 26.767391 5.3363485 22
12.178348 28.102026 5.6746712 22
12.105037 23.178083 5.7333741 19
12.149467 28.8899 5.7128396 14
12.147963 23.350273 5.855032 21
12.15995 40.849236 5.8091893 13
12.170377 11.905355 5.9100451 25
12.161334 12.4466 5.9622459 25
12.171732 13.068699 5.9859614 24
12.165267 27.425272 5.929842 21
12.182146 28.08009 5.936111 23
12.136872 29.466921 5.9729056 15
12.169193 18.52717 6.1703191 24
12.185838 20.069687 6.1943593 23
12.152644 24.150871 6.4676523 26
12.119722 7.4346628 6.5321126 19
12.112418 12.71733 6.5442052 18
12.142612 21.753035 6.5296378 24
12.183747 25.741623 6.5783792 26
12.171398 14.191857 6.6089196 24
12.1448 22.657166 6.6760802 24
12.153598 23.414621 6.6236582 26
12.106867 27.998537 6.6530094 15
12.13763 19.737526 7.1957116 26.5
12.166279 23.139618 7.3012233 27
12.198153 24.041456 7.3118801 24
12.176233 23.189091 7.4906974 28
12.193445 24.147728 7.4183288 28
12.196006 19.921982 7.6394153 22
12.181165 25.392033 7.7762456 27
12.136609 17.213482 7.8188176 25
12.179288 24.67791 7.9929061 27
12.198519 25.541534 8.1595297 28
12.14961 19.142794 8.2501736 26
12.179951 24.764248 8.331892 28
12.102871 8.2034597 9.3851862 22
12.164948 -0.22489437 9.45502 19
12.120749 12.845674 9.4607544 24
12.11445 14.363952 9.437849 22.5
12.104405 17.88813 9.4880199 27
12.103911 18.041348 9.5700331 27
12.13477 22.676258 9.5573225 28
12.130589 28.993853 9.5077381 22
12.167968 16.04538 9.6568089 22
12.120503 20.537708 9.6219339 24
12.128817 10.393325 9.806983 24
12.112909 11.625526 9.8479662 24
12.125081 7.7309895 9.9235458 23
12.133482 9.0377235 9.935317 24
12.198083 16.771933 10.026016 23
12.156726 8.2519846 10.144295 24
12.143163 6.5509038 10.222771 23
12.175763 6.7141109 10.499387 24
12.163228 2.7574873 10.605248 28
12.161235 18.101585 10.623824 27
12.148393 12.172504 10.891722 28
12.170001 20.478775 10.896559 22
12.105036 13.847752 14.146155 28
12.179605 13.999348 14.271859 29
12.123837 15.850144 14.38528 28
12.161348 15.543684 14.475415 29
12.150992 16.278187 14.864119 29
12.189949 17.058142 15.741849 28
12.284927 1.1298567 0.25202999 7
12.200727 1.2067511 0.20154189 8
12.203389 0.7270475 2.0083451 28
12.231236 1.0063232 2.267312 26.5
12.200533 28.617792 4.4967895 18
12.202257 29.110464 4.5087609 19
12.226414 30.674011 4.53757 18
12.254057 30.760386 4.6813121 19
12.283288 35.574856 4.6368642 13
12.264952 32.708961 4.7045183 12
12.296475 37.607006 4.8572974 14
12.253051 38.446701 4.8590078 18
12.223784 39.436073 4.8630238 12
12.262328 40.042103 4.9353933 18
12.260587 35.58007 5.0027175 14
12.226722 27.692081 5.1222224 15
12.244427 36.645565 5.1696329 19
12.266055 39.180656 5.120554 19
12.229555 34.973495 5.2421288 18
12.236163 35.673882 5.2755589 19
12.276031 35.534576 5.516192 13
12.270542 27.715736 5.6250963 16
12.228841 33.440369 5.6076422 18
12.292681 42.949001 5.7113323 13
12.245277 33.510605 6.0536933 19
12.291024 40.108112 6.0646105 16
12.263638 20.698309 6.1654539 24
12.208056 23.314558 6.1964393 22
12.266931 28.485117 6.2706437 15
12.249135 29.163399 6.2590365 16
12.26225 24.835569 6.5198746 20
12.21296 18.094608 6.7633653 27
12.209164 30.316042 6.7597747 17
12.201122 22.501665 6.8805161 25
12.241823 28.135485 7.038506 16
12.202276 25.81455 7.5369058 28
12.243455 23.809792 7.7232394 25
12.292023 38.739506 7.9453835 17
12.238685 22.619663 8.2440062 26
12.208434 23.115726 8.3275747 27
12.229301 22.867134 8.8082619 28
12.292136 33.692867 9.3810949 22
12.200162 22.991297 9.5885382 26
12.258126 24.026758 9.5676279 25
12.256471 25.588778 9.5209055 26
12.26952 26.473309 9.5887489 27
12.213984 33.244907 9.5873585 26
12.276796 34.768459 9.5541306 22
12.27663 37.782677 9.5400896 21
12.231699 23.136049 9.6373663 27
12.224196 33.279507 9.6251984 27
12.289034 25.873926 9.7683935 27
12.245025 26.555799 9.7659159 26
12.240376 34.77998 9.7161312 26
12.295195 38.61832 9.9930296 26
12.219557 20.614759 10.219281 25
12.210881 20.081591 10.448948 26
12.233092 20.951015 10.66632 28
12.241735 6.8320646 10.754314 29
12.214253 7.722127 10.781396 29
12.25922 15.451818 10.958059 29
12.255061 20.74194 10.91563 25
12.222848 17.836895 11.008898 28
12.265189 21.817501 11.130005 25
12.223752 19.008602 14.760314 28
12.241404 74.535072 17.740753 14
12.315647 7.3683915 0.24788202 6.5
12.323218 0.94717366 0.38946721 6
12.385193 1.0097549 0.55893391 7
12.348262 12.166541 0.54754722 6
12.362398 0.97815758 0.74512631 8
12.31721 1.0209191 2.5117991 28
12.323603 1.148471 2.6072698 29
12.348842 -6.3977289 4.2097058 13
12.395632 52.914158 5.5950909 9
12.308523 35.45985 6.014226 16
12.301284 43.086613 6.1200371 14
12.356337 40.113308 6.2985854 17
12.344507 37.732128 6.3247371 17
12.334482 32.206276 6.5304122 20
12.357978 36.743065 6.5869722 18
12.312641 39.018353 6.5121679 22
12.380063 43.590282 6.5913162 15
12.364898 34.889294 6.6675406 17
12.361659 45.171219 6.6191115 14
12.346207 33.792435 6.7213969 17
12.392405 34.13995 6.9664531 18
12.338561 39.927258 6.9658303 16
12.364124 37.677589 7.0097475 19
12.315729 39.426369 7.1495962 17
12.380974 34.695637 7.3414588 19
12.32441 32.79007 7.8332639 23
12.353906 33.821365 7.8408642 26
12.389702 39.681782 7.8510399 25
12.327498 33.657791 7.9427285 27
12.325922 34.112339 7.9488688 24
12.359471 34.128117 8.0215235 17
12.392694 39.933655 8.0864258 26
12.328669 34.160351 8.2088909 25
12.395373 37.866215 8.2073593 24
12.368472 38.825954 8.4081345 26
12.393936 35.532318 8.6932354 26
12.380954 39.019871 8.6018925 27
12.309613 34.88583 9.477829 21
12.300598 37.656872 9.460639 23
12.300241 37.011978 9.6562557 24
12.396235 40.468502 9.841567 26
12.340977 40.885422 9.8377666 21
12.314091 26.619711 9.9243717 28
12.348464 33.049492 9.9474735 28
12.370888 33.440426 9.9910612 27
12.303833 36.797146 10.051373 28
12.378041 42.094082 10.069002 21
12.306281 42.178505 10.020521 26
12.328099 44.603043 10.067383 26
12.307098 43.064842 10.119071 27
12.370972 38.256065 10.218852 27
12.396852 42.671104 10.302775 28
12.3882 35.773823 10.513132 21
12.387696 7.4213724 10.845528 26
12.317251 14.763913 10.992008 26
12.320127 0.099995136 11.143864 24
12.358867 24.951443 11.118642 28
12.341421 29.45121 11.283696 24
12.377789 16.499392 11.428261 27
12.457581 1.2007481 -0.25690797 4
12.446388 1.1720591 -0.16670492 5
12.494052 7.2316189 0.14703061 7
12.421359 43.322983 6.129241 15
12.454796 52.383614 6.1242189 10
12.402233 40.012787 6.8761864 18
12.43116 42.328979 6.9144602 18
12.483349 35.831169 7.3149033 24
12.426996 47.341057 7.4016328 14
12.445548 47.876339 7.8060489 15
12.481032 42.462795 8.0819292 19
12.407181 35.853806 8.2244024 27
12.470634 28.462931 8.3792963 18
12.462915 37.255344 8.5931187 26.5
12.438653 38.987495 8.7684784 22
12.414974 37.198498 8.8294458 27
12.415565 37.61935 8.8624706 22
12.432582 39.486511 8.8749733 27
12.432303 40.518257 8.8668852 22
12.410755 38.374672 8.922389 28
12.445217 43.026855 8.9756794 19
12.416756 35.302837 9.0355959 27
12.41711 36.785435 9.1252298 28
12.489597 39.144657 9.1843185 23
12.432763 39.549049 9.1052017 28
12.458459 42.844234 9.1721888 20
12.488198 28.783812 9.4521751 26
12.472677 32.247017 9.7269392 22
12.44034 28.89266 9.903039 23
12.407719 32.067337 9.9829063 26
12.474194 34.250504 9.9084625 23
12.414614 34.981216 10.058329 27
12.468311 41.436447 10.391732 27
12.444557 49.310421 10.351284 22
12.430896 31.961561 10.418527 27
12.471697 37.187752 10.41638 25
12.454161 42.86227 10.410115 26
12.438373 35.689041 10.685753 22
12.498248 42.585926 10.786675 27
12.457908 19.487579 11.059114 27
12.467747 15.527669 11.152096 27
12.466414 16.723785 11.129476 28
12.454975 26.754078 11.231229 26
12.468162 -9.3028507 17.127453 29
12.517978 1.2037189 -0.51242024 2
12.555582 1.088783 -0.37519488 3
12.571708 1.1718507 -0.38966984 3
12.503573 1.1792725 -0.11434727 6
12.532221 7.3735723 -0.0043715937 5
12.505547 1.1514206 0.21885203 9
12.563445 7.2673712 0.47860292 7
12.531782 0.79704458 1.4530551 8
12.503694 45.008568 6.9379225 15
12.500237 42.339493 8.5653143 20
12.543154 37.435131 10.028206 21
12.514929 39.308037 10.371787 26
12.586585 44.356297 10.423873 20
12.525801 30.380976 10.713886 22
12.559183 7.6997385 11.156922 27
12.52017 19.749279 11.153674 23
12.551671 23.268122 11.350157 25
12.599451 28.271679 11.323796 24
12.501543 18.211721 11.422254 25
12.580699 22.247898 11.473246 25
12.558271 29.764771 11.418097 26
12.577003 21.142197 11.537044 26
12.588299 21.95915 11.670218 26
12.688605 1.0853972 -0.20515612 4
12.620493 40.068504 10.376406 27
12.629821 44.885292 10.690381 21
12.658431 29.303019 12.016356 25
12.714377 7.2260246 -0.019182464 5.5
12.704079 1.2853028 1.8915192 27
12.709729 55.95541 4.1540327 8
12.787547 30.045494 11.569618 21
12.710787 30.279366 11.634621 27
12.795393 30.042877 11.764791 22
12.797253 39.094116 11.799226 27
12.814307 6.1566272 -0.2852107 3
12.891473 7.2851038 -0.043679457 6
12.856598 7.3219728 0.29997399 6
12.812554 1.4421587 1.964631 28.5
12.858003 1.383328 2.0135314 25
12.815058 1.6408352 3.2864392 29
12.81602 41.012573 10.980412 27
12.80676 41.051418 11.889623 27
12.880939 38.993988 12.135831 28
12.877277 42.694633 12.104865 27
12.873363 35.297115 12.251191 27
12.804507 36.886448 12.221539 25
12.871964 40.37072 12.261383 28
12.980843 1.1537703 -0.44948354 3
12.950174 7.2945957 -0.15229163 5
12.913015 1.076028 -0.049590498 5
12.959745 0.61542326 0.036350865 5
12.947927 42.697166 12.50918 24
12.909611 41.692577 12.607285 25
12.945751 42.755589 12.844214 25
13.042098 1.1377294 -0.34127071 4
13.051893 1.0795317 -0.22417654 4
13.008271 7.2658138 0.10211398 7
13.06684 -4.6832838 2.1151345 27.5
13.155876 1.0974573 0.057232525 6
13.195619 7.3255529 0.037069093 5
13.194233 7.2831922 0.47074649 8
13.128946 74.822838 11.668754 9
13.112703 49.2724 12.515801 21
13.140343 67.929993 18.592997 11
13.230147 7.2736454 -0.23728745 3.6666667
13.275666 0.7073918 -0.15063675 6
13.264622 2.8095384 0.34305871 5
13.24061 7.2071385 0.41897747 10.5
13.258706 3.9691117 0.60873538 11
13.297276 6.0639505 0.68664581 6
13.255887 2.7867436 0.79790574 6
13.237775 3.8809133 0.79553676 12
13.346351 7.3181186 -0.2682327 3.5
13.326049 1.1406446 -0.02182655 7
13.34565 7.3134642 0.66771317 8
13.382305 2.3155272 2.6932387 27
13.377088 54.548458 3.0689981 6
13.402645 7.2727685 0.25543439 6
13.41199 1.3574808 1.8360889 28
13.452649 -4.5325155 2.2656281 28
13.448307 2.307106 2.4983683 26
13.555138 7.2132492 -0.066112988 6
13.569534 7.2084732 0.13143587 7
13.565106 1.9633489 2.5473094 29
13.525478 74.720085 12.831755 10
13.58874 74.622459 17.848005 13
13.672455 -4.835114 -0.34523386 6
13.616681 5.4450846 -0.30500442 4
13.633283 5.502593 -0.3575626 3
13.667706 5.5398488 -0.17783237 5
13.626467 1.0795146 0.16730081 8.5
13.640166 1.7722058 2.4810064 28
13.690852 55.489891 4.3889065 9
13.717237 1.4682914 -0.42452112 4
13.767839 -3.7212453 0.18522744 6
13.77858 1.0230931 0.11176246 6
13.780416 -4.845922 0.29728249 12
13.729218 1.056553 0.2906512 7
13.76686 5.3009448 0.40959913 11
13.730595 7.3212414 0.60145611 9
13.767264 5.5421176 1.0077175 16
13.758419 1.6061702 1.3754498 27
13.744272 1.7594082 1.3550439 28
13.742692 74.659698 15.027188 11
13.73969 74.661629 19.103577 15
13.881434 -4.8853965 -0.21792085 6
13.879435 -4.5531397 -0.21946518 6
13.864686 5.4022608 -0.069281287 6
13.853228 -4.7968206 0.045107193 10
13.860821 1.0995218 0.075186737 7
13.843456 7.2383151 0.22840852 9
13.82018 1.1111922 0.36670309 10
13.856257 7.2303052 0.37096849 10.5
13.850465 -3.5840929 0.56618899 8
13.826652 5.4289265 0.5064829 12
13.851245 -4.7766294 0.73477799 9
13.870425 -3.5541713 0.82371211 9
13.852249 1.763392 1.4222789 27.5
13.846142 1.3541356 3.1880841 27
13.800897 74.631287 19.531616 16
13.922344 -4.8961501 -0.025844639 7
13.914442 7.2765188 0.39881226 7
13.920624 -3.5142615 0.95955002 10
13.991516 1.938674 1.4684396 23
13.96211 74.710533 16.54023 14
14.069617 1.2647374 -0.053332996 6
14.01349 -4.7419887 0.48021427 7
14.099911 -4.702877 0.67620337 8
14.122243 1.5482076 -0.42209336 4
14.159965 7.2324839 -0.0095139025 6.5
14.183976 7.231873 0.20149271 9
14.147075 1.7872318 0.98358744 18
14.125314 1.8918767 1.4051609 27
14.143363 55.423878 3.516892 7
14.227966 7.2597728 -0.16316207 5
14.242553 1.3863094 0.041931581 9.5
14.275559 1.5628469 0.041331112 10
14.217527 1.6899223 0.75056964 8
14.28473 1.6562393 0.93631107 9
14.304728 7.1842732 -0.0586586 7
14.383213 1.6031512 0.60166717 14
14.438867 -4.5949306 -0.66347903 3
14.471957 -4.5342736 -0.47913495 5
14.466619 1.6962852 -0.43302658 3.5
14.490349 1.7405826 -0.44603786 3.5
14.48929 1.7055342 -0.21225974 6
14.435888 1.96887 1.5160468 27.5
14.510914 1.0419748 0.31677771 9
14.56946 2.1014853 1.4404051 25
14.512058 -4.8721042 1.6615964 9
14.656653 0.99424917 -0.30748397 4
14.678761 0.96742737 -0.10416703 5
14.632478 -4.6764369 0.097549431 10
14.638244 1.5294292 0.15400077 7
14.606804 1.4894046 0.25346372 8
14.673854 12.341222 0.48028636 6
14.635453 24.929487 0.52364784 5
14.650543 1.7235047 2.059351 26
14.660958 1.0873568 3.0539513 28
14.760658 7.3239684 -0.22239985 4
14.741188 5.0003233 0.014463474 5.5
14.747035 7.2402706 0.0709951 8
14.734537 0.96740472 0.10564694 6
14.793291 4.786674 0.19675641 7
14.724991 -4.5747724 0.31254527 10
14.704967 7.2211118 0.39521641 9
14.72726 4.9591517 0.41330293 8.5
14.775685 12.338229 0.50014555 7
14.788023 1.4147713 1.646307 12
14.714583 -4.8220477 1.8299544 10
14.785632 54.709888 2.5048261 5
14.704261 55.562012 3.834939 8
14.819517 5.050807 -0.22472319 4
14.848373 7.2875957 -0.075825289 5
14.881615 4.7264161 0.35569489 8
14.818606 -4.7356687 1.1464819 8
14.895733 74.389282 23.921078 18
14.937566 1.0217369 -0.22011842 5
14.904922 1.7153101 -0.21876518 6
14.958611 1.8118546 -0.27863824 6
14.972074 1.7793105 -0.15440522 5
14.981028 1.0340631 0.020841746 6.5
14.90773 7.1992421 0.34828034 6
14.965168 7.2261181 0.33908239 10
14.934198 54.761379 3.0033865 6
15.079814 -3.7574503 -0.60913056 4
15.060327 2.0886278 -0.60648471 2
15.088668 7.172379 -0.090775266 8
15.046069 7.2344284 0.13925752 7
15.013581 7.2366033 0.42513931 11
15.004953 1.3555777 3.0893428 29
15.003645 -4.664156 3.4559171 11
15.129182 -3.7724409 -0.4351894 5
15.138032 7.1670132 0.16830671 11
15.14501 12.393213 0.19324215 5
15.189512 7.162024 0.20808788 12
15.199783 7.2472157 0.34150141 8
15.174718 9.0577927 0.37554124 7
15.155657 9.0964127 0.42691657 8
15.274664 2.1085169 -0.61393821 2
15.256953 1.0336835 -0.51708472 4
15.219029 7.2354813 -0.30248627 5
15.261793 1.0261635 -0.29238886 4
15.241186 7.1962686 -0.12672481 7.3333335
15.252731 7.220901 0.20604248 8
15.261189 5.9665947 0.77562106 9
15.202744 1.4662129 1.1592733 18
15.291906 1.5608912 1.4025581 15.5
15.284988 1.489004 2.4575441 26
15.274378 55.638855 2.5387199 5
15.278811 55.621738 3.0426266 6
15.303607 1.0321554 -0.59296125 2
15.379436 7.2479401 -0.23370597 4
15.359605 7.3173108 -0.22707123 4
15.363863 7.2785459 -0.10363749 5
15.387336 7.1774826 0.064361051 10.5
15.337621 7.2522163 0.07636404 6
15.371428 7.222362 0.27338734 7
15.347681 24.818026 0.74682188 6
15.42144 7.1609612 -0.36358353 4
15.45355 6.4070487 -0.23637578 4
15.413039 7.1543193 0.20230831 12
15.439061 19.991385 0.99432051 11
15.584086 7.1559706 -0.52286732 2
15.582414 2.4894154 -0.48311612 3
15.571551 -3.3396111 -0.33055788 5
15.542467 2.4821243 -0.3081179 5
15.5655 6.4379873 0.069130071 8
15.506883 2.6120598 0.244369 8
15.622876 2.513634 -0.59970266 2
15.60192 7.1747189 -0.33341667 5
15.606918 2.5971644 -0.268767 6
15.679897 6.316658 -0.16235155 5
15.698477 1.8331199 0.0013781573 8
15.657307 6.3291297 0.042117156 7.5
15.626352 7.2262487 0.022010505 6
15.639072 12.436185 0.054029483 6
15.673128 12.406294 0.22637908 7
15.651941 24.811905 0.32959905 5
15.607263 1.7094463 0.61805946 14
15.601512 24.852188 0.78743684 7
15.64672 1.340609 2.0291574 23
15.708344 0.97856832 -0.40615538 12
15.713323 2.5475779 -0.39012206 4
15.765935 7.251061 -0.23892006 4
15.733907 1.8918825 0.057012297 9
15.709678 2.620856 0.029716214 9.5
15.701801 1.9421512 0.12429954 10
15.702834 7.23066 0.11345998 8
15.704253 12.365553 0.30054298 8
15.748703 1.6502242 0.74190152 9
15.741207 40.09885 2.1512651 10
15.847533 2.6699982 -0.34089193 4
15.851173 7.2361817 -0.28464732 4
15.818772 2.697542 -0.11814027 6.5
15.864674 7.2450557 -0.18388592 5
15.847264 2.6745331 -0.000466542 8
15.82795 7.1944876 -0.049013603 10
15.841743 7.2417974 -0.069094755 6
15.850933 24.835472 0.24283119 4
15.880172 1.3222644 3.3871241 29
15.828986 1.2579296 3.4429228 29
15.853452 56.644836 3.4067631 7
15.801208 54.930542 3.6596596 7
15.953512 -3.8171935 -0.50514805 6
15.943973 2.7349148 -0.40661132 4
15.994473 -3.6159098 -0.33960709 5
15.953192 2.7497134 -0.35799718 4
15.992498 7.1898184 -0.34823653 5
15.951527 2.6989641 -0.1593978 7
15.968548 2.6896713 -0.011006111 9
15.938959 16.726063 0.0088189086 4
15.96163 1.624737 1.2560529 15
16.019493 7.2177806 -0.45679614 3
16.020195 2.6974559 -0.33244917 5
16.065063 7.2744727 -0.3891789 3
16.089153 2.7592709 -0.092771575 7
16.090044 7.2142372 0.1712333 7
16.000139 16.750338 0.18179962 5
16.025158 24.739883 0.50290269 7
16.052 24.727673 0.69213408 8
16.017109 1.4921231 3.0881824 28
16.013004 1.444157 3.1805971 28
16.040003 1.2028987 3.2696576 28
16.102425 7.2469058 -0.26866668 4
16.169041 7.1957769 -0.16418721 8.5
16.106091 7.2738152 -0.1023721 6
16.138712 8.8307295 -0.12878768 4.5
16.180395 9.0753899 -0.19065304 4
16.174416 12.454626 -0.075402603 4
16.176094 16.482744 0.25262499 8
16.146524 16.431641 0.33309191 9
16.195627 1.648899 1.34655 12
16.190884 56.70134 3.5900111 8
16.231134 -3.7974131 -0.25236899 5
16.219551 7.2286863 -0.27945423 6.5
16.26265 -3.7875063 -0.021728437 6
16.260271 9.0337753 -0.012919732 6
16.244551 16.553658 -0.044073306 5
16.21669 7.1871467 0.059901088 12
16.221066 16.642826 0.011414132 4
16.24999 15.191587 0.11216551 6.5
16.255062 -4.5119934 0.53619647 12
16.234756 12.416083 0.65874177 8
16.278421 -4.7039189 1.144275 9
16.281034 55.572937 3.6639283 8
16.300535 2.5961552 -0.59109229 2
16.337746 2.5638463 -0.16326597 6
16.37462 9.0627251 -0.11722235 5
16.348055 14.303167 -0.18791692 4
16.32206 -3.7266979 -0.066517815 6
16.31081 7.2270722 -0.044280816 10
16.393991 16.347742 -0.092598051 4.5
16.315973 2.5812769 0.0042111119 8
16.377285 7.2926264 0.033898965 9.5
16.367933 12.430731 0.094812967 5
16.386826 16.424925 0.089522339 6
16.336187 21.738289 0.062026203 4
16.359083 12.423575 0.16436496 6
16.390289 2.4017761 0.20267305 9.5
16.314003 9.0660696 0.23158036 7.5
16.322939 21.757505 0.24665143 6
16.327513 12.393426 0.42728385 7
16.323652 24.768562 0.47442627 5
16.350285 -4.5109463 0.65466499 13
16.370457 18.436041 0.6445902 4
16.305201 -4.4335852 0.80607355 14
16.315191 55.432251 4.6896715 10
16.434019 8.9038038 -0.21755688 4.5
16.493801 6.0814161 -0.1096101 5
16.474018 8.8841553 -0.12578788 6
16.450199 12.518298 -0.19213352 4
16.423941 12.679732 -0.1698025 4
16.403774 9.0484781 -0.0058306321 7
16.469536 14.464163 -0.093402021 5
16.446949 17.457674 -0.066415638 4
16.444511 7.3645067 0.015179254 11
16.473215 14.440283 0.025785267 4
16.447062 16.197821 0.085348487 6.5
16.473557 15.650226 0.12853877 7
16.465096 14.423514 0.45203006 9
16.470276 1.7535852 0.64839804 13
16.431643 1.7608113 0.72871679 14
16.464449 39.924149 2.3818655 9
16.443436 55.675083 3.5779583 7
16.58021 2.6105647 -0.30812496 5
16.590853 7.5105019 -0.18531887 6.5
16.547691 7.4825616 -0.087222323 9
16.514809 -3.7065656 0.077367552 7
16.513073 7.4239426 0.089792632 11.5
16.504255 16.101671 0.14787841 7
16.509539 55.78125 1.395454 4
16.628565 -3.7103198 -0.37307224 5
16.602943 2.6438205 -0.35395643 5
16.616957 6.1480498 -0.33454359 4
16.672892 2.7043459 -0.22954871 6.5
16.637354 6.1601338 -0.28992134 5
16.618578 7.5354052 -0.15095769 8
16.625702 6.2513213 -0.069970317 6
16.643795 7.6146674 -0.075902313 9
16.678909 14.280923 -0.081384994 4.5
16.664526 2.697613 0.04319977 9
16.697525 6.2460012 0.035803773 6
16.615738 8.7366199 0.018320017 8
16.698187 14.283854 0.054731563 7
16.63249 12.414557 0.16808861 8
16.651228 19.953289 0.25500444 6.5
16.610197 8.7097559 0.35123289 11
16.687384 14.195927 0.33556548 6
16.646183 14.340369 0.38420644 9.5
16.633627 17.525482 0.32874498 10
16.644545 19.962799 0.38176149 5.5
16.688824 -4.3920817 0.6923219 12
16.692392 39.813778 2.0274081 8
16.711315 -3.6351509 -0.54508096 6
16.715092 -3.5932705 -0.13638861 8
16.756378 -3.5948396 -0.028466074 8
16.73703 8.0960093 -0.011862228 10
16.756458 13.909835 -0.023713984 4
16.744884 7.9428806 0.095196597 12
16.753992 8.1187773 0.085710242 11
16.736038 8.5315094 0.0043612798 7.5
16.738516 12.474404 0.029738361 7.5
16.744164 21.606197 0.095735997 5
16.760296 13.909894 0.171415 5
16.716314 20.06673 0.15294258 6
16.772955 12.645142 0.28974542 10
16.757172 14.217385 0.22077933 5
16.770864 20.137245 0.26696807 7.5
16.798843 21.492939 0.25090533 5.5
16.758596 21.566032 0.21933581 6.5
16.720619 14.257221 0.33861798 10
16.73654 21.58209 0.46873999 9
16.711609 26.467592 0.41049615 6
16.732885 24.738062 0.619412 6
16.791145 1.8090215 1.0802095 15
16.721924 1.8172089 1.1901739 6
16.795568 1.8197943 2.2354159 23
16.818317 2.5981493 -0.45593616 3.5
16.821436 6.4807382 -0.27062023 5
16.854565 6.472403 -0.12912923 5
16.807827 2.6073475 -0.016409302 8
16.860291 12.653193 -0.058246337 6
16.816231 17.63772 -0.046875264 5.5
16.838602 12.691696 0.18186142 8
16.828087 14.107388 0.10847653 8
16.8661 12.713523 0.34888518 11
16.822405 12.629149 0.40091115 12
16.845572 21.370518 0.45202544 7
16.859619 20.678066 0.67769611 11.5
16.840788 1.7916231 0.73603821 8
16.843256 2.2753239 2.2421496 21
16.837576 1.8966992 2.3103988 24
16.983086 13.142582 -0.065968692 6
16.902763 17.880234 -0.032686576 5
16.99688 13.296924 0.089781038 7.5
16.903109 13.484054 0.048599042 6
16.91951 13.878195 0.052310985 7
16.98196 20.599844 0.069449857 5
16.956944 21.19504 0.091274194 5
16.97842 18.843592 0.13746504 6.5
16.933308 20.283718 0.14240348 5.5
16.920525 26.373278 0.13946906 4.5
16.983864 20.352978 0.313364 7
16.964966 21.19207 0.33924177 7
16.922676 21.011332 0.53663921 10
17.06246 18.506178 -0.0008014224 6
17.008282 7.6943502 0.071640097 7.5
17.042368 18.03459 0.04512259 7
17.086582 18.529072 0.070269398 7
17.050632 18.551817 0.11931749 6
17.015869 20.573404 0.19756988 6.5
17.051289 20.849192 0.21660297 7
17.028152 20.989832 0.20397151 6.5
17.047268 29.702478 0.29128063 5
17.020674 7.7625356 0.38837445 11
17.022617 26.432344 0.30953437 5
17.086302 1.5835712 0.53418905 7
17.081114 7.6718535 1.040938 17
17.068895 -4.3941445 1.3511983 17
17.001629 55.636532 2.6093338 5
17.157093 -2.1431422 -0.22888082 6
17.162916 9.3856201 -0.1552107 5
17.188818 11.43696 -0.15059958 4.5
17.146711 29.913918 0.32907808 6
17.116953 32.460686 0.34315822 4
17.117668 24.730591 0.42428926 5
17.145437 -4.307343 0.50297654 6
17.125481 29.91181 0.51158673 7
17.175556 55.764454 2.7460682 5
17.130308 55.722794 5.038075 9
17.277433 -3.5082507 -0.57190055 5.5
17.261303 9.1610556 -0.42374241 3
17.238369 13.561323 -0.12863651 4
17.238642 9.1625996 -0.0016743677 6
17.257256 -2.034102 0.0016692533 7.5
17.239321 9.2055931 0.083151482 7
17.280113 24.677862 0.081507556 4
17.205547 9.3370495 0.1637256 8
17.267302 14.9838 0.13730747 5
17.246874 11.421999 0.20035414 7.5
17.224712 26.3615 0.20167437 6
17.226837 32.513073 0.39079195 5
17.276411 14.9991 0.41055784 7
17.292793 29.490845 0.4397746 5
17.282806 14.989915 0.60830462 8
17.223074 24.798901 0.6767695 7
17.231678 37.566555 0.66763598 6
17.280878 37.534355 0.79438335 7
17.365011 17.181423 0.12381228 5
17.313425 24.733631 0.1615691 4.5
17.390228 27.371162 0.13352302 4
17.363804 -2.3120539 0.27484053 9
17.348354 24.692087 0.31450436 6.5
17.337667 26.387806 0.37737575 6
17.343416 17.279526 0.44793555 6
17.383032 24.704046 0.47431624 8
17.390966 13.506156 0.51535726 9
17.381939 17.291134 0.59118181 7
17.344011 26.416685 0.54289401 7
17.316103 32.070679 0.55085778 6
17.36359 35.198112 0.52056664 5
17.316151 29.549156 0.66373098 6
17.365307 42.74609 0.69599622 2
17.336447 -4.3857031 0.7919172 14
17.318815 -4.4147806 0.86248296 10
17.375711 32.444283 0.83609664 8
17.307402 37.740326 0.8303799 6
17.316118 32.422878 0.91214633 9
17.331154 14.959522 1.1656785 12
17.320799 -4.1137013 1.4859924 18
17.31706 55.623943 3.1640348 6
17.303944 55.603642 3.5720589 7
17.465378 15.015919 -0.11946369 3.5
17.475586 11.254529 -0.02444193 5.5
17.438236 26.4212 0.068845302 3
17.443171 26.35198 0.11673708 5
17.473412 15.016666 0.26256445 6
17.471958 29.941601 0.25153422 5
17.43845 11.32984 0.39084834 9
17.490101 29.975264 0.45864958 7.5
17.455011 32.011364 0.42355591 5
17.492912 32.400749 0.48823658 6
17.416861 36.64323 0.45982486 4
17.432653 24.742676 0.55953586 9
17.446955 29.919281 0.55946368 8
17.462877 -4.3919945 0.7387414 13
17.456591 1.7746277 0.71358693 8
17.486475 11.231997 0.83240688 12
17.487825 -4.365375 1.0515689 11
17.598444 2.6309307 -0.51666546 3
17.573069 2.748981 -0.082344592 6
17.546505 7.9281225 -0.057392202 6
17.505026 11.201832 0.14752565 7
17.54137 7.9200506 0.26285139 8
17.537764 11.23852 0.28631353 8
17.561024 19.888775 0.20638452 5
17.531563 27.38213 0.2067498 4
17.588129 19.866728 0.36066201 6.5
17.565443 24.786045 0.34160879 5
17.585747 31.953594 0.33571297 4
17.585358 34.503834 0.44047222 4
17.566586 30.028492 0.64673805 9
17.556168 32.363899 0.74955148 7
17.580473 -4.658637 0.80053538 6
17.52639 42.751423 0.9738158 3
17.51659 1.7843682 1.1400763 9
17.691357 2.7754018 -0.4335705 4.5
17.651678 -4.4350362 -0.20215775 6
17.666311 2.7805667 -0.24316975 6.5
17.696764 -4.567708 0.11849622 7
17.679522 -4.4637918 0.15762579 5
17.658215 26.307022 0.13093112 4
17.607718 26.873425 0.27755001 5
17.629414 29.686613 0.2089026 4
17.682722 30.099358 0.28761676 6
17.619076 33.056885 0.27255124 4
17.647882 26.304695 0.307459 6
17.684757 29.659668 0.33286658 5
17.659595 35.397907 0.53325951 5
17.689716 35.420647 0.56807363 6
17.608522 35.312252 0.70299089 7
17.667459 39.851765 1.2518606 6
17.69648 2.280314 1.582745 15
17.673685 2.2430956 1.7400619 16
17.635563 -4.5334392 1.9749413 8
17.643795 55.440937 4.0640802 9
17.722845 2.7140129 -0.26700786 4
17.760809 24.915018 0.075851381 4
17.762806 7.8692255 0.1716436 7
17.732866 27.415922 0.12166971 5.5
17.773254 30.213566 0.19850877 5
17.739393 29.046638 0.20800155 5.5
17.785467 31.910978 0.26289746 5
17.771038 10.532052 0.39581788 8
17.714201 26.213882 0.36034819 8.5
17.701099 27.362057 0.35720623 9
17.775248 29.056561 0.34895462 8
17.718195 30.182409 0.31113145 6
17.791941 32.399433 0.34607211 4
17.733376 30.190931 0.41229793 7.5
17.791817 30.207438 0.46811482 7
17.739363 31.660957 0.45501733 5
17.763233 31.952457 0.44468236 7.5
17.795599 34.338631 0.46541438 5
17.720463 31.762506 0.52144831 6
17.79277 34.336979 0.5505091 6
17.748436 32.425159 0.62379712 6
17.79841 35.672424 0.69237423 7
17.796814 34.344135 0.71583211 7
17.744278 35.499058 0.76047999 8.5
17.712694 36.393623 0.98355079 10
17.780561 19.721224 1.0174916 10
17.762407 2.2714999 1.5716962 18
17.850887 13.359306 -0.4901236 2
17.835604 13.282335 -0.1232948 5
17.834469 21.769007 0.042615112 4
17.860178 24.962923 0.095376246 6.3333335
17.898714 26.045691 0.057869252 4.5
17.804552 21.301912 0.11950187 5
17.883944 28.83181 0.19801947 5
17.847946 26.144156 0.2105965 6
17.856365 28.856647 0.22061776 6
17.818806 31.347908 0.28230572 4
17.836218 31.490835 0.24614197 5
17.821123 31.745737 0.27962902 5
