# .PCD v0.7 - Point Cloud Data file format
VERSION 0.7
FIELDS x y z intensity roll pitch yaw time
SIZE 4 4 4 4 4 4 4 8
TYPE F F F F F F F F
COUNT 1 1 1 1 1 1 1 1
WIDTH 46
HEIGHT 1
VIEWPOINT 0 0 0 1 0 0 0
POINTS 46
DATA ascii
0 0 0 0 1.3267949e-06 1.3267949e-06 0.00019934605 6.6886546e-310
0.49813658 -0.032573491 -0.01837758 1 0.001511842 0.019750515 -0.040516015 6.6886546e-310
1.7944556 -0.16368632 -0.041891254 2 -0.006137128 0.032332346 -0.14635937 6.6886546e-310
3.8974605 0.086682007 -0.093430303 3 0.0456312 -0.012082445 0.41701108 6.6886546e-310
6.9818659 0.80713868 -0.17691518 4 0.01007466 0.034567166 0.28437802 6.6886546e-310
10.151551 2.0285611 -0.25009885 5 0.018764121 0.041582137 0.34448794 6.6886546e-310
12.442231 2.9309533 -0.37514079 6 0.031088702 0.0088502979 0.50635475 6.6886546e-310
13.299174 3.522769 -0.3971543 7 0.022341793 -0.0013716465 0.65029889 6.6886546e-310
14.281014 4.5031543 -0.39453387 8 0.031038124 -0.015439297 0.63890773 6.6886546e-310
16.593414 5.5750823 -0.48161808 9 0.018773673 0.038332824 0.32565248 6.6886546e-310
18.131279 7.3308673 -0.46715176 10 0.0098048747 -0.068897165 1.4130688 6.6886546e-310
18.674088 10.287858 -0.40627772 11 0.011286827 -0.046591382 1.291618 6.6886546e-310
19.063202 12.038055 -0.37021884 12 0.0039308346 -0.04789073 1.4649247 6.6886546e-310
19.177696 14.619293 -0.31713659 13 -0.001510969 -0.056153581 1.6134555 6.6886546e-310
19.109749 17.365061 -0.24485806 14 0.00060953118 -0.032157362 1.5352668 6.6886546e-310
19.143301 19.448048 -0.15016691 15 -0.0017605317 -0.047539964 1.6353034 6.6886546e-310
19.190205 22.302128 -0.093271926 16 0.0035572893 -0.03597939 1.4431987 6.6886546e-310
18.933674 24.916475 -0.04181112 17 -0.0011029529 -0.05253676 1.6196357 6.6886546e-310
19.435413 27.388836 -0.022613626 18 0.0075097336 -0.023988688 1.2630128 6.6886546e-310
19.487427 29.085516 0.030708317 19 0.0027423813 -0.055767883 1.5025284 6.6886546e-310
19.445814 32.448437 0.14030211 20 -0.00089343707 -0.076566078 1.5947082 6.6886546e-310
19.691643 34.781254 0.29222921 21 0.0052294848 -0.079526275 1.4516596 6.6886546e-310
19.772787 36.406448 0.34925243 22 0.0022590165 -0.060615338 1.4912299 6.6886546e-310
20.064337 38.436848 0.36954033 23 0.0062227878 -0.045087647 1.3892711 6.6886546e-310
21.695066 41.592384 0.32401913 24 -0.00065593194 0.07492318 -0.48239166 6.6886546e-310
23.249107 39.956726 0.295762 25 0.023542609 0.064428851 -0.38741186 6.6886546e-310
24.854418 38.715225 0.14144911 26 -0.027663667 0.061301116 -0.85601336 6.6886546e-310
23.715229 36.94928 0.16712184 27 0.057557195 -0.13471527 -2.5085714 6.6886546e-310
24.373074 37.240524 0.11320962 28 0.054097716 -0.046138909 -2.6325128 6.6886546e-310
24.932888 37.77956 0.14595097 29 0.01694598 -0.034780793 -1.8558437 6.6886546e-310
25.097187 33.265018 -0.081554055 30 -0.0051751388 0.0027279411 -1.4325931 6.6886546e-310
24.690998 24.791634 -0.43416032 31 0.0066371965 -0.0076166261 -1.730926 6.6886546e-310
24.527328 20.456367 -0.49246326 32 0.0019742302 0.018543584 -1.6244268 6.6886546e-310
24.463493 16.264626 -0.60252905 33 0.00183329 -0.0054348051 -1.607483 6.6886546e-310
24.173943 12.065655 -0.67561883 34 0.0053832992 -0.021818548 -1.689979 6.6886546e-310
24.021894 10.228676 -0.70493877 35 0.0087482389 -0.029472658 -1.7287199 6.6886546e-310
23.248892 7.3228054 -0.78033054 36 0.020032281 -0.046197321 -1.8905129 6.6886546e-310
21.596146 5.2172499 -0.76669252 37 0.041326944 -0.043679256 -2.4629245 6.6886546e-310
19.744555 3.2036254 -0.66578704 38 0.051022846 -0.052611299 -2.3333328 6.6886546e-310
15.84345 0.4031747 -0.61105549 39 0.067838959 -0.054992281 -2.6261637 6.6886546e-310
12.21133 -2.0838208 -0.50218147 40 0.036482997 -0.033640865 -2.4039557 6.6886546e-310
9.5463552 -3.2850301 -0.38345528 41 0.038126566 -0.050208464 -2.8851354 6.6886546e-310
7.1093764 -4.2944221 -0.31112003 42 0.030288586 -0.031947445 -2.8025103 6.6886546e-310
4.487052 -5.0088682 -0.19645756 43 0.028303523 -0.043401673 -2.9316266 6.6886546e-310
0.54817551 -6.0358992 -0.086440712 44 0.022015115 -0.029059501 -2.9794371 6.6886546e-310
-0.73273075 -6.2060652 -0.003879616 45 0.021537125 -0.019316539 -3.0442066 6.6886546e-310
