# .PCD v0.7 - Point Cloud Data file format
VERSION 0.7
FIELDS x y z intensity
SIZE 4 4 4 4
TYPE F F F F
COUNT 1 1 1 1
WIDTH 88
HEIGHT 1
VIEWPOINT 0 0 0 1 0 0 0
POINTS 88
DATA ascii
-18.635412 -22.075684 14.060781 17
-18.482775 -22.231415 10.523801 14
-17.823891 -23.08106 15.08794 18
-14.823694 -3.2689216 3.0659783 9
-12.518425 -1.7611755 1.0630401 6
-7.8869629 8.4490757 1.7500055 8
-6.9230947 -3.5055637 1.1043481 8
-6.8877177 -3.7577384 1.5574193 9
-6.9378004 -3.4930127 1.6323472 10
-6.7133756 -3.9006307 2.7124281 13
-6.4876661 -5.1487684 2.7067778 13
-6.3163671 -5.20508 3.1607597 14
-5.9740124 -8.7735643 1.945837 9
-5.9282703 -8.4741611 2.2097311 10
-5.633553 3.9662247 0.13724659 4
-5.6354084 4.0825505 0.31122932 5
-5.442678 -2.8783867 0.11783736 4
-5.3728266 -2.6978879 -0.098233595 3
-5.3973665 -2.6726789 0.29776394 5
-5.2487187 -3.2071776 0.47589895 6
-5.1483569 -4.9489498 0.065432578 3
-4.8555722 8.576663 4.4906039 16
-4.4765053 0.44881749 -0.0023169292 3
-4.5768957 -17.007589 3.0741379 8
-4.5483418 -17.002224 4.3201299 10
-4.3115258 0.40838066 0.31865686 5.5
-4.2955413 0.48863822 0.4936344 7
-4.2741022 0.66688222 0.66558838 8
-4.2267151 0.60619777 0.82359201 9
-3.5351503 1.458868 0.26327047 5
-3.436929 1.4789125 0.56224734 8
-3.4822454 1.5559034 1.0602424 12
-3.5083125 1.3700024 1.2152815 13
-3.4599478 1.6279898 1.2162253 13
-3.3901179 1.3137444 0.31726861 6
-0.24566816 2.4405529 0.57875812 10
-0.056326069 2.5764897 0.19775002 6
-0.084283382 2.5820971 0.37574926 8
-0.10797627 2.5807548 0.5307492 9
-0.0354512 8.9461927 4.040307 16
0.0063915304 8.9488659 3.2643073 14
0.059115466 -29.531925 14.951873 17
0.39090443 -2.1999102 0.10526194 5
0.33119181 -2.2335424 0.3172923 7
0.38116565 -2.1555037 0.35325092 8
0.36403576 -2.1495194 0.47675461 9.5
0.45913672 -2.0405538 0.20418754 6
0.68487865 3.1935799 0.32872614 6
0.71928102 -29.836344 9.2027922 12
0.91097671 -1.8831251 0.32097238 7.5
0.83749312 -1.9123534 0.42501009 9
1.0770848 -1.8543057 -0.071101524 2
1.0432656 -1.8658936 0.11391575 4.6666665
1.0351963 3.0066252 0.18275847 5
1.10549 2.9379694 0.32026845 6.5
1.0058672 -1.8555238 0.51092654 10
1.0922678 9.5603151 2.1482694 10
1.1716558 9.5833893 2.9172688 12
1.3659256 -2.0624146 0.049111877 4
1.3035061 -1.8483309 0.33780694 7
1.3845041 -1.7969294 0.55575508 10
1.2021134 9.5927486 2.3822682 11
1.4594407 -2.0579503 0.21112347 6
1.6317993 -2.0677974 0.14814241 5
1.8511343 -2.0493584 0.30316693 6.5
1.8304834 -2.0353935 0.43916565 8
1.8725698 -2.0360262 0.65916985 10
2.3866055 -2.0146306 0.70421851 10
2.4208064 -2.0119917 0.30122149 6
2.436022 -2.005084 0.4052231 7
3.0450175 3.3500607 0.47686496 6
3.6594374 7.962894 9.5124779 28
4.0400953 -1.9379781 0.20934147 5
5.0194716 -25.717293 9.4152842 14
5.4927392 -25.613914 10.451108 15
5.7009692 3.1185334 0.54108316 6
5.6613989 3.3335495 0.82605809 7
7.3127675 8.2750587 4.2766767 14
8.6493464 -24.982531 14.77892 19
10.154507 9.9606457 3.4157054 10
10.362053 3.997613 0.46930674 5
10.34456 3.8664002 0.94931781 6
10.262128 9.9315634 3.9957161 11
13.547483 8.732317 6.1210566 14
15.564518 -26.902033 17.903187 19
39.056438 -24.405975 17.54846 14
46.920376 -22.15527 11.612129 10
46.838924 -21.925682 16.417124 12
