# .PCD v0.7 - Point Cloud Data file format
VERSION 0.7
FIELDS x y z intensity
SIZE 4 4 4 4
TYPE F F F F
COUNT 1 1 1 1
WIDTH 132
HEIGHT 1
VIEWPOINT 0 0 0 1 0 0 0
POINTS 132
DATA ascii
-28.280539 -15.046383 13.039814 15
-28.17263 -15.05335 9.9518127 12
-27.610924 -16.068716 14.68906 16
-27.066414 -16.743626 9.0892191 12
-26.793854 -17.348654 13.623373 15
-26.080873 -18.467577 14.509648 16
-25.907528 -18.654236 8.0456934 11
-25.532942 -19.219446 15.717834 17
-24.630989 -20.574108 9.3181725 12
-24.525387 -20.919622 14.434264 16
-24.240627 -21.18981 10.284329 13
-24.196501 -21.345369 13.284368 15
-14.052313 8.6756601 4.0608439 10
-11.145713 -3.4437759 3.3142064 12
-8.9802685 6.8577285 9.9649124 25
-8.4326086 6.6959634 11.095923 27
-7.4051251 7.0011754 4.3649721 15
-7.4687953 6.9886937 4.4609694 16
-7.024065 6.9981961 5.0139937 17
-6.0821805 6.9677854 8.5190554 26
-5.7620983 -30.35202 18.823801 20
-4.7236562 7.0392356 6.9031901 24
-4.5686836 0.84207034 0.06306573 4
-4.4664655 0.84020644 0.52056181 6.5
-4.3129268 0.6531893 0.27907521 5
-4.3913717 0.72750628 0.64907044 8
-4.2184258 1.4957331 1.2090021 11
-4.0950503 1.4804282 0.2080003 5
-4.1193452 1.4259835 0.49700388 6.5
-4.0661125 2.1337457 0.48797679 6
-4.1320977 1.490339 0.68300062 8
-4.1854644 1.4806679 0.82600206 9
-4.1852336 1.7352958 1.1009895 10
-3.8035939 2.640085 0.22397991 5
-3.982759 7.1523414 4.9272995 20
-3.7866204 2.6290498 0.49698019 6
-3.7023342 2.5341606 0.62698072 7
-3.5003998 8.6745062 4.2295537 16
-3.5437224 8.5559063 4.6435313 17
-3.4985814 -26.768238 10.664689 15
-3.2166247 -2.475714 0.070608139 4
-3.3421886 -2.4803123 0.47261557 7
-3.3978467 9.1706438 3.0026355 12
-3.3731396 -26.710678 8.6056595 13
-3.1946902 -2.4727201 0.20460629 5
-3.0311518 9.2069674 2.2657123 10
-2.9298565 -2.4320703 -0.1844172 2
-2.5457034 -2.4921756 -0.07542298 3
-2.4863381 -2.4343643 0.40655947 7
-2.5801549 9.1886244 3.8528044 15
-2.3999524 9.2177105 2.4428475 11
-2.2507212 9.2245169 2.9208827 12
-2.2043018 9.0769281 4.6528721 17
-1.9513861 9.2279434 4.1109524 16
-1.6320809 -2.4663775 0.13451274 4.5
-1.7579147 7.2097988 7.1977186 27
-1.4135734 3.1873424 0.032252319 4
-1.4224963 -2.444973 0.34249115 7
-1.5904673 2.7349756 0.36416462 7
-1.4677311 -26.795364 16.301456 20
-1.3945937 -2.4523664 0.26249054 6
-1.2863979 -2.4392281 0.42247802 8
-1.3892586 3.6766067 0.41582173 6.5
-1.365163 9.2397661 2.8800998 12
-1.0777012 -2.4444366 0.47845966 9
-0.95307398 -2.4862826 -0.019543309 3
-0.98493499 7.278008 4.2669215 19
-0.94739884 7.2749104 4.6079316 20
-0.78070593 -2.4516213 0.51942861 10
-0.64700854 -2.4922645 0.64042151 11
-0.77015334 7.2482762 7.0539756 27
-0.40051273 2.6567187 0.018420329 3
-0.55363846 7.2368207 6.9360337 26
-0.25896394 -2.448807 -0.014646841 3
-0.39876491 2.6376588 0.027418036 4
-0.16914567 -2.4275367 -0.084667638 2
-0.18863125 -2.437248 0.50933826 9.5
0.154433 -2.4396825 -0.10372853 2
0.061888717 -2.4660363 0.29629755 7
0.047202501 2.1732442 0.24349554 6.5
0.046068616 -2.4669156 0.42130101 9
0.36726585 -2.455241 0.43822685 9
0.20697749 7.2921481 7.0932689 27
0.56425625 -2.4773486 0.14418308 5
0.54883212 -2.4806287 0.28685468 7
0.44297567 2.183872 0.24614932 6.5
0.41486001 2.2143908 0.33464172 8
0.51555747 -26.840063 30.063198 29
0.72451007 7.3937159 4.2284508 19
0.91811734 7.3424497 4.4605093 20
0.86907119 -26.670132 14.237104 18
1.0366067 9.334549 3.0158229 13
1.0748626 9.3181171 3.7998333 15
1.6339017 9.335186 2.8390253 12
1.8624362 -2.5295792 0.18177921 5
1.9676453 -2.3067021 0.34265897 7
1.9485033 8.8213282 3.4720674 14
2.0678794 -2.2691455 0.25860521 6
2.1897414 -2.2477274 0.570548 9
2.3131166 -2.2481782 0.16849786 5
2.5935981 -2.2903137 0.069398686 4
2.6683414 -2.2349472 -0.040655464 3
2.8059464 -26.491772 8.7837524 13
3.1092961 -2.1810632 0.27563262 5.5
3.0180852 -2.194931 0.40717813 7
3.048491 -26.557816 8.3967276 12
3.1619518 -26.534723 15.118702 19
3.2725487 -26.492876 13.187673 17
3.4279768 -26.439373 10.068633 14
4.523541 3.2597151 0.56772935 7
4.7345638 3.0411277 0.49247593 6
4.8452821 2.8881807 0.60679978 8
5.8929029 -29.780012 33.930004 29
6.7775497 -29.587152 11.947783 15
6.8645101 -29.577772 13.146761 16
7.9257841 -29.24139 15.894452 18
8.01297 -29.498486 15.467498 17
8.2074776 -29.069733 22.018347 22
8.9346361 1.3530967 0.17723674 3
8.8417301 -29.105558 34.432217 29
9.4014654 2.7248569 0.47241923 4
9.4768715 6.6460643 6.5086179 21
9.9067249 6.4616847 8.9666376 25
10.000791 6.4456496 8.4711084 24
10.137673 -28.842705 22.092844 22
11.837268 5.8721395 10.745028 26
13.352014 5.1290517 11.322835 25
16.964943 -29.033525 24.892054 22
18.83367 -26.948462 19.552855 19
19.439537 -25.274218 11.28613 13
21.15683 -25.324936 13.27056 15
34.94828 -25.818615 24.492508 19
