# .PCD v0.7 - Point Cloud Data file format
VERSION 0.7
FIELDS x y z intensity
SIZE 4 4 4 4
TYPE F F F F
COUNT 1 1 1 1
WIDTH 1365
HEIGHT 1
VIEWPOINT 0 0 0 1 0 0 0
POINTS 1365
DATA ascii
-2.1250029 -4.9671412 -0.26869833 0
-2.0761054 -4.8610544 -0.26735699 0
0.27700001 -4.8309999 -0.259 0
-2.0382047 -4.7788258 -0.26631734 0
0.27330887 -4.7510557 -0.25782964 0
-2.0003042 -4.6965976 -0.26527765 0
-1.9624035 -4.6143694 -0.264238 0
0.26916346 -4.6612716 -0.25651523 0
0.35225964 -4.6714959 -0.25576866 0
0.48308131 -4.6563206 -0.25654089 0
-1.924503 -4.5321412 -0.26319832 0
0.26501802 -4.5714874 -0.25520083 0
0.34812823 -4.5626593 -0.25447759 0
0.47184634 -4.5343771 -0.25477359 0
-1.8866024 -4.449913 -0.26215866 0
0.2608726 -4.4817038 -0.25388643 0
0.3447372 -4.4733272 -0.25341788 0
0.46353009 -4.4441133 -0.25346541 0
-1.8487018 -4.3676848 -0.26111898 0
0.25465444 -4.3470278 -0.25191483 0
0.34134617 -4.3839946 -0.2523582 0
0.45521384 -4.3538489 -0.25215724 0
1.2766795 -4.3283324 -0.2485518 0
-1.8108013 -4.2854562 -0.26007932 0
-1.7729006 -4.203228 -0.25903964 0
0.2484363 -4.2123518 -0.24994323 0
0.33625963 -4.2499962 -0.25076866 0
0.44689757 -4.2635851 -0.25084907 0
0.7514388 -4.2539229 -0.2478599 0
1.2485192 -4.2257485 -0.24682771 0
-1.735 -4.1209998 -0.25799999 0
0.24429086 -4.1225681 -0.24862881 0
0.33117309 -4.1159973 -0.2491791 0
0.43858132 -4.1733208 -0.24954088 0
0.73458982 -4.155961 -0.2463478 0
1.2276795 -4.1498322 -0.24555181 0
1.4412961 -4.1644106 -0.24477951 0
0.24014543 -4.032784 -0.24731441 0
0.32778206 -4.0266647 -0.2481194 0
0.43026504 -4.0830564 -0.24823271 0
0.71930206 -4.0670767 -0.24497582 0
1.2068397 -4.073916 -0.2442759 0
1.4541472 -4.0450821 -0.24239975 0
1.513 -4.0650001 -0.242 0
-2.2821512 -3.9684803 -0.25359884 0
0.236 -3.9430001 -0.24600001 0
0.32439104 -3.9373324 -0.2470597 0
0.41779065 -3.9476604 -0.24627045 0
0.7040143 -3.9781921 -0.24360384 0
1.186 -3.9979999 -0.243 0
1.3817941 -3.9798613 -0.24199034 0
1.473326 -3.9517426 -0.24064362 0
-2.2040691 -3.8409462 -0.25173974 0
0.32100001 -3.848 -0.24600001 0
0.40531626 -3.812264 -0.24430817 0
0.68108267 -3.8448653 -0.24154587 0
1.3406954 -3.8523908 -0.24006385 0
1.4346631 -3.8413713 -0.23932183 0
1.6403642 -3.849977 -0.2375643 0
-2.1576307 -3.7650969 -0.25063407 0
0.39700001 -3.7219999 -0.243 0
0.65815103 -3.7115383 -0.23948792 0
1.2995967 -3.7249207 -0.23813733 0
1.396 -3.7309999 -0.23800001 0
1.5977964 -3.7454658 -0.23609643 0
-2.1111922 -3.6892474 -0.24952839 0
-2.0647538 -3.6133978 -0.24842271 0
0.64286327 -3.6226537 -0.23811594 0
1.2721975 -3.6399405 -0.236853 0
1.5678643 -3.671977 -0.23506428 0
1.7539999 -3.6400001 -0.23 0
-2.0183153 -3.5375483 -0.24731703 0
0.62757552 -3.5337691 -0.23674396 0
1.2447983 -3.5549603 -0.23556867 0
1.5229661 -3.5617442 -0.23351607 0
1.6972617 -3.5162077 -0.22813739 0
1.7349575 -3.5984528 -0.22937487 0
1.802 -3.53 -0.227 0
-1.9718769 -3.461699 -0.24621136 0
0.61228776 -3.4448845 -0.23537198 0
1.2173992 -3.4699802 -0.23428433 0
1.6595659 -3.4339623 -0.22689989 0
1.7633913 -3.4500947 -0.22626692 0
2.3969853 -3.4467542 -0.20193692 0
-1.9254384 -3.3858495 -0.24510568 0
-1.8789999 -3.3099999 -0.244 0
0.597 -3.3559999 -0.234 0
1.1900001 -3.385 -0.233 0
1.6218703 -3.351717 -0.22566241 0
1.7122236 -3.3441968 -0.22529539 0
2.3478212 -3.3719618 -0.20444743 0
1.5841745 -3.2694716 -0.22442491 0
1.6610559 -3.2382994 -0.22432385 0
2.2740748 -3.2597733 -0.2082132 0
1.5276308 -3.1461039 -0.22256869 0
1.7781945 -3.1009605 -0.21177278 0
1.8233892 -3.1789212 -0.20254555 0
2.2003284 -3.1475847 -0.21197897 0
1.4710872 -3.0227358 -0.22071245 0
1.733 -3.023 -0.221 0
2.1511643 -3.0727923 -0.21448947 0
1.4333916 -2.9404905 -0.21947497 0
2.102 -2.9979999 -0.21699999 0
-1.484 -2.8069999 -0.22499999 0
1.3956958 -2.8582454 -0.21823747 0
-1.4610533 -2.7630792 -0.22385785 0
1.358 -2.776 -0.21699999 0
-1.5061433 -2.6906571 -0.22191158 0
-1.439853 -2.6457269 -0.22075646 0
-1.3772426 -2.6026635 -0.21968627 0
-1.631 -2.5190001 -0.214 0
-1.4168292 -2.5298512 -0.21765853 0
-1.3353373 -2.5224555 -0.21760049 0
-1.6141784 -2.4919629 -0.21348922 0
-1.5664605 -2.4152665 -0.21204031 0
-1.3731005 -2.4511199 -0.21557622 0
-1.293432 -2.4422476 -0.2155147 0
-1.5187427 -2.3385701 -0.21059138 0
-1.3293719 -2.3723884 -0.2134939 0
-1.2515266 -2.3620396 -0.21342891 0
-1.4710249 -2.261874 -0.20914246 0
-1.2457265 -2.2634716 -0.21069467 0
-1.167716 -2.2016237 -0.20925735 0
-2.6012714 -2.144568 -0.20327023 0
-1.4233069 -2.1851778 -0.20769353 0
-1.3755891 -2.1084814 -0.20624462 0
-1.1619983 -2.1288052 -0.20720926 0
-2.5328474 -2.0913787 -0.20918015 0
-2.4644237 -2.0381894 -0.21509008 0
-1.3278713 -2.031785 -0.20479569 0
-1.1544573 -2.0574627 -0.20516464 0
-1.0839053 -2.0412078 -0.20508578 0
-2.3959999 -1.985 -0.221 0
-1.2801535 -1.9550889 -0.20334676 0
-1.1107286 -1.9787314 -0.20308232 0
-1.0420001 -1.961 -0.20299999 0
-1.2324356 -1.8783926 -0.20189784 0
-1.1847178 -1.8016963 -0.20044893 0
-1.067 -1.9 -0.20100001 0
-1.9246193 -1.7489141 -0.20545836 0
-1.9269767 -1.6962218 -0.20480958 0
-1.8485377 -1.6679286 -0.20369317 0
-1.7712231 -1.6377997 -0.20262504 0
-1.9694771 -1.5725906 -0.20498839 0
-1.8989592 -1.5173832 -0.20342381 0
-1.7405499 -1.5598644 -0.20125091 0
-2.0111868 -1.4544609 -0.20679009 0
-1.8289642 -1.4625853 -0.20187084 0
-1.7589694 -1.4077874 -0.20031786 0
-2.0339999 -1.326 -0.205 0
-1.9306655 -1.3973747 -0.20462683 0
-1.8579572 -1.3458279 -0.20267348 0
-2.108 -1.229 -0.20200001 0
-1.9613948 -1.2797575 -0.20316327 0
-1.8864706 -1.2320378 -0.20126785 0
-1.7852491 -1.294281 -0.20072013 0
-2.0419903 -1.1917489 -0.20113146 0
-1.9647415 -1.1481552 -0.20011503 0
-4.0434279 -0.8698343 -0.23065126 0
-3.9271421 -0.85075152 -0.22647689 0
-3.848428 -0.83783436 -0.22365126 0
-3.7697141 -0.82491714 -0.22082563 0
-3.691 -0.81199998 -0.21799999 0
-2.2699013 -0.78218353 -0.20378092 0
-2.2490001 -0.65499997 -0.20100001 0
-4.0652933 -0.38186619 -0.23266636 0
-3.9472995 -0.37309545 -0.22718465 0
-3.858012 -0.36645851 -0.22303657 0
-3.7687247 -0.35982159 -0.21888849 0
-3.6794372 -0.35318464 -0.21474041 0
-3.545506 -0.34322923 -0.2085183 0
-3.4115748 -0.33327386 -0.20229617 0
-4.0430002 -0.18700001 -0.23199999 0
-3.9701231 -0.18492964 -0.22868739 0
-3.8804426 -0.1823819 -0.22461101 0
-3.7459221 -0.17856029 -0.21849644 0
-3.6114016 -0.17473868 -0.21238188 0
-3.5217214 -0.17219095 -0.20830551 0
-3.4320412 -0.16964321 -0.20422913 0
-3.3423607 -0.16709547 -0.20015275 0
-3.102 1.498 -0.207 0
-3.1825163 1.5368918 -0.20342617 0
2.1849456 -3.8026061 -0.12872779 0
2.2130001 -3.8510001 -0.123 0
2.139751 -3.7246454 -0.13795501 0
2.572 -3.7130001 -0.193 0
2.0945563 -3.6466849 -0.14718224 0
2.5444779 -3.6711316 -0.19440538 0
2.0493619 -3.5687242 -0.15640946 0
2.4707317 -3.5589428 -0.19817115 0
1.9589728 -3.4128029 -0.1748639 0
2.0041673 -3.4907637 -0.16563667 0
1.9137783 -3.3348424 -0.18409112 0
1.8685837 -3.2568817 -0.19331834 0
-2.9170001 -2.3900001 -0.176 0
-2.8407545 -2.3307307 -0.18258551 0
-2.7381189 -2.2509465 -0.19145039 0
2.1420102 -2.2278638 -0.14083795 0
2.2065058 -2.2934799 -0.13513219 0
-2.6696951 -2.1977572 -0.19736031 0
2.0790091 -2.1637678 -0.14641151 0
2.1445236 -2.1564083 -0.12067255 0
1.4697518 -2.0603137 -0.19779827 0
1.506 -2.0079999 -0.198 0
1.9530069 -2.0355759 -0.15755863 0
2.0502174 -2.0543213 -0.13740849 0
2.1709399 -2.082267 -0.12354146 0
2.2549396 -2.0615809 -0.12680182 0
2.4539258 -2.0379596 -0.1399972 0
2.5489566 -2.0166945 -0.10703267 0
2.6664505 -2.060565 -0.10207297 0
1.3661022 -1.9117764 -0.19575793 0
1.4423923 -1.9539915 -0.19670592 0
1.5175227 -1.9268476 -0.19668239 0
1.8585052 -1.9394319 -0.16591898 0
1.952698 -1.9605442 -0.14423007 0
2.0293512 -1.9439709 -0.13906448 0
2.1468973 -1.9611876 -0.13636309 0
2.3475294 -1.9379745 -0.14476229 0
2.4355726 -1.9728538 -0.11475433 0
2.5272565 -1.9503231 -0.12055796 0
4.8766489 -1.9284366 -0.10881406 0
1.3519299 -1.8438042 -0.19482607 0
1.4550364 -1.8459562 -0.19509183 0
1.564 -1.804 -0.19499999 0
1.7640035 -1.8432879 -0.17427932 0
1.8595235 -1.8654082 -0.15567255 0
1.9497789 -1.8363315 -0.15002118 0
2.0479152 -1.8692133 -0.14512253 0
2.1689506 -1.8203064 -0.17333147 0
2.2371061 -1.8391931 -0.15818718 0
2.3463302 -1.8513761 -0.13890311 0
2.4579341 -1.8954198 -0.12976396 0
4.629766 -1.8199577 -0.13787605 0
4.7532072 -1.8741972 -0.12334505 0
-1.137 -1.725 -0.199 0
1.2620622 -1.7332815 -0.1930635 0
1.3454951 -1.7466583 -0.19304413 0
1.4492049 -1.7510171 -0.1934042 0
1.5583371 -1.7416382 -0.19343632 0
1.6380012 -1.715096 -0.18542644 0
1.7238613 -1.7521042 -0.17390375 0
1.8380578 -1.7571263 -0.16003685 0
1.9159395 -1.746581 -0.15680182 0
2.0350001 -1.7180001 -0.189 0
2.1372499 -1.7603855 -0.17204192 0
2.2499671 -1.7307099 -0.15738198 0
2.3192894 -1.7856132 -0.14817598 0
4.3828831 -1.7114789 -0.16693802 0
4.4651775 -1.7476385 -0.15725069 0
4.5474715 -1.7837981 -0.14756337 0
1.239 -1.645 -0.191 0
1.3050091 -1.651739 -0.19127296 0
1.440787 -1.6588629 -0.19149216 0
1.5525422 -1.6529716 -0.19115253 0
1.6421164 -1.643424 -0.18237168 0
1.7562619 -1.6504521 -0.16984236 0
1.8499516 -1.6852648 -0.16264145 0
2.0409999 -1.641 -0.18700001 0
2.1329098 -1.6643395 -0.17244701 0
4.1360002 -1.603 -0.19599999 0
4.2182946 -1.6391597 -0.18631268 0
4.3005886 -1.6753193 -0.17662534 0
-1.638588 -1.517857 -0.19987503 0
1.255 -1.587 -0.19 0
1.3618934 -1.5659314 -0.18924609 0
1.442596 -1.558189 -0.18929762 0
1.5606936 -1.5599623 -0.18937579 0
1.6493762 -1.5357989 -0.18058479 0
1.7179757 -1.5626324 -0.17432073 0
2.0420001 -1.566 -0.185 0
-1.6572093 -1.4636787 -0.19911642 0
-1.5810189 -1.4317143 -0.19809657 0
1.2885001 -1.4445 -0.18650001 0
1.355829 -1.4506849 -0.18719402 0
1.439777 -1.4591137 -0.1870926 0
1.5776482 -1.4323083 -0.18586797 0
-1.6889745 -1.3529896 -0.19876489 0
-1.5141392 -1.3726606 -0.19669744 0
-1.4396352 -1.3379428 -0.19575001 0
1.3297886 -1.3446039 -0.18448204 0
1.4469721 -1.3119625 -0.18380193 0
1.5635725 -1.3429551 -0.18442728 0
1.9866381 -1.3156085 -0.18079531 0
2.0550001 -1.359 -0.18099999 0
3.0669127 -1.3136234 -0.17624024 0
3.1530628 -1.3522353 -0.17696679 0
-1.7125409 -1.2427342 -0.19876677 0
-1.6189796 -1.2981915 -0.19721191 0
-1.5489848 -1.2433937 -0.19565894 0
-1.4548838 -1.2892715 -0.19484657 0
-1.3559198 -1.2423691 -0.19359942 0
1.361493 -1.2332406 -0.18245047 0
1.4480087 -1.2313951 -0.18302721 0
1.5422268 -1.2415682 -0.18312088 0
1.609 -1.2344999 -0.1825 0
1.8367286 -1.2204564 -0.18034649 0
1.9116833 -1.2680326 -0.1805709 0
2.0450001 -1.2180001 -0.177 0
2.8202751 -1.2030823 -0.17416015 0
2.943594 -1.258353 -0.17520019 0
-1.8495194 -1.1444399 -0.19923551 0
-1.7366217 -1.1365983 -0.19747704 0
-1.6398327 -1.1911874 -0.19681342 0
-1.5671245 -1.1396406 -0.19486006 0
-1.4439924 -1.1611968 -0.19332947 0
-1.3200001 -1.173 -0.192 0
1.355 -1.141 -0.182 0
1.4598885 -1.1444918 -0.18206388 0
1.5542732 -1.1619018 -0.18150441 0
1.6868191 -1.1253043 -0.17989767 0
1.7617738 -1.1728804 -0.18012208 0
1.8548994 -1.1087434 -0.177 0
1.9313827 -1.1527007 -0.177 0
2.0078659 -1.1966579 -0.177 0
2.6558499 -1.1293882 -0.17277344 0
2.7380626 -1.1662352 -0.1734668 0
-1.810244 -1.060968 -0.19808216 0
-1.7329952 -1.0173744 -0.19706573 0
-1.6616974 -1.0888788 -0.19558163 0
-1.586773 -1.041159 -0.19368622 0
-1.4580622 -1.0623202 -0.19193003 0
-1.339 -1.079 -0.191 0
1.3755 -1.0504999 -0.18099999 0
1.4354244 -1.0706339 -0.18050148 0
1.5369095 -1.0301522 -0.17944883 0
1.6118643 -1.0777283 -0.17967325 0
1.7401747 -1.0428076 -0.177 0
2.0325089 -1.0242956 -0.17300548 0
2.4503188 -1.0372705 -0.17104004 0
2.5736375 -1.0925411 -0.17208007 0
2.7491899 -1.0230418 -0.16402884 0
2.8861117 -1.0767305 -0.16307579 0
-1.6557463 -0.97378081 -0.1960493 0
-1.5451732 -0.96181333 -0.19341183 0
-1.4369243 -0.94571966 -0.18989541 0
-1.349 -0.98500001 -0.189 0
1.387 -0.935 -0.17900001 0
1.4619547 -0.98257607 -0.17922442 0
1.5489665 -0.9329145 -0.177 0
1.6254498 -0.97687173 -0.177 0
1.7927612 -0.90724444 -0.17338185 0
1.8715134 -0.94569337 -0.17325822 0
1.9502656 -0.98414224 -0.17313458 0
2.04 -0.912 -0.17200001 0
2.1833894 -0.92291343 -0.17060088 0
2.2653022 -0.95661533 -0.17025815 0
2.3269999 -0.98199999 -0.17 0
2.4551117 -0.90773052 -0.1660758 0
2.539134 -0.94067663 -0.16549096 0
2.6392922 -0.94417125 -0.1644828 0
2.7347856 -0.94389969 -0.16282435 0
2.832381 -0.95469314 -0.16086309 0
-1.9664104 -0.85325408 -0.19349825 0
-1.8607036 -0.80886412 -0.19142556 0
-1.5012488 -0.88659358 -0.19401644 0
-1.424 -0.84299999 -0.193 0
-1.362 -0.898 -0.18799999 0
1.396 -0.84500003 -0.177 0
1.4724833 -0.88895726 -0.177 0
1.6352568 -0.83034664 -0.17362911 0
1.7140089 -0.86879557 -0.17350547 0
1.841229 -0.82565892 -0.17231058 0
1.9496077 -0.84986854 -0.1718758 0
2.0195639 -0.85550958 -0.17128634 0
2.1014767 -0.88921148 -0.17094362 0
2.2450557 -0.82536525 -0.1675379 0
2.3710895 -0.87478441 -0.16666064 0
2.4570355 -0.84176987 -0.16714731 0
2.5498834 -0.84323907 -0.16396378 0
2.6511197 -0.84367287 -0.16154119 0
2.7870021 -0.85262787 -0.16145518 0
2.8740001 -0.84299999 -0.162 0
-2.169852 -0.75102532 -0.19892137 0
-2.057426 -0.71601266 -0.19346067 0
-1.948 -0.73500001 -0.189 0
-1.8955714 -0.7160784 -0.18870434 0
-1.7405276 -0.75839806 -0.18906918 0
-1.6203518 -0.70793205 -0.18671279 0
1.399 -0.71499997 -0.17399999 0
1.4777523 -0.75344884 -0.17387636 0
1.5584757 -0.74779594 -0.17325102 0
1.6662916 -0.72962153 -0.17264061 0
1.7473598 -0.76389605 -0.17240657 0
1.8482494 -0.74560505 -0.17037983 0
1.9750159 -0.7482236 -0.16921563 0
2.0480287 -0.74926126 -0.16908163 0
2.1481614 -0.7600826 -0.16881472 0
2.265167 -0.74393123 -0.16695926 0
2.3432658 -0.7799862 -0.16736288 0
2.4452233 -0.7427932 -0.16391954 0
2.5376406 -0.73956549 -0.16397394 0
2.6235807 -0.76599312 -0.1634696 0
2.7095208 -0.79242069 -0.16296525 0
4.9270573 -0.71112227 -0.15700361 0
5.0165715 -0.7241528 -0.1527545 0
5.1508431 -0.74369866 -0.14638086 0
5.2851148 -0.76324451 -0.14000721 0
5.374629 -0.77627504 -0.13575812 0
5.4641433 -0.78930563 -0.13150902 0
5.5170002 -0.79699999 -0.12899999 0
-2.2269106 -0.64932179 -0.19989207 0
-2.152683 -0.63024133 -0.19616905 0
-2.0497274 -0.63658047 -0.18872303 0
-1.9531384 -0.65003628 -0.18649451 0
-1.8156428 -0.68723202 -0.18825363 0
-1.7357142 -0.65838557 -0.1878029 0
-1.6557857 -0.62953919 -0.18735218 0
-1.5580459 -0.63749039 -0.18602166 0
-1.4601172 -0.64064401 -0.18357092 0
-1.38 -0.60699999 -0.182 0
1.4401116 -0.65142357 -0.17293732 0
1.5597291 -0.61531079 -0.17048503 0
1.6409966 -0.65071273 -0.17129143 0
1.7570081 -0.63422573 -0.16959903 0
1.8501128 -0.64721507 -0.16927731 0
1.9410901 -0.66018236 -0.16858499 0
2.0329757 -0.65867215 -0.16754219 0
2.1619065 -0.64275408 -0.16601042 0
2.2798204 -0.66028273 -0.16548696 0
2.3657603 -0.68671036 -0.16498263 0
2.5261216 -0.60618991 -0.16217089 0
2.6561518 -0.63873744 -0.16121361 0
2.7861824 -0.67128491 -0.16025633 0
2.8170288 -0.6311956 -0.16000779 0
4.5689998 -0.65899998 -0.17399999 0
4.658514 -0.67203057 -0.1697509 0
4.7480283 -0.6850611 -0.1655018 0
4.837543 -0.69809169 -0.16125271 0
-2.2019999 -0.52700001 -0.197 0
-2.1315463 -0.51266634 -0.19359878 0
-2.0041137 -0.57254022 -0.1858615 0
-1.9420242 -0.55612773 -0.18376438 0
-1.8703272 -0.51621896 -0.18173893 0
-1.4559643 -0.55742317 -0.18622537 0
1.397 -0.55299997 -0.171 0
1.4735234 -0.54233658 -0.16980697 0
1.577788 -0.55567855 -0.16991429 0
1.653628 -0.55135727 -0.16877413 0
1.7250159 -0.56487978 -0.16806325 0
1.8479635 -0.55615509 -0.16732496 0
1.9676777 -0.54096371 -0.16659522 0
2.0193334 -0.56333333 -0.16666667 0
2.179374 -0.51939666 -0.16472362 0
2.2660608 -0.54109496 -0.16408543 0
2.3342493 -0.52159774 -0.16514908 0
2.4446592 -0.54642832 -0.16394025 0
2.5695434 -0.55379343 -0.16301169 0
2.6667404 -0.54101372 -0.16124746 0
2.751399 -0.5584774 -0.16059187 0
2.816 -0.537 -0.16 0
-2.0319178 -0.43494716 -0.1866525 0
-1.948591 -0.47544438 -0.18476647 0
-1.7447454 -0.48166421 -0.1805542 0
-1.6191636 -0.44710946 -0.17936946 0
-1.5354424 -0.42407298 -0.17857964 0
-1.4517212 -0.40103647 -0.17778982 0
1.386 -0.47299999 -0.169 0
1.468572 -0.42374653 -0.16786881 0
1.5650481 -0.45416436 -0.16757919 0
1.6411932 -0.45318997 -0.1672141 0
1.7357705 -0.4448716 -0.16632774 0
1.8657809 -0.45584866 -0.16599862 0
1.9712992 -0.44572377 -0.16574323 0
2.0435953 -0.47377425 -0.16575821 0
2.1560414 -0.43547875 -0.16407633 0
2.2433341 -0.4535934 -0.1639747 0
2.3312116 -0.44131809 -0.16173968 0
2.4582765 -0.43613386 -0.16091773 0
2.5622997 -0.46600237 -0.16062777 0
2.6733847 -0.44382679 -0.15954781 0
2.7731538 -0.46096507 -0.15905814 0
-3.3222876 -0.32663691 -0.19814809 0
-3.233 -0.31999999 -0.19400001 0
-2.217 -0.36300001 -0.2 0
-2.1535959 -0.3558467 -0.19772395 0
-2.0600095 -0.32857621 -0.19155473 0
-1.985 -0.38499999 -0.19 0
-1.368 -0.37799999 -0.177 0
1.377 -0.36199999 -0.1665 0
1.4533837 -0.34413552 -0.16513248 0
1.5433837 -0.34813553 -0.16513248 0
1.624422 -0.34592989 -0.16469945 0
1.7358538 -0.3410832 -0.16399701 0
1.8446954 -0.34799799 -0.16392559 0
1.9650059 -0.34575629 -0.16302 0
2.0628629 -0.36371642 -0.1626267 0
2.1458461 -0.35320669 -0.16213696 0
2.2267809 -0.34030056 -0.16120371 0
2.3420231 -0.34876218 -0.16045997 0
2.4471002 -0.37454945 -0.16012318 0
2.5728493 -0.36334583 -0.15897134 0
2.659188 -0.33213261 -0.1549613 0
2.7601886 -0.39043659 -0.15805301 0
-2.2090001 -0.25299999 -0.2 0
-2.1528628 -0.24968004 -0.1978873 0
-2.0479772 -0.26028001 -0.19414788 0
1.3609999 -0.25400001 -0.164 0
1.4457773 -0.27016112 -0.16386305 0
1.5317774 -0.26916111 -0.16386305 0
1.6537781 -0.27162296 -0.16372362 0
1.7661188 -0.24755594 -0.16244063 0
1.8382423 -0.21348795 -0.16124533 0
1.9399507 -0.23727748 -0.16126417 0
2.0368476 -0.26152486 -0.16080526 0
2.1461902 -0.24932246 -0.15909447 0
2.2581971 -0.2446087 -0.15712844 0
2.3720613 -0.247605 -0.15565991 0
2.4594736 -0.256726 -0.15469189 0
2.546886 -0.265847 -0.15372387 0
2.6335728 -0.24232386 -0.15208322 0
-3.2526803 -0.16454774 -0.19607638 0
-3.1630001 -0.162 -0.192 0
1.5627298 -0.15518634 -0.16147609 0
1.6666896 -0.15305904 -0.16092831 0
1.7368871 -0.11781116 -0.1598509 0
1.8578305 -0.12671673 -0.15927634 0
1.9196666 -0.14666666 -0.15933333 0
2.0362165 -0.15513831 -0.15801634 0
2.1400213 -0.17118545 -0.15703493 0
2.2656746 -0.15427862 -0.15503767 0
2.3530934 -0.16009828 -0.1540471 0
2.4405119 -0.16591793 -0.15305652 0
2.5279305 -0.1717376 -0.15206593 0
2.6186748 -0.17777863 -0.15103768 0
1.4860001 -0.063500002 -0.16049999 0
1.5567206 -0.029630376 -0.15939298 0
1.6364412 -0.032260753 -0.15878598 0
1.7560222 -0.036206316 -0.15787548 0
1.8710001 -0.039999999 -0.15700001 0
1.465 0.043000001 -0.16 0
1.5442908 0.043621078 -0.15917189 0
1.6235814 0.044242151 -0.15834379 0
1.7425175 0.045173764 -0.15710165 0
1.848 0.046 -0.156 0
-2.4623671 0.39300245 -0.192 0
-2.3728936 0.37740195 -0.192 0
-2.2834203 0.36180148 -0.192 0
-2.1492102 0.33840072 -0.192 0
-2.0150001 0.315 -0.192 0
-2.9498668 0.47800246 -0.192 0
-2.8202605 0.4554044 -0.192 0
-2.7307873 0.43980393 -0.192 0
-2.6413138 0.42420343 -0.192 0
-2.5518403 0.40860295 -0.192 0
-1.747 0.49000001 -0.17200001 0
2.03 0.433 -0.153 0
2.1171405 0.44906121 -0.15265827 0
2.2478516 0.47315302 -0.15214568 0
2.3785625 0.49724483 -0.15163308 0
2.4920001 0.43599999 -0.148 0
2.5685954 0.45337877 -0.14864366 0
2.6451907 0.47075754 -0.14928731 0
2.721786 0.48813632 -0.14993097 0
-4.4369998 0.59299999 -0.112 0
-4.3430505 0.59142107 -0.10647357 0
-2.0512266 0.58055139 -0.1746058 0
-1.9208438 0.5417437 -0.17348903 0
-1.8339219 0.51587182 -0.17274451 0
-1.7565365 0.58391732 -0.17219692 0
2.4663515 0.53515303 -0.14964569 0
2.546869 0.55286312 -0.14982894 0
2.6273866 0.57057315 -0.15001221 0
2.7735021 0.5470016 -0.15028027 0
2.849 0.51700002 -0.15099999 0
-2.4423752 0.69697464 -0.17795612 0
-2.3554535 0.67110282 -0.1772116 0
-2.2685316 0.64523101 -0.17646709 0
-2.1816096 0.6193592 -0.17572257 0
-2.054292 0.68833846 -0.17357543 0
-1.969219 0.65850389 -0.17318158 0
-1.884146 0.62866926 -0.17278771 0
-1.793 0.69700003 -0.184 0
-1.6440001 0.67900002 -0.17 0
2.4419999 0.64450002 -0.148 0
2.5386653 0.66160661 -0.1487961 0
2.6755772 0.64514333 -0.14984432 0
2.7548592 0.65514523 -0.150611 0
-2.6486096 0.75835919 -0.17972258 0
-2.5292971 0.72284651 -0.17870063 0
-2.3095107 0.77784228 -0.17475699 0
-2.2244377 0.74800766 -0.17436314 0
-2.139365 0.71817309 -0.17396928 0
-2.0384874 0.79519498 -0.18044221 0
-1.9566584 0.76246333 -0.18162814 0
-1.8580866 0.75537378 -0.17478693 0
-1.7336431 0.745839 -0.17615467 0
-1.6734101 0.7873674 -0.16920941 0
-1.5930001 0.74800003 -0.169 0
2.3989999 0.79000002 -0.147 0
2.4475935 0.74150717 -0.14744397 0
2.5612116 0.74412447 -0.14921233 0
2.649045 0.75962448 -0.150379 0
-2.5713649 0.86967307 -0.17596927 0
-2.4796567 0.83751154 -0.17554471 0
-2.3945837 0.80767691 -0.17515086 0
-2.2430606 0.87702417 -0.17747739 0
-2.1290169 0.86049724 -0.17555618 0
-2.0554307 0.85738975 -0.17154673 0
-1.9519066 0.85199016 -0.17638935 0
-1.8276726 0.83957696 -0.17520717 0
-1.73141 0.84486741 -0.17620939 0
-1.6393242 0.86822063 -0.16931625 0
-1.5485001 0.84200001 -0.169 0
1.1259999 0.85299999 -0.154 0
1.2266982 0.85464019 -0.15356709 0
1.466 0.88499999 -0.153 0
1.5500007 0.83635843 -0.15264194 0
1.6700027 0.89743358 -0.15156774 0
1.8447628 0.88017726 -0.14969599 0
2.3870001 0.85100001 -0.147 0
2.4558306 0.8406558 -0.14802024 0
2.5572157 0.85688913 -0.14949602 0
2.641 0.80199999 -0.15000001 0
-2.4653168 0.96592665 -0.17425627 0
-2.3340466 0.94527256 -0.17408663 0
-2.2208467 0.9610281 -0.17344111 0
-2.1415751 0.95725882 -0.17593068 0
-2.06846 0.95270574 -0.17370048 0
-1.9508702 0.94398719 -0.17278814 0
-1.8696218 0.96999288 -0.17512576 0
-1.7671076 0.94062376 -0.17267764 0
-1.6519179 0.92642009 -0.16931802 0
-1.5441314 0.97846627 -0.16788107 0
-1.4626666 0.96033335 -0.168 0
1.0497501 0.95924997 -0.1525 0
1.1505983 0.95566642 -0.15310282 0
1.2551241 0.95342141 -0.15314879 0
1.3660947 0.95392048 -0.15270127 0
1.544075 0.92989808 -0.15230468 0
1.6221499 0.97479618 -0.15160935 0
1.7500041 0.93815041 -0.15085162 0
1.8300054 0.97886717 -0.1501355 0
1.9610515 0.93170911 -0.14878391 0
2.0385773 0.96606362 -0.14817587 0
2.3710001 0.912 -0.147 0
2.4570832 0.93890095 -0.14939119 0
2.5365 0.93150002 -0.1505 0
-2.4215 1.0495 -0.1725 0
-2.3561003 1.0316259 -0.17285872 0
-2.2362804 1.0629393 -0.17067522 0
-2.1558704 1.0235718 -0.17046581 0
-2.050235 1.0554296 -0.17444563 0
-1.9375072 1.0624183 -0.17032066 0
-1.8451147 1.0387869 -0.16984805 0
-1.5445871 1.0578967 -0.16969477 0
-1.4531412 1.0405897 -0.16785334 0
-1.36 1.09 -0.167 0
0.97500002 1.0549999 -0.152 0
1.0578624 1.052474 -0.15338218 0
1.1757532 1.0517199 -0.15301256 0
1.2734132 1.0378971 -0.1540031 0
1.3320163 1.0499059 -0.15274258 0
1.4357929 1.0035607 -0.15226837 0
1.5054911 1.0532008 -0.15183546 0
1.6950001 1.072 -0.15099999 0
1.7392626 1.0421433 -0.15056637 0
1.9500074 1.0399425 -0.14906131 0
2.154866 1.0175955 -0.1472638 0
2.2711546 1.0691273 -0.14635172 0
2.346 1.0935 -0.1485 0
-2.3358967 1.1347688 -0.17096154 0
-2.254813 1.1398617 -0.1724529 0
-2.1579008 1.1328732 -0.17223446 0
-2.0769508 1.1736269 -0.1704841 0
-1.9996721 1.1286802 -0.17027208 0
-1.74436 1.1622704 -0.17854552 0
-1.6449049 1.1564326 -0.17913155 0
-1.5315 1.128 -0.1735 0
-1.4348613 1.1701891 -0.167 0
-1.3316376 1.1578532 -0.16688228 0
-1.2819999 1.187 -0.167 0
0.89099997 1.1720001 -0.152 0
0.95482647 1.1380917 -0.15307307 0
1.0405511 1.1444377 -0.15273307 0
1.1391563 1.149112 -0.1533314 0
1.2256193 1.1519259 -0.15294771 0
1.3257128 1.1304234 -0.15254568 0
1.4485599 1.1406072 -0.15161978 0
1.5751894 1.1028409 -0.15140255 0
1.64 1.149 -0.15099999 0
1.7402127 1.1572535 -0.1502542 0
1.8492303 1.1354558 -0.14942597 0
1.9344499 1.1543885 -0.14882804 0
2.0412674 1.1501521 -0.14805993 0
2.1500108 1.1417344 -0.14727101 0
2.2300122 1.1824512 -0.14655487 0
2.4582307 1.1347457 -0.15050343 0
2.5404613 1.1714913 -0.15000688 0
-2.3039999 1.235 -0.17200001 0
-2.254142 1.253502 -0.17125146 0
-2.1542294 1.2185737 -0.17069611 0
-1.8533801 1.2322233 -0.17670465 0
-1.7583897 1.29769 -0.17547107 0
-1.6882598 1.24746 -0.17698072 0
-1.5354619 1.2929289 -0.167 0
-1.452654 1.2588096 -0.1665 0
-1.3514624 1.2534972 -0.16618516 0
-1.2355001 1.227 -0.16599999 0
-1.1735001 1.281 -0.1655 0
-0.67250001 1.2635 -0.15899999 0
0.86447299 1.2564014 -0.15333036 0
0.9500894 1.2490253 -0.15306631 0
1.0494415 1.2503657 -0.1528907 0
1.1497715 1.2454841 -0.15298574 0
1.3698411 1.222808 -0.15099999 0
1.4658537 1.2477027 -0.15072775 0
1.5545326 1.2420973 -0.15027104 0
1.6381305 1.2670557 -0.15008411 0
1.7837652 1.2465925 -0.14968827 0
1.8556478 1.2953887 -0.1490324 0
1.9524 1.2284875 -0.148075 0
2.0766571 1.2698691 -0.14712942 0
2.1686749 1.2890828 -0.14674208 0
2.2707226 1.2296587 -0.14830683 0
2.3653364 1.2899524 -0.14784098 0
2.6226921 1.2082369 -0.14951031 0
2.7460384 1.2633553 -0.14876546 0
-2.1077602 1.3954465 -0.17240931 0
-2.0350802 1.3488113 -0.17363656 0
-1.9624001 1.3021761 -0.17486379 0
-1.8635845 1.3730352 -0.1732066 0
-1.6016159 1.3492385 -0.167 0
-1.4369341 1.3517102 -0.16563483 0
-1.3391194 1.3612709 -0.16505568 0
-1.242623 1.326666 -0.16519804 0
-1.1560848 1.3552384 -0.16465387 0
-1.0815001 1.3635 -0.16500001 0
-0.75658774 1.3484955 -0.15729329 0
-0.68582004 1.3695902 -0.15773034 0
-0.56900001 1.37 -0.15899999 0
0.58499998 1.347 -0.153 0
0.65817297 1.3331825 -0.15386477 0
0.76817638 1.357469 -0.15223831 0
0.84600663 1.3637404 -0.15392888 0
0.95206821 1.3672407 -0.15308538 0
1.0502255 1.3271635 -0.15299244 0
1.1938659 1.3512468 -0.15148753 0
1.495 1.335 -0.15099999 0
1.560747 1.3933883 -0.1500349 0
1.6515937 1.3392231 -0.14888889 0
1.7469294 1.3492017 -0.14899066 0
1.9634717 1.368583 -0.14804861 0
2.1362569 1.3402642 -0.14598571 0
2.2328873 1.362239 -0.14554919 0
2.4355049 1.3249285 -0.14676146 0
2.5278366 1.3709524 -0.14534098 0
2.8693843 1.3184737 -0.14802063 0
2.9516151 1.3552194 -0.14752406 0
3.0338459 1.3919649 -0.14702749 0
-2.132 1.411 -0.17200001 0
-2.0389094 1.4986103 -0.16943248 0
-1.9687794 1.4483802 -0.17094213 0
-1.7339239 1.4618578 -0.167 0
-1.6677699 1.4055482 -0.167 0
-1.5635159 1.44803 -0.16501749 0
-1.4761277 1.4659111 -0.16447082 0
-1.3452576 1.4622804 -0.16416083 0
-1.2429603 1.4476749 -0.16384143 0
-1.1329243 1.4268796 -0.16408139 0
-1.0552822 1.4558531 -0.16381794 0
-0.96200007 1.4426666 -0.163 0
-0.85105848 1.4769969 -0.15886219 0
-0.7226401 1.4471803 -0.15646069 0
-0.63230193 1.4247059 -0.15772995 0
-0.57441628 1.4800464 -0.157699 0
-0.4515 1.467 -0.1575 0
0.4425 1.4765 -0.15349999 0
0.63119316 1.4428725 -0.15256421 0
0.72686499 1.4619124 -0.15332389 0
0.83956778 1.4637952 -0.15291169 0
0.93533331 1.4276667 -0.15333332 0
1.2500824 1.4140586 -0.15085942 0
1.3511494 1.4559351 -0.15011565 0
1.4570959 1.4980469 -0.14853664 0
1.6264942 1.4517765 -0.1490698 0
1.7541873 1.4214462 -0.14777775 0
1.8537706 1.4595364 -0.14864473 0
1.928261 1.4861116 -0.14716823 0
2.0712957 1.4417773 -0.14706482 0
2.1431782 1.4905736 -0.14640896 0
3.1571918 1.4470835 -0.14628266 0
3.204 1.4680001 -0.146 0
-3.2630329 1.5757835 -0.19985233 0
-2.9242079 1.5854796 -0.19167927 0
-2.845 1.543 -0.19400001 0
-2.7520001 1.5779999 -0.19 0
-2.1319051 1.5670311 -0.16816732 0
-2.059 1.513 -0.169 0
-1.820539 1.5355837 -0.167 0
-1.7079999 1.582 -0.164 0
-1.6371843 1.5521171 -0.16428562 0
-1.5362847 1.5256389 -0.16408852 0
-1.4491441 1.5432782 -0.16306654 0
-1.358305 1.564409 -0.1623562 0
-1.247211 1.5465416 -0.1646823 0
-1.1608192 1.5447949 -0.16241807 0
-1.0506778 1.5478529 -0.16136207 0
-0.94884288 1.5380826 -0.16017061 0
-0.84557134 1.558097 -0.15837495 0
-0.74609149 1.5482221 -0.15709522 0
-0.6481455 1.5518349 -0.15695263 0
-0.51974982 1.5393645 -0.1575034 0
-0.42479718 1.5708308 -0.15605924 0
-0.35566667 1.5373334 -0.15666668 0
-0.28999999 1.591 -0.156 0
0.33149999 1.572 -0.154 0
0.46259463 1.5431871 -0.15205085 0
0.55172944 1.5518101 -0.15027025 0
0.64764816 1.5559108 -0.15195966 0
0.76800001 1.539 -0.153 0
0.82206428 1.5536417 -0.15225989 0
0.95318592 1.5292434 -0.15288903 0
1.215 1.586 -0.149 0
1.3465499 1.5223271 -0.14959805 0
1.5181916 1.5610939 -0.14707325 0
1.6922412 1.5101647 -0.14810471 0
1.7579883 1.568553 -0.14713962 0
1.8909789 1.5310769 -0.14629626 0
1.9544051 1.5550354 -0.1477564 0
2.0299969 1.5712905 -0.14702137 0
2.188 1.521 -0.146 0
-3.5045819 1.6924587 -0.18913081 0
-3.4240656 1.653567 -0.19270466 0
-3.3435493 1.6146753 -0.1962785 0
-3.0430195 1.649199 -0.18819816 0
-2.9074984 1.665881 -0.18552062 0
-2.8297491 1.6219405 -0.18776031 0
-2.6257365 1.6733798 -0.17883721 0
-2.5510001 1.627 -0.18099999 0
-2.2412627 1.648078 -0.16691832 0
-1.7497585 1.6594472 -0.16303636 0
-1.6372001 1.6337624 -0.16309556 0
-1.5492654 1.630561 -0.16232166 0
-1.4521639 1.670138 -0.16060184 0
-1.3490376 1.6646627 -0.16161005 0
-1.2590947 1.6382322 -0.16429232 0
-1.1556619 1.6390667 -0.1656446 0
-1.0470229 1.6583573 -0.16155936 0
-0.95053065 1.6469955 -0.15964475 0
-0.85595101 1.6582534 -0.15469332 0
-0.77083677 1.628014 -0.15493785 0
-0.66872215 1.6460946 -0.15522146 0
-0.55674982 1.6333644 -0.15700339 0
-0.44472957 1.6537744 -0.15541233 0
-0.35248381 1.6535031 -0.1544029 0
-0.24229395 1.6498609 -0.15446737 0
-0.14466667 1.6796666 -0.15499999 0
0.153 1.6845 -0.153 0
0.25568935 1.6437385 -0.15236549 0
0.34223723 1.6637357 -0.15102884 0
0.4439269 1.611339 -0.15009469 0
0.5499981 1.6401099 -0.15043283 0
0.66067958 1.6673894 -0.15002634 0
0.88825691 1.6725664 -0.1500396 0
1.0269648 1.6421084 -0.15122256 0
1.1390001 1.641 -0.148 0
1.2697858 1.6565151 -0.14825098 0
1.444299 1.633962 -0.14758825 0
1.5792874 1.6241409 -0.14560989 0
1.6403832 1.6871879 -0.14414652 0
1.8566089 1.6561353 -0.14569198 0
2.0687478 1.6555885 -0.14558686 0
2.1463714 1.6663566 -0.14591457 0
-3.6656148 1.7702422 -0.18198314 0
-3.5850985 1.7313504 -0.18555698 0
-3.3202469 1.7978776 -0.18007557 0
-3.241039 1.7553979 -0.18239632 0
-3.1512885 1.7553105 -0.18175931 0
-3.0629966 1.753762 -0.18104126 0
-2.9852474 1.7098216 -0.18328094 0
-2.7378409 1.7429494 -0.17559303 0
-2.4235256 1.7831559 -0.16483663 0
-2.3506203 1.7291248 -0.16566931 0
-1.9040561 1.7683125 -0.16163789 0
-1.838704 1.7062082 -0.16242525 0
-1.7571664 1.7461016 -0.16083798 0
-1.6360593 1.7408469 -0.16080309 0
-1.5537245 1.7556415 -0.15792587 0
-1.4531941 1.7617308 -0.15846562 0
-1.3587486 1.7485152 -0.16007191 0
-1.2564927 1.7467201 -0.15990886 0
-1.1477109 1.7316672 -0.15976126 0
-1.0492562 1.7532464 -0.15784405 0
-0.95725238 1.7481411 -0.15659079 0
-0.85863352 1.7509165 -0.1533366 0
-0.74609727 1.7529554 -0.15107584 0
-0.67166519 1.7291858 -0.15379605 0
-0.56900001 1.767 -0.148 0
-0.44643709 1.7518072 -0.15195197 0
-0.33970964 1.7189617 -0.15296647 0
-0.25938046 1.7368565 -0.15140489 0
-0.15841533 1.7534839 -0.1510167 0
-0.033 1.7725 -0.15000001 0
0.055666666 1.7593333 -0.14999999 0
0.14855658 1.7671373 -0.15041314 0
0.24523731 1.7496061 -0.14840952 0
0.34396324 1.7450981 -0.14873275 0
0.46012998 1.7590986 -0.14740311 0
0.54806519 1.7791544 -0.14627959 0
0.66865027 1.7726607 -0.14721298 0
0.70256346 1.7414271 -0.14900954 0
0.80000001 1.79 -0.147 0
0.91619265 1.7679248 -0.1482797 0
1.0415516 1.7527901 -0.14676911 0
1.1454118 1.7338028 -0.14847758 0
1.24116 1.7842643 -0.14679812 0
1.3519644 1.762288 -0.14712745 0
1.5322733 1.7344335 -0.14577943 0
1.701479 1.7502348 -0.14268313 0
1.9552295 1.7437177 -0.14424434 0
2.1029999 1.701 -0.14399999 0
2.2483959 1.7634807 -0.14526507 0
-3.8473239 1.8580129 -0.17391774 0
-3.7461312 1.8091339 -0.17840931 0
-3.4786625 1.8828368 -0.1754341 0
-3.3994546 1.8403572 -0.17775483 0
-3.2573695 1.8636134 -0.17544204 0
-2.9246817 1.8588989 -0.17018606 0
-2.8499453 1.8125191 -0.17234886 0
-2.5693357 1.8912183 -0.16317129 0
-2.4964306 1.8371871 -0.16400397 0
-2.0347602 1.8925207 -0.16006313 0
-1.945534 1.8467886 -0.16014543 0
-1.8507502 1.8413081 -0.15874591 0
-1.7565613 1.8285639 -0.15901993 0
-1.6326731 1.8659731 -0.15559009 0
-1.5526628 1.8583468 -0.15655085 0
-1.4647228 1.8402187 -0.15826699 0
-1.3555878 1.8672906 -0.15673451 0
-1.2484831 1.8515371 -0.15734419 0
-1.13254 1.8474703 -0.15728916 0
-1.0410445 1.8622634 -0.15525967 0
-0.93888217 1.829825 -0.15349884 0
-0.84951085 1.8402195 -0.15079622 0
-0.72878641 1.8537277 -0.1509157 0
-0.54425037 1.8504349 -0.14950824 0
-0.42515713 1.8524023 -0.14960948 0
-0.33406442 1.8456924 -0.14894968 0
-0.26000023 1.8537964 -0.14684953 0
-0.16348863 1.835319 -0.14765503 0
-0.035651837 1.8612576 -0.14860311 0
0.058430176 1.848828 -0.14890866 0
0.15558399 1.8558376 -0.14935376 0
0.24833371 1.8472955 -0.14677347 0
0.33298618 1.8698754 -0.14545724 0
0.42322224 1.8746548 -0.14444751 0
0.55804193 1.864998 -0.14536817 0
0.68515313 1.8703586 -0.1448414 0
0.72518438 1.8303591 -0.14740917 0
0.83623803 1.8677341 -0.14501046 0
0.95822918 1.8457079 -0.14656872 0
1.1295681 1.8451886 -0.14726076 0
1.2922399 1.8558965 -0.14619718 0
1.4341429 1.8680608 -0.14600392 0
1.6202475 1.8349051 -0.14397061 0
1.7625748 1.8132818 -0.14121976 0
1.8236706 1.8763287 -0.1397564 0
2.0304883 1.810553 -0.14313963 0
2.329 1.8279999 -0.14399999 0
-3.6300001 1.964 -0.171 0
-3.5578704 1.9253163 -0.17311336 0
-3.4663711 1.9817324 -0.1694214 0
-3.3739932 1.9295242 -0.1720825 0
-3.1488905 1.9980382 -0.1636977 0
-3.0741544 1.9516584 -0.16586049 0
-2.999418 1.9052786 -0.16802327 0
-2.7151458 1.9992807 -0.16150594 0
-2.6422408 1.9452496 -0.16233861 0
-2.1001122 1.9546248 -0.15927576 0
-2.05199 1.988741 -0.15716052 0
-1.9464159 1.9360039 -0.15684496 0
-1.8531973 1.969156 -0.15801032 0
-1.7638381 1.9301488 -0.15608928 0
-1.6358898 1.9587748 -0.15400651 0
-1.5564406 1.963486 -0.15469718 0
-1.4656157 1.9380988 -0.15657556 0
-1.3420534 1.9517413 -0.15442523 0
-1.2453958 1.9722958 -0.1563075 0
-1.1655556 1.9403843 -0.15672216 0
-1.0472305 1.9665632 -0.1526984 0
-0.96097881 1.9309006 -0.15138689 0
-0.86499035 1.9420111 -0.1494363 0
-0.77423674 1.9558342 -0.14900449 0
-0.61498201 1.9588664 -0.14818427 0
-0.54799998 1.964 -0.148 0
-0.44 1.92 -0.148 0
-0.21271867 1.9746391 -0.14466791 0
-0.13588712 1.9567721 -0.1479362 0
-0.03830367 1.9500149 -0.14720622 0
0.061193679 1.938323 -0.1478173 0
0.16261141 1.9445379 -0.14829436 0
0.25966743 1.933591 -0.14554694 0
0.34947237 1.9552507 -0.14441448 0
0.45109269 1.9613039 -0.14373913 0
0.54754323 1.9540064 -0.14395486 0
0.64086503 1.9652441 -0.14418101 0
0.75582665 1.9390647 -0.14522576 0
0.8724761 1.9454683 -0.14302093 0
0.97988909 1.9365661 -0.14411651 0
1.0427065 1.9500576 -0.1448589 0
1.1767126 1.9186003 -0.14647436 0
1.2483015 1.9807034 -0.14622317 0
1.3688599 1.9633447 -0.14529577 0
1.4889286 1.938576 -0.14525488 0
1.6788969 1.9018861 -0.14276473 0
1.7375464 1.9688671 -0.14155886 0
1.8908832 1.9456879 -0.1381465 0
-3.1730001 2.013 -0.163 0
-2.8469999 2.0969999 -0.16 0
-2.7880509 2.0533118 -0.16067328 0
-2.2308164 2.0788331 -0.15770102 0
-2.1413097 2.0341301 -0.1572545 0
-2.0280097 2.0736799 -0.15234526 0
-1.9531738 2.0479581 -0.1558314 0
-1.8583803 2.0901935 -0.1503332 0
-1.7524782 2.0571125 -0.15129036 0
-1.64008 2.0406651 -0.15331535 0
-1.5699253 2.066505 -0.150552 0
-1.4655162 2.0392637 -0.15159082 0
-1.3586617 2.048353 -0.15181389 0
-1.2488095 2.0661848 -0.15452793 0
-1.1482356 2.0385594 -0.15472558 0
-1.0543507 2.0619981 -0.14979722 0
-0.93871057 2.0499144 -0.14806868 0
-0.83627111 2.0485461 -0.14793232 0
-0.75948542 2.0409491 -0.1479643 0
-0.64259267 2.0442467 -0.14833283 0
-0.57183075 2.0504124 -0.14831084 0
-0.46993291 2.0523348 -0.14814323 0
-0.22057801 2.0609584 -0.14400186 0
-0.14179696 2.0449061 -0.14656234 0
-0.040955506 2.0387726 -0.14580932 0
0.053522635 2.0458028 -0.14625341 0
0.15869085 2.035743 -0.14750178 0
0.24816167 2.0218325 -0.14502512 0
0.34718189 2.0568769 -0.1433883 0
0.47042388 2.0453262 -0.14292401 0
0.57116652 2.0391271 -0.14281407 0
0.64100051 2.0296712 -0.14294882 0
0.75082392 2.0375674 -0.14327605 0
0.83930057 2.0659881 -0.14375931 0
0.90871412 2.0232024 -0.14103138 0
1.0398059 2.0509906 -0.14120388 0
1.1541561 2.0361516 -0.14389569 0
1.2710018 2.065424 -0.14490157 0
1.4454799 2.0707929 -0.14439435 0
1.5711071 2.0443487 -0.14413135 0
1.796196 2.0358481 -0.14035298 0
-2.2718267 2.1590245 -0.1553272 0
-2.1521599 2.1431608 -0.15244035 0
-2.0641637 2.1511707 -0.15321983 0
-1.9356558 2.1750519 -0.14840734 0
-1.8454062 2.1738899 -0.14755312 0
-1.7411001 2.1619878 -0.14980631 0
-1.640045 2.1512554 -0.14895953 0
-1.5419424 2.1540394 -0.14697579 0
-1.4555933 2.1277688 -0.14531234 0
-1.3569626 2.1569264 -0.1521284 0
-1.2619801 2.1525893 -0.15311989 0
-1.1515318 2.139894 -0.1505793 0
-1.0660006 2.1514151 -0.14922617 0
-0.95776033 2.1463711 -0.14616044 0
-0.84890103 2.1573069 -0.14698842 0
-0.74884796 2.1675744 -0.14922923 0
-0.67020333 2.1296272 -0.14848143 0
-0.59566152 2.1368248 -0.14862168 0
-0.49986577 2.1846697 -0.14828645 0
-0.22843735 2.1472781 -0.14333582 0
-0.14770681 2.1330402 -0.14518848 0
-0.043607339 2.1275299 -0.14441241 0
0.067405611 2.1472092 -0.1451209 0
0.17325611 2.1429856 -0.14700946 0
0.23257232 2.1183205 -0.14377972 0
0.33821863 2.1480956 -0.14192352 0
0.43882793 2.1326122 -0.14231072 0
0.54343605 2.130424 -0.14242631 0
0.65426272 2.1543238 -0.14092112 0
0.76106709 2.1330402 -0.14142179 0
0.83315885 2.183959 -0.14109899 0
0.94550163 2.1394024 -0.13935377 0
1.0528666 2.1462135 -0.1408812 0
1.1530275 2.1482656 -0.1411584 0
1.2623098 2.1552405 -0.14411457 0
1.3498911 2.1707299 -0.14366709 0
1.4965599 2.1424251 -0.14379342 0
1.6532857 2.1501215 -0.14300781 0
1.8584228 2.1069145 -0.13907355 0
-2.3482924 2.2322357 -0.15418178 0
-2.1432502 2.2741311 -0.15427974 0
-2.063 2.2920001 -0.153 0
-1.8323181 2.2389636 -0.1455009 0
-1.7322918 2.2243483 -0.14592579 0
-1.6776065 2.2504833 -0.13456583 0
-1.587775 2.2032807 -0.15601198 0
-1.4428192 2.2470505 -0.15168418 0
-1.3472548 2.2651677 -0.15207218 0
-1.2351787 2.2468812 -0.14908314 0
-1.1474204 2.2489762 -0.14777456 0
-1.0674415 2.2521801 -0.14568448 0
-0.93254727 2.2388005 -0.14637707 0
-0.84322089 2.2492867 -0.14484151 0
-0.74589211 2.2821982 -0.14910558 0
-0.64935511 2.2284603 -0.1486356 0
-0.51982105 2.272893 -0.14838192 0
-0.23629668 2.2335975 -0.14266977 0
-0.16378079 2.2473032 -0.14331199 0
-0.046259172 2.2162874 -0.1430155 0
0.055167414 2.2469211 -0.14237523 0
0.14025335 2.2197981 -0.1455075 0
0.23864755 2.2565751 -0.14291477 0
0.36316156 2.2532227 -0.14037925 0
0.45617732 2.2169504 -0.14142106 0
0.56144333 2.2421868 -0.1411162 0
0.66469955 2.2798543 -0.13889201 0
0.74614167 2.2539058 -0.14005728 0
0.8660605 2.2662187 -0.13987619 0
0.95440668 2.2459993 -0.13891801 0
1.045091 2.2439277 -0.13588376 0
1.1461514 2.2546408 -0.13636161 0
1.2690489 2.225584 -0.14222354 0
1.3030977 2.287168 -0.14044707 0
1.55582 2.2255287 -0.14309624 0
1.7175357 2.2328184 -0.14212939 0
-2.1231387 2.3535342 -0.13815564 0
-1.9375445 2.3547087 -0.12300721 0
-1.8400227 2.3458281 -0.12499515 0
-1.7550162 2.3607078 -0.11591458 0
-1.5144172 2.3600669 -0.13576841 0
-1.4634101 2.3396978 -0.14481835 0
-1.352771 2.3710814 -0.15835612 0
-1.2700826 2.3497703 -0.14879669 0
-1.1460686 2.3706048 -0.14990903 0
-1.0376158 2.3426285 -0.14286833 0
-0.9469431 2.3416305 -0.1443024 0
-0.86744553 2.3329709 -0.14553113 0
-0.74016571 2.3433213 -0.14887071 0
-0.65523845 2.3528562 -0.14939876 0
-0.53977633 2.3611164 -0.14847741 0
-0.24415603 2.319917 -0.14200373 0
-0.16336891 2.3529387 -0.14188299 0
-0.050236925 2.3494234 -0.14092016 0
0.068266593 2.3560197 -0.14066811 0
0.14429548 2.3430145 -0.14403863 0
0.24572857 2.3787346 -0.14214672 0
0.34309986 2.3491616 -0.13923751 0
0.4360545 2.3554771 -0.13971935 0
0.53273129 2.3544099 -0.13987774 0
0.65023077 2.3561137 -0.13879776 0
0.77268887 2.3342624 -0.13891825 0
0.84643805 2.3718123 -0.13779238 0
0.96215165 2.3459225 -0.13764286 0
1.0398887 2.3517129 -0.13369107 0
1.159204 2.3216603 -0.13346925 0
1.2591422 2.3389161 -0.13759899 0
1.3435733 2.3603759 -0.1383353 0
-2.2434158 2.4766028 -0.10846695 0
-2.1832774 2.4150686 -0.1233113 0
-1.9734311 2.4531097 -0.10550055 0
-1.896034 2.4152422 -0.11299272 0
-1.4483446 2.4261963 -0.15926653 0
-1.3546383 2.4551105 -0.15128255 0
-1.2598805 2.465975 -0.14569816 0
-1.113 2.4119999 -0.142 0
-1.0082412 2.4628575 -0.15181959 0
-0.95356023 2.4427385 -0.12277818 0
-0.83637291 2.4472916 -0.1498757 0
-0.74356616 2.44592 -0.1486209 0
-0.69098461 2.4824748 -0.14986502 0
-0.5597316 2.4493396 -0.14857288 0
-0.2540077 2.4281182 -0.14116883 0
-0.17044277 2.4648039 -0.14008218 0
-0.054214675 2.4825597 -0.13882482 0
0.061424069 2.4715219 -0.13873322 0
0.1563344 2.4470198 -0.14415078 0
0.25224689 2.4402499 -0.14146861 0
0.35299999 2.4260001 -0.138 0
0.44300002 2.4395001 -0.13850001 0
0.56349999 2.4495001 -0.139 0
0.65200001 2.4389999 -0.138 0
0.74300003 2.434 -0.13749999 0
0.86549997 2.4245 -0.13699999 0
0.96225142 2.4258034 -0.13806495 0
-1.419832 2.5867541 -0.12623055 0
-1.38 2.5059998 -0.14733334 0
-1.249 2.5239999 -0.155 0
-1.0214449 2.5524278 -0.13239045 0
-0.86580288 2.5312901 -0.15009555 0
-0.74849522 2.5710745 -0.14948305 0
-0.57968682 2.5375628 -0.14866836 0
-0.14399999 2.5139999 -0.139 0
-0.046578038 2.5678453 -0.13741015 0
0.063852079 2.561337 -0.13726237 0
0.13467583 2.5750782 -0.14572196 0
0.23283327 2.5577188 -0.14583158 0
-1.4636638 2.6645081 -0.1114611 0
-1.0616328 2.6310508 -0.13714144 0
-0.93882275 2.6389568 -0.15089411 0
-0.85357815 2.6609399 -0.14958192 0
-0.73864615 2.6552997 -0.15048668 0
-0.5996421 2.6257863 -0.14876384 0
0.066 2.6389999 -0.13600001 0
0.17900001 2.6240001 -0.145 0
0.24396294 2.6678438 -0.14512865 0
-0.82999998 2.7309999 -0.149 0
-0.77023846 2.769856 -0.15089875 0
-0.61959738 2.7140095 -0.14885932 0
-0.64427626 2.8231163 -0.1489774 0
0.0425 3.6659999 -0.12899999 0
-0.00038657006 3.772264 -0.12542422 0
0.086658351 3.7395508 -0.125476 0
-0.00077314011 3.8625281 -0.12184845 0
0.088316694 3.8291016 -0.12195202 0
-0.0011597102 3.9527924 -0.11827268 0
0.089975044 3.9186521 -0.11842804 0
-0.0015462802 4.0430565 -0.11469691 0
0.092462562 4.0529785 -0.11314206 0
-0.0019328502 4.1333203 -0.11112113 0
0.09495008 4.187304 -0.10785608 0
-0.0023194202 4.2235847 -0.10754536 0
0.09660843 4.276855 -0.1043321 0
-0.0027059901 4.313849 -0.10396959 0
0.098266773 4.3664055 -0.10080811 0
-0.0030925602 4.4041128 -0.10039382 0
-0.73900002 -2.8299999 -0.081 0
-0.76257753 -2.7471228 -0.074446462 0
0.123 -2.7650001 -0.086000003 0
-0.75014114 -2.6294026 -0.059492979 0
-0.6953243 -2.6713343 -0.060185783 0
0.1235376 -2.6437731 -0.064496353 0
-0.72671169 -2.5521038 -0.048239466 0
-0.6625675 -2.5523348 -0.044575118 0
0.12407518 -2.5225463 -0.042992711 0
-0.70328224 -2.4748051 -0.036985956 0
-0.62981069 -2.4333355 -0.028964452 0
0.12443358 -2.4417286 -0.028656948 0
-0.65361762 -2.3758354 -0.022244148 0
0.12489599 -2.3374553 -0.010160591 0
2.049 -2.3039999 -0.016000001 0
2.102948 -2.3640869 -0.0057684835 0
2.5380001 -2.059 -0.096000001 0
4.9764719 -1.9722981 -0.09706337 0
-0.21987703 2.3279362 -0.0021529831 0
-2.052089 2.4884174 -0.097014405 0
-1.8324258 2.4709325 -0.097263336 0
-1.5577514 2.4662004 -0.097805262 0
-0.34650001 2.47 -0.0015 0
-0.24195902 2.4599788 -0.015050995 0
0.089066103 2.4831345 -0.0009978991 0
-2.3336239 2.5689044 -0.086200416 0
-2.1093614 2.5552719 -0.084017999 0
-2.0080566 2.5540702 -0.088987872 0
-1.8840324 2.5444157 -0.084829167 0
-1.6046685 2.5422673 -0.082073674 0
-0.2265 2.5599999 -0.022 0
-0.147 2.539 -0.0060000001 0
-0.028000001 2.5380001 -0.0089999996 0
0.061499998 2.5539999 -0.011 0
-2.4238319 2.6612055 -0.063933894 0
-2.2239058 2.6889806 -0.058025196 0
-2.1433563 2.6575122 -0.068002306 0
-2.0640681 2.6234841 -0.076985441 0
-1.961442 2.6546402 -0.06617792 0
-1.6750443 2.6563673 -0.058476306 0
-2.5369999 2.777 -0.035999998 0
-2.4839706 2.7227399 -0.049089544 0
-2.2811782 2.7558351 -0.045028791 0
-2.1760907 2.7623124 -0.052980587 0
-2.0388517 2.7648649 -0.047526665 0
-1.7454199 2.7704678 -0.034878932 0
-1.5074958 2.7422621 -0.096691653 0
-1.0720601 2.7372384 -0.097278178 0
-2.3407252 2.8253448 -0.031516194 0
-2.2321019 2.8317263 -0.040978156 0
-2.0904582 2.8383482 -0.035092495 0
-1.7923371 2.8465345 -0.019147351 0
-1.5732436 2.8588932 -0.074537471 0
-2.2880001 2.901 -0.028999999 0
-2.1600323 2.9374156 -0.018329162 0
-1.8392541 2.9226012 -0.0034157783 0
-1.6389915 2.9755242 -0.052383296 0
-2.1735263 3.0492353 -0.018607108 0
-1.6828234 3.0532782 -0.037613846 0
-1.7266554 3.1310322 -0.022844397 0
-1.7704873 3.2087862 -0.0080749393 0
-0.0034791301 4.4943771 -0.096818045 0
0.099925116 4.4559565 -0.097284123 0
-0.0038657002 4.584641 -0.093242273 0
0.101 4.5139999 -0.094999999 0
-0.0040000002 4.6160002 -0.092 0
2.7090001 -3.151 0.0020000001 0
2.5940542 -3.0252047 0.011676564 0
2.6515272 -3.0881023 0.0068382816 0
2.5365813 -2.962307 0.016514845 0
2.4503717 -2.8679605 0.023772269 0
-0.168 -2.7360001 0.0099999998 0
2.3405812 -2.747807 0.033014845 0
-0.1620277 -2.6563694 0.01617137 0
2.3288698 -2.6157174 0.03707879 0
-0.15605541 -2.5767388 0.02234274 0
2.264792 -2.5443478 0.024926068 0
-0.14709696 -2.457293 0.031599794 0
2.1568961 -2.4241738 0.0044630338 0
2.210844 -2.4842608 0.014694551 0
-0.13806927 -2.3369236 0.040928423 0
-0.43345135 2.1648285 0.028431918 0
-0.33766267 2.1651025 0.026197582 0
-0.24334942 2.155205 0.028975477 0
-0.15700814 2.1348696 0.036137722 0
-0.022032779 2.138196 0.043710463 0
0.05185388 2.14133 0.04545518 0
-0.42736661 2.2707052 0.016798569 0
-0.35192117 2.2296634 0.021600805 0
-0.24819063 2.2456403 0.018553019 0
-0.14594784 2.2489281 0.025923068 0
-0.023845889 2.2596745 0.027694648 0
0.054066207 2.232928 0.032928281 0
-5.0282006 2.3729725 0.081962585 0
-4.9465008 2.3382156 0.092453226 0
-0.64647818 2.3526778 0.025545783 0
-0.45445552 2.3610682 0.0060995235 0
-0.35624373 2.3438473 0.011185672 0
-0.27075326 2.3283823 0.013694236 0
-0.17247657 2.360481 0.014490102 0
-0.025626224 2.3789568 0.011968371 0
0.047094434 2.3370168 0.0186055 0
-5.2733002 2.4772432 0.050490648 0
-5.1507502 2.425108 0.066226617 0
-0.67463762 2.4545703 0.017394377 0
-0.42899999 2.431 -2.600992e-14 0
-0.30857733 2.4053617 0.0058701904 0
-0.22655688 2.4391775 0.0041111661 0
-0.14187033 2.4586351 0.0027394369 0
-0.026813112 2.4584785 0.0014841855 0
0.058174606 2.4332993 0.0054831211 0
-5.355 2.5120001 0.039999999 0
-2.223 2.586 0.048999999 0
-0.71399999 2.5969999 0.0060000001 0
-0.69431877 2.525785 0.011697188 0
-2.2584753 2.6445556 0.038742073 0
-2.306 2.723 0.025 0
-1.9621305 2.7631764 0.038964462 0
-2.0326829 2.8586473 0.019750245 0
-1.9375964 2.8656197 0.034115668 0
-1.896 2.881 0.043000001 0
-9.5221529 2.9785683 0.088357918 0
-9.4461527 2.9445684 0.09685792 0
-2.1031044 2.9539413 0.00057156757 0
-2.0051446 2.9539294 0.024173504 0
-1.9297377 2.9383402 0.03786299 0
-1.8861713 2.9986682 0.01231581 0
-9.5790005 3.0039999 0.082000002 0
-2.1010482 3.0793097 0.010057835 0
-2.0332694 3.0486119 0.02111673 0
-1.9477952 3.0347362 0.028245199 0
-2.1489999 3.142 0.003 0
-2.055295 3.151736 0.018745195 0
-2.1389999 3.2939999 0.0060000001 0
-2.0971475 3.222868 0.012372598 0
-1.8143191 3.28654 0.0066945106 0
-1.836 3.325 0.013999999 0
-4.6197009 2.199188 0.13441584 0
-4.5840001 2.184 0.139 0
-4.7422509 2.2513232 0.11867985 0
-4.8648009 2.3034587 0.10294388 0
