# .PCD v0.7 - Point Cloud Data file format
VERSION 0.7
FIELDS x y z intensity
SIZE 4 4 4 4
TYPE F F F F
COUNT 1 1 1 1
WIDTH 576
HEIGHT 1
VIEWPOINT 0 0 0 1 0 0 0
POINTS 576
DATA ascii
-33.292034 -14.315503 10.29227 12
-33.362793 -14.180876 10.837257 12
-33.552078 -13.835146 11.06323 12
-29.403374 -13.7309 13.295736 15
-29.273262 -13.895469 14.547256 16
-29.115711 -14.106801 9.1517811 12
-28.892023 -14.284263 9.9088125 12
-28.995522 -14.375285 13.273802 15
-28.708752 -14.726099 9.104846 12
-28.413477 -15.172482 9.4708948 12
-28.582565 -15.017642 13.256868 15
-28.704079 -14.722411 13.458845 15
-28.476757 -15.099371 14.490883 16
-28.186518 -15.657867 13.252934 15
-28.29512 -15.393787 13.465914 15
-28.046715 -15.767797 14.456956 16
-27.83058 -16.03392 8.1159916 11
-27.892277 -15.836192 8.1259766 11
-27.632111 -16.371624 9.3600235 12
-27.714802 -16.130751 9.9380083 12
-27.64608 -16.280451 10.896022 13
-27.469112 -16.492504 8.1390476 11
-27.398327 -16.615143 9.0470619 12
-27.245789 -16.966595 9.3160906 12
-27.254749 -16.862417 10.914088 13
-27.35306 -16.911268 13.246073 15
-27.426798 -16.699495 13.485059 15
-27.275272 -17.031931 14.363089 16
-27.544851 -16.621914 14.856042 16
-27.447968 -16.706558 15.567057 17
-27.054861 -17.153732 8.1621199 11
-26.864405 -17.566502 9.2751541 12
-26.868338 -17.440302 10.933153 13
-26.986473 -17.351788 13.509132 15
-26.864834 -17.625931 14.327155 16
-26.817055 -24.430458 15.092371 15
-27.171522 -17.22883 14.810104 16
-27.061632 -17.321537 15.599123 17
-26.608454 -24.620567 15.554902 15
-26.794037 -24.383507 15.955374 16
-26.683033 -24.544203 16.249392 16
-26.18399 -18.45611 8.2152672 11
-26.164099 -18.509361 9.1272726 12
-26.090376 -18.772205 9.2002888 12
-26.114313 -18.611876 10.995283 13
-26.112097 -18.715242 13.437284 15
-26.079784 -18.843689 14.29629 16
-25.788488 -19.140108 8.2653379 11
-25.677691 -19.355036 9.1643591 12
-25.735479 -19.126341 9.1583452 12
-25.751711 -19.207548 11.038347 13
-25.721062 -19.414213 13.338353 15
-25.872936 -19.152113 13.838326 15
-25.695148 -19.457449 14.299359 16
-25.855005 -19.124229 15.703331 17
-25.473249 -19.768915 13.861398 15
-25.576128 -19.518063 14.684378 16
-24.914028 -20.443081 8.3474903 11
-24.890171 -20.568449 9.1134977 12
-25.120043 -20.208874 8.9094553 11
-24.510197 -21.10384 8.3005638 11
-24.609236 -20.997284 8.6375475 11
-24.522232 -21.059767 9.312561 12
-24.600355 -20.972404 11.174549 13
-24.4646 -21.279593 13.472574 15
-24.666622 -21.013369 13.91954 15
-24.478664 -21.283577 14.311571 16
-24.258678 -21.635012 13.959611 15
-24.3827 -21.434223 14.604589 16
-24.25473 -21.559994 15.955611 17
-20.276775 -6.6052494 2.3547196 7
-20.303045 -6.3524394 2.8247137 7
-19.859745 -6.6211176 2.2057698 6
-18.008406 -1.7182194 0.1279784 3
-13.846931 -6.0346918 1.7004892 7
-13.787328 -6.1793623 2.0534992 7
-13.882081 -5.8891768 2.1284826 7.5
-13.848235 -5.7564855 2.4519842 8
-13.851518 -5.5012665 2.4244797 8
-13.562144 -6.1171951 2.4425261 8
-11.862378 -2.3646016 -0.22931044 3
-11.258253 -5.6597409 0.27579904 4
-11.28634 -5.6656942 1.1017957 6
-11.266955 -5.9084201 1.4528035 7
-11.287511 -5.714859 1.7367964 7
-11.35641 -3.3510237 1.8907522 8
-11.211235 -6.0109568 2.1168125 8
-11.268146 -5.7615829 2.0553 8
-11.225508 -5.6971273 2.4558039 9
-11.194563 -5.8033552 -0.10219005 3
-11.195432 -5.7372103 0.30480841 4
-11.1881 -6.0019383 0.71181524 5
-11.197977 -5.9357586 1.1128124 6
-11.192211 -5.9920163 2.4868145 9
-10.488326 -6.2323885 -0.21009268 3
-10.657112 -5.6803212 -0.22712648 3
-9.8776646 -2.9160991 -0.19007529 3
-9.767705 -2.410059 -0.18706463 3
-9.9174614 -4.6989841 0.2379439 4
-9.6778831 4.9715772 0.09243191 3
-9.6802912 6.5356169 10.17789 25
-8.9033127 6.5845175 10.760603 26
-8.6471815 6.4431262 11.047563 27
-8.1747999 -8.9415884 -0.35672766 2
-8.3209591 6.7880969 9.2293386 25
-8.0914574 6.6223822 9.9243155 26
-8.1545906 6.6325641 10.242332 27
-7.788259 8.7322836 2.9272296 10.666667
-7.8342514 8.708787 3.5855837 12
-7.1013527 8.7871161 2.8333344 11
-7.1840029 8.7510853 3.4693696 12
-6.8185496 6.8742261 9.1438169 26
-6.8490634 6.7847462 9.4973526 27
-6.9907541 -29.909525 18.959846 20
-6.5730085 6.8908882 9.4317331 27
-6.4360938 -30.226013 12.4859 15
-6.7439938 -30.057745 12.823869 15
-6.7209501 -30.094786 18.947876 20
-6.3839669 -30.167044 10.330907 13
-6.0550842 -30.183302 12.785935 15
-6.0600805 -30.267317 18.961941 20
-5.6961055 -30.178545 12.357966 15
-5.5841193 1.2764544 -0.19570117 2
-5.4401989 2.4322932 0.040804129 3
-5.3421407 -30.17576 12.697997 15
-5.4053249 -30.160723 13.22999 16
-5.0544457 1.4281266 -0.14596172 2
-4.6257415 0.731628 0.3671529 6
-4.4507866 8.9908533 0.041520782 3
-4.4203444 2.0620735 0.7065658 8
-4.5473742 0.72680771 1.1153769 10
-4.6976037 0.82510883 1.1551427 10
-4.6260691 0.87038589 1.2190969 11
-4.4231501 1.3290203 1.2638392 11
-4.5577512 6.9460759 5.0051064 20
-4.0308561 -2.1595886 -0.23738731 2
-4.0544047 -0.26722926 -0.23338257 2
-4.3006015 1.3384886 -0.059210617 3
-4.1856136 2.6820202 -0.10873295 3
-4.2439709 3.0009201 -0.039818514 3
-4.2364016 3.3387473 -0.15093048 2
-4.2878914 1.3799571 0.3597689 6
-4.3005652 2.1051428 0.30242372 5.5
-4.3246536 2.1019974 0.54951692 6.5999999
-4.3344188 3.1438472 0.62416577 6.5
-4.3771181 1.3256662 1.1088232 10
-4.351923 3.0988071 0.85918641 8
-4.3847008 1.4289424 1.3137866 11.5
-4.1841607 6.9871411 4.7469902 19
-4.1682444 6.9845767 4.8431864 19.4
-4.0923123 -26.631105 11.141051 15
-4.0221572 -26.544127 12.654054 16
-4.0211301 -26.610134 13.270056 17
-3.7730224 -9.0480318 -0.33920529 2
-3.8725712 -2.3367131 -0.22836572 2
-3.9103811 -1.0659715 -0.21587925 2
-3.7891467 -0.75452489 -0.2093626 2
-3.6629653 -0.12500298 -0.20633318 2
-3.9440899 9.0104942 0.07238429 3
-3.8306103 -26.608213 11.394074 15
-3.3722589 1.9364491 -0.16376613 2
-3.5588529 3.0752792 -0.13407227 2
-3.2225072 2.529191 0.0099879811 3
-3.5312185 7.0331311 4.6463013 19
-3.5029328 7.0202904 4.8037968 20
-3.1436779 -6.5689473 -0.3041876 2
-2.9701431 -4.4346385 -0.26121339 2
-2.9195452 -3.9542475 -0.24021812 2
-2.8435826 -2.4837441 -0.10274058 2.5
-3.0358245 -2.3802724 -0.14293192 2.3333333
-3.1281636 1.9913003 -0.16086984 2
-2.9231691 2.0545542 -0.15996085 2
-3.1612351 -2.4238753 0.093720675 4
-3.1331818 -2.3989432 0.23772354 5
-3.1528955 2.4942136 0.19830924 5
-2.8353591 -2.3921292 0.53375864 7.5
-3.0956509 2.4951379 0.4149566 6
-2.7203038 -2.5388148 -0.093725018 2.5
-2.4239104 -2.0324993 -0.2194422 1
-2.4670999 1.0362551 -0.17177691 1
-2.4907317 1.9427913 -0.18607026 1
-2.521219 2.7674594 -0.033808626 3
-2.6078715 -2.4090168 0.078452282 4.3333335
-2.609576 -2.3763318 0.23203485 5.25
-2.6211598 2.4803412 0.25705719 5.5
-2.4406841 -2.4066751 0.69980508 9
-2.5987206 -2.3759685 0.4678694 7.5
-2.6241894 2.5161679 0.43579736 7
-2.207926 -2.4435518 -0.041167583 3
-2.0566139 -0.51289231 -0.18456088 0.75
-2.1040175 -0.3420046 -0.19036885 0.5
-2.3707998 1.198722 -0.17186825 1
-2.1636109 1.429513 -0.17051685 1
-2.2498236 2.1374347 -0.17187355 1.3333334
-2.2595837 2.9319646 -0.014433778 3
-2.2118227 -2.4014783 0.14183122 5
-2.1261015 -2.3825073 0.21817392 5.3333335
-2.12818 2.6615295 0.2417278 5.6999998
-2.1648259 -2.3796284 0.55743617 8.1999998
-2.2891605 2.5531075 0.40668276 7
-2.1521378 9.1175909 2.9179318 12
-2.0088191 7.1009283 7.217411 27
-1.6345783 -4.6189384 -0.26506877 2
-1.9326562 -3.2554371 -0.24302705 1
-1.9550619 -2.9614632 -0.2351639 1
-1.8487719 -2.4957235 -0.1262586 2
-1.8572199 -2.0494485 -0.20365281 1
-1.9284005 -1.8522096 -0.20122223 1
-1.6380385 0.76018858 -0.16897836 0
-1.6439948 0.99929249 -0.17430463 0.5
-1.7971802 2.1734378 -0.14835519 2
-1.7696767 3.5252888 -0.12572768 2
-1.6713672 -2.3717642 0.18539053 5
-1.9394059 3.0642807 0.025439721 3.5
-1.9122162 3.4023159 0.026341757 3
-1.6402793 -2.3573525 0.43889359 8
-1.7688286 7.1302958 7.1128497 26.5
-1.8653748 7.1196642 7.2168732 27
-1.6232339 7.1256595 7.6326523 28
-1.8561965 -26.637527 10.527224 15
-1.6255676 -26.6185 10.921241 15
-1.7880028 -26.631514 11.578231 16
-1.3554403 -4.8924422 -0.26853946 2
-1.3280425 -2.5777559 -0.23615362 0
-1.2477752 -2.3824842 -0.026066065 3
-1.4538752 1.3381425 -0.17755261 0.33333334
-1.4010586 1.6934042 -0.15983599 1
-1.4549305 2.2210906 -0.14521413 2
-1.3675251 -2.355706 0.21011965 5.5
-1.333747 -2.3466072 0.48304984 8.5
-1.2481897 7.174891 7.0502276 26
-1.397423 7.1432776 7.5077662 27.5
-1.4757541 7.1443992 7.6372828 28
-1.3106961 -26.610943 11.412762 15.5
-1.0220549 -3.7271245 -0.26426825 0
-1.11648 -3.5009849 -0.25902167 0
-0.91320652 -2.3707457 -0.022535654 3
-1.0975485 -1.9251657 -0.20051406 0
-1.0687648 1.3941581 -0.16412455 0
-1.1819293 1.7305802 -0.15690668 1
-1.0692147 2.0469573 -0.14926793 1
-1.0562074 2.6505492 -0.15217552 2
-0.97539485 -2.345861 0.19951434 5.5714288
-0.99060464 -2.3362725 0.43712366 8.5
-1.0664358 7.1824636 7.0236874 26
-1.1536462 7.1690192 7.221209 27
-0.61620301 -2.2894299 -0.10843987 1.6666666
-0.71520013 -1.9522679 -0.21011241 0
-0.5244422 1.837422 -0.14892058 1
-0.7858879 2.0181928 -0.14957744 1
-0.72302955 2.8433177 -0.14979716 2
-0.42887777 3.7289374 -0.13107564 2
-0.58128238 -2.3346827 0.18929912 5.5
-0.51997757 2.2621636 0.015306251 3.5
-0.76015007 -2.3357685 0.43672642 8.5
-0.1840952 -2.3127489 -0.095059082 1.6666666
-0.18833464 1.7609359 -0.15013027 1
-0.37574151 2.5059116 -0.020781748 3
-0.16392502 3.6993663 -0.13061625 2
-0.089962251 4.6127348 -0.09335725 3
-0.3224842 4.8272343 -0.086368963 3
-0.17439349 -2.3324518 0.15626352 5.0833335
-0.20616977 2.1105728 0.19939847 6.2307692
-0.17534456 -2.3311126 0.40301326 8
-0.1311702 8.7344303 3.5386214 15
-0.17728163 8.7279682 3.6496313 15
-0.23845179 7.2772231 4.2810049 19.333334
0.11301498 -4.1409287 -0.2559627 0
0.12246055 -2.7650816 -0.085969694 2
0.17949805 -2.3294191 -0.056464512 2
0.26301655 1.5832319 -0.15465012 0
0.15755911 1.6936662 -0.15172011 0.66666669
0.14229718 2.4985499 -0.14311624 2
0.11923957 4.4209266 -0.099345185 3
0.21978785 -2.3175642 0.2062338 6.0999999
0.047525868 2.2701011 0.021205345 4
0.19103357 -2.3290329 0.43452531 9
0.21347633 9.2829151 2.9779229 12.5
0.256459 9.2760649 3.8219171 15
0.28066403 7.3243065 4.2539005 19
0.30177581 -26.584778 13.331361 17
0.17013527 -26.624125 29.798853 29
0.67884219 -4.4395761 -0.25292784 2
0.41260651 -4.3378687 -0.24993661 2
0.70670921 -3.3819311 -0.23564273 0
0.58014452 1.5522453 -0.15192737 0.75
0.44521281 1.6294634 -0.15118371 1
0.60764951 2.9496639 -0.11354808 2
0.47971746 -2.4497344 0.026030896 4
0.50289547 9.3012094 3.0043683 12.666667
0.5413478 9.3008718 3.4443614 14
0.60899967 9.2907934 3.7606859 14.666667
0.75699574 -26.486481 13.717385 18
0.60786217 -26.598341 29.720379 29
0.93976033 -4.2286634 -0.24642813 2
0.84868503 -3.2130468 -0.23141491 0
1.076664 -2.8029191 -0.21500891 0
0.97238737 1.7234335 -0.1477655 1
0.88263917 3.1532176 -0.12913761 2
1.088816 3.2480528 -0.13218896 2
1.0022074 9.3447838 2.7192733 12
1.0585067 9.3453903 2.9587638 12.5
1.091459 9.1848001 3.3892984 14
1.0111804 9.2780781 3.6062884 14
0.97495866 7.1902728 6.7438197 26
0.88022459 7.3058057 6.4788055 25
1.0467143 -26.460346 9.0114021 13
0.83814842 -26.469492 9.3723917 13
1.067832 -26.456264 12.867401 17
0.90840369 -26.467379 13.308393 17
1.1259904 -26.429199 14.036405 18
0.88362217 -26.571138 29.720388 29
1.2564037 -1.3132491 -0.18473439 0
1.3190219 -0.95637536 -0.1802348 0
1.3612528 0.99096811 -0.15392517 1
1.2426257 2.2853849 -0.14144948 2
1.3036207 3.1138108 -0.12318006 2
1.5759099 -2.4634047 0.20874685 5.25
1.5552355 -2.3969226 0.26899427 6
1.5321714 2.4662809 0.14496882 5
1.5214844 2.5376542 0.4589504 7.5
1.4367501 -26.412046 8.1604223 12
1.226191 -26.438208 8.6054106 13
1.4127283 -26.417023 10.701423 15
1.3516304 -26.459021 13.727417 18
1.8555112 -3.2337515 -0.21560358 0
1.9599539 -3.0755265 -0.21160449 0
1.8329222 -2.0852876 -0.18861894 0
1.9276618 -1.7125381 -0.17851353 0
1.9847137 -1.5121911 -0.17362644 0
1.8692023 -0.075316787 -0.15835789 1
1.8282046 0.054813989 -0.1563842 1
1.7751971 0.87357855 -0.15060221 1
1.9165944 1.9764024 -0.13093518 2
1.8251866 2.2971623 -0.13834925 2
1.7940338 5.7589226 -0.059935957 3
1.7738266 -2.2361984 0.21934305 5.5
1.7888212 2.3671 0.19471841 5.25
1.6715918 2.4433002 0.21600156 5.5
1.9068463 -2.1100729 0.53803051 9
1.8558329 2.3846209 0.54835612 8.5
1.8149182 2.4296916 0.50066233 7.8571429
1.8367918 -26.346706 6.8524408 11
1.9812152 -26.379564 7.2784486 11
1.8318334 -26.389681 8.6274405 13
1.8910096 -26.367598 10.168445 14
1.6995682 -26.436728 12.925435 17
1.7035934 -26.433704 14.043435 18
2.008471 -10.21702 -0.11079471 3
2.1728795 -5.994905 -0.27488548 2
2.1717937 -5.1666002 -0.26591083 2
2.3357341 -3.9203837 -0.19596672 2
2.0461047 -2.9051001 -0.20665705 0
2.1983898 -2.1405511 -0.061877228 2.5999999
2.0284827 -0.99354482 -0.17319775 1
2.2264268 -0.20272076 -0.16037817 1
2.3125978 1.0142626 -0.14720526 1.5
2.2373209 1.2896986 -0.14677416 2
2.2084641 1.8671085 -0.14126906 2
2.2668638 -2.7855883 0.029970096 3
2.2489665 -2.0999374 0.21416439 5.5
2.0684316 -2.0942309 0.57188964 9
2.0188849 2.4117885 0.59093088 9
2.3905852 9.4149981 3.7120399 14
2.0554585 -26.427473 8.2164526 12
2.013351 -26.400494 9.3584518 13
2.4359412 -5.1238155 -0.26491889 2
2.6387961 -3.7065876 -0.13449548 2
2.4769721 -2.0772748 -0.075944297 2.5
2.4018986 -1.663595 -0.16911522 0
2.5197859 0.63489062 -0.14912705 1.3333334
2.5705488 0.86912417 -0.15069667 2
2.6142561 1.806509 -0.15896359 2
2.5902755 3.6019523 -0.1084623 3
2.52775 -2.1014137 0.19769163 5.1666665
2.4534228 9.4283037 2.5780275 11
2.5491705 9.45226 3.0472574 12.5
2.5369697 9.4302559 3.5100148 14
2.6755564 9.4355526 3.8469934 14.5
2.5884433 9.4198503 4.1400094 15
2.4293947 -26.312111 6.8494682 11
2.5657971 -26.350956 7.2934747 11
2.6791615 -26.413809 8.2714815 12
2.5989292 -26.356871 9.3544769 13
2.5177343 -26.371948 10.149473 14
2.7343991 -26.385635 13.427482 17
2.5349057 -26.474859 13.801474 18
3.0472445 3.1455154 -0.043387972 3
2.8394356 3.3694224 -0.063426539 3
2.842787 -2.0441861 0.28634563 6
3.0511379 -26.328354 8.6994953 13
2.8365719 -26.352606 9.0524883 13
2.9529743 -26.349379 13.04049 17
3.1274838 -26.39115 13.801497 18
2.8678005 -26.431463 14.076488 18
2.9660823 -26.369295 16.19449 20
3.4264939 -9.4818897 -0.082798772 3
3.5559726 -4.3191047 -0.19801758 2
3.5609722 -3.9285915 -0.19904616 2
3.2522099 -0.18256655 -0.15777612 2
3.5434937 0.74422222 -0.14378892 2
3.525238 -2.0614829 0.26926833 5.3333335
3.5020313 -2.0114696 0.50226444 7
3.4301345 -26.255859 9.0535088 13
3.2336721 -26.325083 10.649504 15
3.5695777 -26.210575 13.063512 17
3.4352589 -26.261738 14.014508 18
3.9829121 -1.8566868 -0.19231728 2
3.6572201 1.5710735 -0.13002217 2
3.7874753 3.5148511 -0.079574779 3
3.968621 -1.9739505 0.78370166 8
3.756995 -26.177385 10.050521 14
3.6969244 -26.185379 13.744518 18
4.0518575 -1.6668519 -0.19335537 2
4.2080941 3.3792396 -0.085085854 3
4.3501306 -2.0211232 0.25566062 5
4.1470346 -1.9820797 0.35418049 6
4.0861878 -2.0049424 0.46869153 6.5
4.2029619 -1.9684834 0.57042134 6.75
4.1914978 -1.9682631 0.8816728 8.5
4.6338501 -9.7816277 -0.14580749 3
4.5061984 -2.3681858 -0.19630904 2
4.5541649 -0.63729769 -0.17461045 2
4.5668368 -1.9602269 0.2806237 5.1999998
4.5711021 -1.9276887 0.60636806 6.75
4.6138186 -12.763444 0.94778264 5.5
4.4935436 -11.620839 0.93425238 5
4.6188631 -1.9427766 0.92528093 8.333333
4.5257187 -11.721272 1.4167548 6.5
4.5938153 -12.76546 1.8417828 7.5
4.5277729 -11.755762 1.8492557 8
4.5465341 -12.528977 2.3782768 9
4.4818082 -11.864903 2.4032595 9
4.610939 7.5913053 9.58922 28
4.7109637 7.6888614 9.5449314 28
4.6028786 -29.684834 33.458603 28
4.6279507 -29.639763 34.335602 29
5.0353842 -3.6903389 -0.069207318 3
5.0034099 -2.0317345 -0.06142145 3
4.8614788 0.24201211 -0.13184492 2
4.9902358 7.7631121 9.1051273 27
5.0925236 7.5867391 9.4621611 27
5.032383 7.5853462 9.6311693 28
5.1348248 -29.548445 15.286618 17
4.8836703 -29.700403 33.103615 28
4.9408092 -29.645294 33.596615 29
5.3514404 -12.980088 -0.10771738 3
5.3250928 -3.8963313 -0.2052156 2
5.3546538 -3.3570645 -0.21128136 2
5.3894057 -0.62770867 -0.12922843 3
5.2957406 3.6483648 -0.081788041 3
5.2279654 -29.575434 10.292624 13
5.20608 -29.741405 13.193624 16
5.4436288 -29.503952 14.928628 17
5.2111053 -29.645315 15.900621 18
5.5329094 -29.526785 15.640631 18
5.2596974 -29.646772 33.51762 28
5.2877502 -29.594721 33.571621 29
5.80299 3.3687375 -0.085772939 3
5.8204761 -29.448452 9.5466375 12
5.9017444 -29.492294 10.317641 13
5.6009498 -29.510803 10.577634 13
5.669127 -29.466663 11.309634 14
5.7012334 -29.466593 11.959635 15
5.8337016 -29.498272 15.364637 17
5.8527832 -29.516228 15.879639 18
5.747046 -29.641939 33.499638 28
5.9124584 -29.561634 33.539639 28
5.978672 -29.598509 33.850639 29
6.0263777 1.3767842 -0.1097776 3
6.0042706 1.8419876 -0.10339268 3
6.3789215 2.3585062 -0.048575111 3
6.1833887 2.6090677 -0.053616151 3
6.1645122 2.3668699 0.24261679 4.3333335
6.1328249 3.7001548 0.31409702 4.3333335
6.1291995 4.2621932 0.34544441 4.5
6.1736193 5.205759 0.12268102 4
6.1447563 2.3612869 0.51145399 6
6.1295605 3.7305787 0.54558903 5.5
6.0678163 4.3164692 0.52368689 5.5
6.1925039 -29.470787 10.003648 13
6.1575608 -29.473705 15.037645 17
6.2077117 -29.481594 15.697646 18
6.2113175 -29.640112 33.121647 28
6.2814898 -29.577946 33.911648 29
6.524353 -29.421183 9.6296539 13
6.5983739 7.6867409 9.8029537 26.5
6.5265489 -29.453012 15.449656 17
6.5245934 -29.502008 15.928658 18
6.5923414 -29.585367 33.703659 28
6.6665473 -29.562206 34.103657 29
6.9757185 7.8798928 9.2268562 25
6.8676929 7.7670937 9.6069002 26
6.8792953 -29.388487 10.056662 13
6.8764749 -29.44635 15.160663 17
6.8804965 -29.426319 15.753663 18
6.8344259 -29.462379 16.95266 19
7.1358232 -29.585297 33.541668 28
6.9643555 -29.55962 34.115665 29
7.4778123 7.8041224 9.6238165 25
7.4846468 7.7321253 10.009837 26
7.5170403 7.4401746 11.654912 28
7.5763345 -29.40291 15.839674 18
7.5673566 -29.419897 16.972673 19
7.5458913 -29.540451 33.16267 28
7.2630196 -29.296951 34.381664 29
7.6357594 7.8441901 9.5657883 25
7.8570991 7.7660079 9.7397823 25
7.7081594 7.7366056 10.225809 26
7.7000117 7.5724678 11.194854 27
7.8190036 7.4565706 11.454371 27.5
7.9362712 -29.395155 15.66468 18
7.7532625 -29.232935 33.220669 28
7.9177046 -29.171524 34.388672 29
8.2146854 7.5967016 0.16878596 4
8.2509584 7.7831864 10.596733 26
8.3292589 -29.345291 15.419683 17
8.2630987 -29.340422 15.912682 18
8.0293179 -28.989799 17.541674 19
8.2917957 -29.322727 34.338684 29
8.6630125 7.5765076 11.26874 27
8.65312 7.6625943 11.209717 26
8.5136499 -29.176815 15.983681 18
8.7331247 -28.940191 17.592676 19
8.621439 -28.966871 34.410679 29
9.0541172 -29.296608 15.55369 17
8.9518452 -29.265827 15.987688 18
9.1843109 -29.060215 16.011683 18
9.4589787 -28.920448 17.66868 19
9.7909708 -29.2458 15.703691 17
9.6455498 -29.152119 16.053686 18
9.6342564 -28.730986 16.757679 18
10.080696 -29.224051 16.00869 18
10.387458 -29.192242 16.209688 18
10.542839 -29.197851 15.87069 17
11.10387 10.011439 2.6367836 8
10.994592 9.9357958 3.5568175 10
10.871487 9.9300871 3.9508338 11
11.427568 -1.6678079 0.46864545 4
11.340251 9.9197721 2.7677801 9
11.262658 9.9663839 2.8307769 9
11.516794 9.8047333 3.2067897 10
11.415181 9.8562765 3.6167881 10
11.396191 9.962431 4.0597615 11
12.015231 -29.207031 10.745683 13
12.233718 -29.073269 12.287675 14
12.078424 -29.129715 13.047678 15
12.193694 -29.223526 34.107674 28
12.717761 -29.019884 10.81067 13
12.427104 -29.020716 11.488674 14
12.689404 -28.962187 16.550665 18
12.543641 -29.349556 34.053684 28
13.142161 8.0792837 5.6290569 14
13.050517 -28.664938 16.485651 18
13.105585 -28.498112 18.028645 19
12.955503 -29.16721 34.266663 28
13.436389 8.1921587 5.08149 12.5
13.249361 8.0819979 6.125042 15
13.28337 -29.276264 34.208664 28
13.705711 8.2858028 4.267931 11
13.786621 -28.53956 16.615633 18
13.836152 -28.354723 18.096626 19
15.117202 -28.956255 11.237618 13
15.252365 -1.4762893 0.6130811 4
15.436914 -28.888067 12.625606 14
15.636288 -28.902475 11.147602 13
15.940969 -28.914429 11.390594 13
15.792625 -28.867886 11.793595 14
16.376972 -28.977959 11.571581 13
16.266651 -28.823162 12.727578 14
16.535294 -28.97641 11.369576 13
16.666437 -28.804789 11.883565 14
16.740667 -28.785418 13.65956 15
34.393265 -26.593321 22.188158 17
34.398705 -25.707245 25.191067 19
34.511208 -26.412195 24.311127 19
