# .PCD v0.7 - Point Cloud Data file format
VERSION 0.7
FIELDS x y z intensity
SIZE 4 4 4 4
TYPE F F F F
COUNT 1 1 1 1
WIDTH 1122
HEIGHT 1
VIEWPOINT 0 0 0 1 0 0 0
POINTS 1122
DATA ascii
-1.0802045 -4.7335553 -0.26552325 0
-1.3177044 -4.6251774 -0.26164433 0
-1.0574746 -4.6224318 -0.26326355 0
-1.2866682 -4.5207191 -0.25955981 0
-1.0395403 -4.5347528 -0.26148063 0
-0.70499998 -4.527 -0.25400001 0
-1.2609272 -4.4340839 -0.25783095 0
-1.021606 -4.4470735 -0.25969768 0
-0.69973242 -4.4839945 -0.25313517 0
-1.2351863 -4.3474483 -0.25610206 0
-1.0036716 -4.3593946 -0.25791472 0
-0.68429929 -4.357996 -0.25060138 0
-0.37200001 -4.3372259 -0.24595539 0
-1.2094455 -4.2608128 -0.25437319 0
-0.98573732 -4.2717156 -0.25613177 0
-0.66886622 -4.231997 -0.24806759 0
-0.37200001 -4.2643013 -0.24527386 0
-0.25944051 -4.26263 -0.244 0
-0.166493 -4.2429028 -0.24292466 0
0.10919161 -4.214365 -0.23888206 0
0.2082182 -4.2287445 -0.23863633 0
0.4027715 -4.2334824 -0.23672184 0
0.50400001 -4.25 -0.235 0
0.69700003 -4.2080002 -0.23100001 0
-1.1837045 -4.1741772 -0.25264433 0
-0.967803 -4.1840367 -0.25434884 0
-0.65857744 -4.1479983 -0.24637839 0
-0.37200001 -4.162075 -0.24431846 0
-0.15224651 -4.1474514 -0.24221233 0
-0.039075721 -4.1542053 -0.23791835 0
0.11148603 -4.1229415 -0.23747014 0
0.20929094 -4.1389923 -0.23684844 0
0.3959271 -4.1247473 -0.23517217 0
0.49526346 -4.146472 -0.2332527 0
0.68755633 -4.1391449 -0.22992414 0
-1.1450932 -4.0442238 -0.25005102 0
-0.94090146 -4.0525184 -0.25167441 0
-0.64828873 -4.0639992 -0.2446892 0
-0.046777092 -4.0582018 -0.23763373 0
0.11358882 -4.0391531 -0.2361761 0
0.21014546 -4.0674963 -0.23542422 0
0.39031121 -4.0355287 -0.23390065 0
0.4848423 -4.0229812 -0.23116846 0
0.67596364 -4.0546207 -0.22860345 0
-1.1064818 -3.9142709 -0.24745774 0
-0.91399997 -3.921 -0.249 0
-0.63800001 -3.98 -0.243 0
-0.093638547 -3.9613509 -0.23581687 0
0.11569162 -3.9553649 -0.23488209 0
0.211 -3.9960001 -0.234 0
0.38469532 -3.9463103 -0.23262912 0
0.47789487 -3.9406543 -0.22977898 0
0.66437089 -3.9700966 -0.22728276 0
-1.0807408 -3.8276353 -0.24572887 0
0.11779441 -3.8715765 -0.23358805 0
0.37907943 -3.8570919 -0.2313576 0
0.47094741 -3.8583272 -0.22838949 0
0.64698178 -3.8433104 -0.22530173 0
-1.6236824 -3.7053311 -0.20825022 0
-1.0549999 -3.7409999 -0.244 0
0.12094861 -3.7458942 -0.23164701 0
0.37346354 -3.7678735 -0.23008609 0
0.46399999 -3.776 -0.227 0
0.62959272 -3.7165241 -0.22332069 0
-1.5895119 -3.6242485 -0.21693766 0
0.36784768 -3.6786551 -0.22881456 0
0.61799997 -3.632 -0.222 0
-1.5553412 -3.5431657 -0.22562511 0
0.35942385 -3.5448275 -0.22690728 0
-1.5211706 -3.4620829 -0.23431256 0
0.35100001 -3.411 -0.22499999 0
-1.487 -3.381 -0.243 0
-1.9349999 -2.425 -0.204 0
-1.8721819 -2.3429542 -0.2049554 0
-3.313 -2.2260001 -0.22499999 0
-3.2998781 -2.2172751 -0.22501718 0
-1.7904439 -2.2361975 -0.20619857 0
-3.2247903 -2.1673477 -0.22511545 0
-3.1497025 -2.1174202 -0.22521374 0
-1.7359519 -2.1650264 -0.20702735 0
-3.0746148 -2.0674925 -0.22531202 0
-2.999527 -2.017565 -0.2254103 0
-1.6542139 -2.05827 -0.20827051 0
-2.9244392 -1.9676375 -0.22550859 0
-2.8493514 -1.9177101 -0.22560686 0
-1.5724759 -1.9515133 -0.20951366 0
-1.2709999 -1.959 -0.2105 0
-2.7742634 -1.8677826 -0.22570515 0
-2.6991756 -1.8178551 -0.22580343 0
-1.517984 -1.8803422 -0.21034245 0
-1.463492 -1.8091711 -0.21117122 0
-2.6240878 -1.7679275 -0.22590171 0
-2.549 -1.7180001 -0.226 0
-1.409 -1.738 -0.212 0
-2.335 -0.94199997 -0.207 0
-2.2698166 -0.91611832 -0.20564201 0
-2.332 -0.87800002 -0.206 0
-2.2489452 -0.84721959 -0.20453924 0
-2.1374977 -0.84448546 -0.20279883 0
-2.0195444 -0.81674552 -0.20042801 0
-2.335 -0.755 -0.204 0
-2.2837842 -0.73861593 -0.20299944 0
-2.1984749 -0.71132529 -0.20133284 0
-2.0392554 -0.76950794 -0.20085123 0
-2.3139999 -0.63 -0.20200001 0
-2.2797298 -0.62064976 -0.20132306 0
-4.0781822 -0.14471292 -0.21403828 0
-3.9813237 -0.14115632 -0.2145125 0
-3.8477631 -0.13625202 -0.21516639 0
-3.7142024 -0.1313477 -0.21582031 0
-3.6251619 -0.12807816 -0.21625625 0
-3.5361214 -0.12480862 -0.21669218 0
-3.4470811 -0.12153908 -0.21712811 0
-3.3580406 -0.11826954 -0.21756406 0
-3.2690001 -0.115 -0.21799999 0
-4.0330591 0.042928793 -0.2139644 0
-3.9124384 0.042651184 -0.2138256 0
-3.8227587 0.042444784 -0.21372239 0
-3.733079 0.042238388 -0.21361919 0
-3.643399 0.042031989 -0.213516 0
-3.5537193 0.041825593 -0.21341279 0
-3.4640393 0.041619193 -0.2133096 0
-3.3743596 0.041412797 -0.2132064 0
-3.2846797 0.041206397 -0.2131032 0
-3.1949999 0.041000001 -0.213 0
-3.227 0.199 -0.21600001 0
-4.1573372 0.23500676 -0.22183894 0
-4.0412064 0.23051217 -0.22111009 0
-3.9507389 0.22701082 -0.2205423 0
-3.8602717 0.22350946 -0.21997452 0
-3.7698042 0.22000811 -0.21940672 0
-3.6793368 0.21650676 -0.21883895 0
-3.5888696 0.21300541 -0.21827115 0
-3.4531684 0.20775339 -0.21741948 0
-3.3174675 0.20250136 -0.2165678 0
-4.7010002 0.72100002 -0.208 0
-3.6707723 1.3837583 -0.21146333 0
-3.5509429 1.3329396 -0.21561582 0
-3.9104311 1.4853957 -0.20315832 0
-3.8305449 1.4515165 -0.20592666 0
-3.7506585 1.4176373 -0.20869499 0
-3.9903173 1.5192748 -0.20038998 0
-4.0479999 -4.3959999 -0.17 0
-3.9895856 -4.330214 -0.15771402 0
-3.9311714 -4.2644281 -0.14542806 0
-3.8435502 -4.1657495 -0.1269991 0
-3.755929 -4.067071 -0.10857014 0
-1.7711823 -4.0553312 -0.17075023 0
-1.7261943 -3.9485795 -0.1821879 0
-1.6920236 -3.8674967 -0.19087534 0
-1.657853 -3.7864139 -0.19956279 0
1.7623091 -2.9340012 -0.18984111 0
1.7449578 -2.8299384 -0.18779847 0
1.6642134 -2.7727518 -0.18751167 0
1.7428324 -2.7539132 -0.1861876 0
1.572809 -2.6225011 -0.1853411 0
1.6544161 -2.6617348 -0.1852404 0
1.7691689 -2.6538513 -0.1844967 0
-1.605 -2.5439999 -0.105 0
-1.5783153 -2.5013816 -0.11319879 0
1.354 -2.5179999 -0.189 0
1.5271068 -2.5473759 -0.18425582 0
1.6438189 -2.5323234 -0.18284015 0
-1.6075695 -2.4238257 -0.10528464 0
-1.5328417 -2.4287558 -0.1271704 0
1.3121386 -2.4435194 -0.1760882 0
1.4814044 -2.4722507 -0.18317056 0
1.5549282 -2.4602485 -0.1820804 0
1.6373867 -2.4597855 -0.18145849 0
-1.5610596 -2.3525651 -0.12024397 0
-1.487368 -2.3561296 -0.141142 0
1.2702773 -2.3690386 -0.16317642 0
1.39 -2.322 -0.18099999 0
1.4483392 -2.3552709 -0.18105604 0
1.5458952 -2.3642714 -0.18020892 0
2.2920001 -2.345 -0.169 0
-1.5145496 -2.2813041 -0.1352033 0
-1.454967 -2.2467737 -0.15263812 0
-1.3964208 -2.2108779 -0.1690852 0
1.1865544 -2.2200775 -0.13735284 0
1.2284158 -2.294558 -0.15026462 0
1.4531734 -2.2430983 -0.17855731 0
2.1691895 -2.220072 -0.16794129 0
2.2439847 -2.2432225 -0.16799597 0
2.3050001 -2.25 -0.168 0
-1.4215298 -2.1387825 -0.16512197 0
-1.3509471 -2.1382518 -0.1830568 0
1.1446931 -2.1455967 -0.12444104 0
1.444 -2.175 -0.177 0
2.1477423 -2.1468575 -0.16712186 0
2.2906787 -2.1333618 -0.16756094 0
2.3310001 -2.1719999 -0.168 0
-1.3402467 -2.0665736 -0.18855485 0
1.1028317 -2.0711162 -0.11152925 0
1.9781263 -2.0257146 -0.16629419 0
2.0507894 -2.0513058 -0.16619718 0
2.1439414 -2.0431457 -0.166186 0
2.2268438 -2.0721915 -0.16686581 0
2.3137197 -2.0571046 -0.16596633 0
-1.3285099 -1.9962608 -0.19504066 0
1.9545469 -1.9549407 -0.16532308 0
2.0991743 -1.9498512 -0.16547558 0
2.1753516 -1.9349673 -0.16454613 0
2.2555737 -1.9594667 -0.16400138 0
2.3069999 -1.957 -0.163 0
1.309 -1.839 -0.17299999 0
1.7870631 -1.8313574 -0.1646471 0
1.8575939 -1.8593891 -0.1643984 0
1.9505253 -1.8566523 -0.16416809 0
2.0378015 -1.8522032 -0.16397002 0
2.1462982 -1.8503073 -0.16270839 0
2.2915621 -1.8541775 -0.16185577 0
2.3285 -1.8395 -0.16249999 0
1.2625201 -1.7454939 -0.17181955 0
1.317 -1.763 -0.17 0
1.6596876 -1.7017858 -0.16354904 0
1.7613516 -1.7630239 -0.16352427 0
1.8438349 -1.7051703 -0.16269511 0
1.9401947 -1.7612226 -0.16292828 0
2.0628347 -1.7512301 -0.16150892 0
2.1523261 -1.7423602 -0.16099893 0
2.226789 -1.7598734 -0.16164479 0
2.3027129 -1.7759128 -0.16259499 0
1.1878514 -1.6295788 -0.17120838 0
1.2495152 -1.6323919 -0.16949999 0
1.3258618 -1.6490227 -0.16897392 0
1.596 -1.637 -0.163 0
1.6691092 -1.6331588 -0.16165017 0
1.7571092 -1.6701589 -0.16215016 0
1.8376319 -1.6368628 -0.16107979 0
1.9418093 -1.6752763 -0.16117881 0
2.0617578 -1.6432012 -0.16036975 0
2.1605546 -1.6670433 -0.16112943 0
3.7486405 -1.6432626 -0.10507128 0
1.0880001 -1.53 -0.17200001 0
1.1414258 -1.5660396 -0.17110419 0
1.2416043 -1.5434153 -0.16883588 0
1.3549838 -1.5425692 -0.16701294 0
1.604 -1.5700001 -0.161 0
1.7538589 -1.5384244 -0.15997203 0
1.8656356 -1.5484204 -0.15976986 0
1.9453944 -1.5391867 -0.1593224 0
2.0530381 -1.5455489 -0.15310359 0
2.1140001 -1.552 -0.146 0
3.55 -1.553 -0.121 0
3.629456 -1.589105 -0.11462852 0
1.1378405 -1.4497557 -0.16905598 0
1.2545532 -1.474568 -0.16774881 0
1.3575646 -1.4609216 -0.1665 0
1.6435 -1.4315 -0.15899999 0
1.7275451 -1.4348068 -0.1589233 0
1.8402369 -1.4560608 -0.15852758 0
1.95112 -1.4339494 -0.14936221 0
2.0466406 -1.454867 -0.14671504 0
2.1152389 -1.4307423 -0.1450818 0
1.1552459 -1.3581423 -0.16791989 0
1.2463253 -1.3527641 -0.16666667 0
1.3602026 -1.3633018 -0.16430765 0
1.665 -1.351 -0.15800001 0
1.7340792 -1.3404348 -0.15673278 0
1.8474934 -1.3588831 -0.1525268 0
1.9631824 -1.3398932 -0.14804101 0
2.0489032 -1.3287523 -0.14647549 0
2.1314254 -1.3463894 -0.1450479 0
2.7864134 -1.3206338 -0.14579715 0
2.8329999 -1.342 -0.146 0
1.163 -1.253 -0.1665 0
1.2581892 -1.261137 -0.1646778 0
1.3509881 -1.2614088 -0.16311044 0
1.4005001 -1.2465 -0.162 0
1.6705 -1.2609999 -0.15549999 0
1.7501394 -1.2400765 -0.15338449 0
1.8493471 -1.2521688 -0.15022124 0
1.9518297 -1.2340376 -0.14838922 0
2.3813887 -1.2335002 -0.1398351 0
2.4854791 -1.2607709 -0.13785483 0
2.5455084 -1.2101461 -0.14474823 0
2.6258101 -1.2469753 -0.14509787 0
2.7061117 -1.2838045 -0.14544751 0
1.1824999 -1.158 -0.1645 0
1.242996 -1.1604695 -0.16337015 0
1.3390635 -1.1629285 -0.16169621 0
1.41 -1.1670001 -0.161 0
1.6783848 -1.1496083 -0.1540183 0
1.7567029 -1.1634878 -0.15254033 0
1.8456169 -1.1675929 -0.15036526 0
2.141243 -1.1140627 -0.14364694 0
2.2554913 -1.1333179 -0.14131558 0
2.351964 -1.1611102 -0.14138673 0
2.4628968 -1.15825 -0.1380963 0
1.193 -1.087 -0.163 0
1.2335804 -1.0463507 -0.1618614 0
1.3524437 -1.0489014 -0.16067348 0
1.426 -1.0700001 -0.16 0
1.559866 -1.0696186 -0.1562912 0
1.704 -1.079 -0.153 0
1.9811459 -1.0344377 -0.14618817 0
2.0611944 -1.0742501 -0.14491755 0
2.1368897 -1.028986 -0.14287673 0
2.2376237 -1.0537082 -0.1406022 0
2.3541081 -1.0722736 -0.13837141 0
2.4612665 -1.0607746 -0.13305572 0
1.2535998 -0.94048536 -0.16085771 0
1.3843849 -0.9442749 -0.15835164 0
1.4545773 -0.99441242 -0.15752746 0
1.581679 -0.90735489 -0.15398456 0
1.6480185 -0.9420324 -0.15247685 0
1.7282915 -0.9269824 -0.15034842 0
1.8554802 -0.93280065 -0.14761539 0
1.9480747 -0.95306206 -0.14548476 0
2.0522513 -0.97054064 -0.1431637 0
2.1349754 -0.94980073 -0.14031717 0
2.2556076 -0.96856308 -0.13724713 0
2.4630001 -0.92799997 -0.132 0
1.244 -0.84399998 -0.16 0
1.3141924 -0.89413744 -0.15917581 0
1.449 -0.838 -0.15700001 0
1.5499612 -0.84907109 -0.15409458 0
1.6513745 -0.86369711 -0.15154527 0
1.72541 -0.81554586 -0.14856917 0
1.850639 -0.84839022 -0.1460464 0
1.9715111 -0.84118301 -0.14303714 0
2.0526814 -0.8775773 -0.14138286 0
2.1338208 -0.80709499 -0.13861889 0
2.2171848 -0.83771396 -0.13694267 0
2.3469868 -0.85260344 -0.13428842 0
2.4649999 -0.86299998 -0.132 0
2.5946891 -0.81695199 -0.13199209 0
2.6559999 -0.83600003 -0.131 0
-1.94575 -0.76102233 -0.19903302 0
-1.8620999 -0.72891784 -0.19742641 0
-1.7692722 -0.71737278 -0.195214 0
1.4677732 -0.73279709 -0.15381242 0
1.5550679 -0.75702268 -0.15214363 0
1.645468 -0.77677786 -0.14999937 0
1.7272897 -0.73170823 -0.14801222 0
1.8464494 -0.74181616 -0.14499664 0
1.9670925 -0.745857 -0.14197133 0
2.0553265 -0.74568856 -0.13998716 0
2.1434953 -0.74537635 -0.138099 0
2.2436588 -0.73666048 -0.13591149 0
2.3622329 -0.73889446 -0.1333732 0
2.4355502 -0.74774116 -0.13210419 0
2.5339718 -0.75540477 -0.13133262 0
2.6199999 -0.759 -0.12899999 0
-2.1131654 -0.68403459 -0.19966623 0
-2.0278561 -0.65674394 -0.19799963 0
-1.9425468 -0.6294533 -0.19633302 0
-1.8572375 -0.60216266 -0.19466642 0
-1.7456897 -0.66071165 -0.19568801 0
-1.6360494 -0.64981914 -0.19289641 0
-1.5190001 -0.61799997 -0.19 0
1.256 -0.611 -0.156 0
1.3321822 -0.64619803 -0.15487495 0
1.443022 -0.64620835 -0.15327844 0
1.5454606 -0.68263578 -0.15161622 0
1.666593 -0.66164076 -0.1484955 0
1.7205 -0.64600003 -0.14649999 0
1.843351 -0.64295042 -0.14360857 0
1.9553639 -0.6378842 -0.141633 0
2.0543647 -0.63242275 -0.13904274 0
2.1401434 -0.65834093 -0.13749093 0
2.2455742 -0.64440018 -0.13433239 0
2.3438013 -0.64727777 -0.13260967 0
2.4278145 -0.63647121 -0.12987264 0
2.5464001 -0.64395118 -0.1274828 0
2.6040001 -0.69 -0.127 0
-2.3680625 -0.57966316 -0.19968937 0
-2.2577722 -0.55575317 -0.19856544 0
-2.1530714 -0.55761915 -0.19806817 0
-2.0532136 -0.52243143 -0.19632919 0
-1.934961 -0.52658319 -0.19451281 0
-1.8487687 -0.50306654 -0.19281025 0
-1.7719281 -0.57487196 -0.19299981 0
-1.6439641 -0.53393602 -0.1904999 0
-1.536 -0.583 -0.192 0
1.263 -0.54100001 -0.156 0
1.3401449 -0.57268745 -0.15467279 0
1.4809999 -0.551 -0.156 0
1.5529746 -0.54874563 -0.15087707 0
1.6521242 -0.54465586 -0.14801283 0
1.7355238 -0.55099183 -0.14508229 0
1.8561317 -0.53745764 -0.14230576 0
1.9642714 -0.55475003 -0.13979344 0
2.0395322 -0.53543323 -0.13753651 0
2.1450267 -0.54750454 -0.13522775 0
2.259872 -0.55224615 -0.1324871 0
2.3526523 -0.55858606 -0.13019384 0
2.4138541 -0.56014335 -0.12876165 0
2.5887787 -0.50056469 -0.12604003 0
-1.9575429 -0.48056534 -0.19499284 0
-1.8528222 -0.45543557 -0.19390303 0
-1.752277 -0.44260913 -0.1924479 0
-1.6500996 -0.42018858 -0.19078906 0
-1.5367308 -0.44483888 -0.18723421 0
1.4543333 -0.46333334 -0.15233333 0
1.545911 -0.45244336 -0.15011179 0
1.6655861 -0.4534229 -0.14575075 0
1.7382939 -0.44227964 -0.14351502 0
1.8397499 -0.44890094 -0.14114211 0
1.9492193 -0.46333361 -0.13859648 0
2.0337582 -0.44995916 -0.13623714 0
2.1458869 -0.44514179 -0.13333039 0
2.253623 -0.44169801 -0.13111077 0
2.3554893 -0.43670174 -0.12844616 0
2.4307995 -0.45843196 -0.12831691 0
2.5448968 -0.4297919 -0.1268115 0
-1.5505 -0.38099998 -0.19049999 0
1.4586667 -0.35099998 -0.152 0
1.5595629 -0.34632564 -0.1475157 0
1.6643606 -0.36087969 -0.14406803 0
1.7487991 -0.33464497 -0.14131321 0
1.8564664 -0.34015799 -0.13903277 0
1.9544508 -0.35476339 -0.13684377 0
2.0690322 -0.3544057 -0.13442698 0
2.1608584 -0.35516012 -0.13224979 0
2.2484818 -0.36986327 -0.13047427 0
2.356101 -0.35099024 -0.12751293 0
2.4808781 -0.3024925 -0.12640725 0
2.5639999 -0.31299999 -0.125 0
1.4405 -0.25550002 -0.15000001 0
1.5411435 -0.24807107 -0.14662275 0
1.6589098 -0.23567222 -0.14189772 0
1.7315606 -0.25108191 -0.14100602 0
1.8450997 -0.24422598 -0.13788243 0
1.9509271 -0.2683377 -0.13575082 0
2.0419667 -0.25878668 -0.13383484 0
2.1416445 -0.24954677 -0.1305172 0
2.2296524 -0.2603755 -0.12874173 0
2.3377299 -0.26916566 -0.12656327 0
1.4488131 -0.15652262 -0.14779346 0
1.548255 -0.15799801 -0.14465962 0
1.6330407 -0.14371237 -0.14027184 0
1.7465611 -0.1544424 -0.13739423 0
1.8776221 -0.16738479 -0.13428847 0
1.9636145 -0.15152214 -0.1325736 0
2.0507131 -0.13392796 -0.13076073 0
2.1393557 -0.14031354 -0.12881288 0
2.2279983 -0.14669913 -0.12686503 0
2.3187606 -0.16338982 -0.12427811 0
2.4106648 -0.12821577 -0.124891 0
2.5063138 -0.13367543 -0.12310611 0
1.4348001 -0.050700981 -0.14660931 0
1.5708396 -0.020676009 -0.14139149 0
1.6546807 -0.063066736 -0.13892713 0
1.7598816 -0.060775999 -0.13658707 0
1.8471891 -0.064796351 -0.13460462 0
1.9295462 -0.050303247 -0.13252722 0
2.021796 -0.062115043 -0.12851755 0
2.1531348 -0.067849562 -0.12537283 0
2.2892368 -0.073792033 -0.12211405 0
1.391 0.072999999 -0.146 0
1.4421326 0.026854606 -0.14541243 0
1.5577458 0.0582086 -0.14085482 0
1.6585964 0.032622918 -0.13713124 0
1.7481928 0.033245835 -0.13526249 0
1.8377892 0.033868756 -0.13339373 0
1.9273856 0.034491673 -0.13152498 0
2.0169818 0.03511459 -0.12965623 0
2.1513765 0.036048967 -0.12685309 0
2.2857709 0.036983345 -0.12404997 0
2.3753674 0.037606262 -0.12218121 0
2.4319999 0.037999999 -0.121 0
1.566 0.146 -0.141 0
1.6519701 0.15151975 -0.13796414 0
1.7379403 0.15703951 -0.13492827 0
1.8239104 0.16255926 -0.13189241 0
1.9528656 0.17083889 -0.12733862 0
2.0818207 0.17911851 -0.12278482 0
2.1783953 0.18531914 -0.11937448 0
3.0470643 0.28849563 -0.11358029 0
1.789 0.382 -0.132 0
1.8646815 0.39410904 -0.12873988 0
3.1822572 0.30498254 -0.10932118 0
3.2723856 0.31597382 -0.10648176 0
3.362514 0.32696512 -0.10364234 0
3.4526424 0.3379564 -0.10080293 0
-1.375 0.48699999 -0.177 0
1.484 0.43149999 -0.13800001 0
1.5612139 0.45153242 -0.13578099 0
1.6554838 0.47758913 -0.13390489 0
1.7416871 0.49355671 -0.12809511 0
1.940363 0.40621805 -0.12547974 0
2.0538855 0.42438161 -0.12058956 0
2.1140001 0.43399999 -0.118 0
2.9649999 0.49700001 -0.114 0
-1.6089677 0.57774216 -0.177981 0
-1.5309784 0.54749477 -0.177654 0
-1.4373951 0.55129647 -0.1766635 0
-1.346 0.55199999 -0.176 0
1.256 0.58999997 -0.145 0
1.381 0.59500003 -0.13699999 0
1.473 0.5 -0.13699999 0
1.5543295 0.52518398 -0.13418531 0
1.635659 0.55036795 -0.13137063 0
1.7349942 0.54077601 -0.13077798 0
1.8242494 0.51507562 -0.12546013 0
1.9480929 0.54735398 -0.12150767 0
2.0580001 0.57599998 -0.118 0
3.053802 0.51325136 -0.11100124 0
3.1426039 0.52950269 -0.10800248 0
3.2314057 0.54575402 -0.10500372 0
3.3202078 0.5620054 -0.10200496 0
-1.8474677 0.67024219 -0.17898101 0
-1.7649461 0.63823694 -0.178635 0
-1.6680808 0.64668608 -0.177154 0
-1.5734035 0.65203691 -0.176 0
-1.4801265 0.65368199 -0.17561026 0
-1.3489127 0.63191819 -0.17430513 0
-1.28 0.676 -0.17299999 0
1.235 0.65399998 -0.145 0
1.3515171 0.65709096 -0.13945243 0
1.4598846 0.65941799 -0.13512307 0
1.5564144 0.66078043 -0.13512057 0
1.7983179 0.60073596 -0.12574127 0
1.8796474 0.62591994 -0.12292659 0
1.9609768 0.65110391 -0.12011191 0
2.0220001 0.67000002 -0.118 0
-5.0492339 0.78906393 -0.14468473 0
-4.9621754 0.77204794 -0.16051355 0
-4.8751173 0.75503194 -0.17634237 0
-4.7880588 0.73801601 -0.19217119 0
-1.7560029 0.73236406 -0.176 0
-1.6143012 0.76434553 -0.17644106 0
-1.5288606 0.76106584 -0.17555311 0
-1.4394968 0.75574839 -0.17451695 0
-1.344077 0.74974227 -0.17360231 0
-1.251 0.74000001 -0.17299999 0
1.1702499 0.75300002 -0.14275001 0
1.2410434 0.77660197 -0.14078845 0
1.3389473 0.76355553 -0.1390776 0
1.4418088 0.77137798 -0.13816848 0
1.5462073 0.73204774 -0.13099584 0
1.6486038 0.72219056 -0.13199793 0
1.7310621 0.73289084 -0.13062081 0
1.8361551 0.78222716 -0.12555201 0
-5.223351 0.82309592 -0.1130271 0
-5.1362925 0.80607992 -0.12885591 0
-1.808 0.861 -0.178 0
-1.765952 0.84001827 -0.17766158 0
-1.6844342 0.83877641 -0.17692184 0
-1.5989935 0.83549678 -0.1760339 0
-1.444514 0.84902596 -0.17411534 0
-1.3644919 0.8939597 -0.17146863 0
-1.252373 0.8234899 -0.17111716 0
1.0930001 0.884 -0.141 0
1.144483 0.85802215 -0.14042382 0
1.2474015 0.8576659 -0.13752121 0
1.3550028 0.85181522 -0.13507153 0
1.4616766 0.86495721 -0.13300261 0
1.5495735 0.8473264 -0.13300754 0
1.6603339 0.84566456 -0.13038179 0
1.7357001 0.83968133 -0.12458163 0
1.8566219 0.87014318 -0.11898755 0
1.940416 0.85685444 -0.11882774 0
-1.9179869 0.99499345 -0.17906782 0
-1.8382385 0.95511925 -0.17830934 0
-1.7584902 0.91524512 -0.17755085 0
-1.6392897 0.97131532 -0.17364581 0
-1.5373032 0.9511804 -0.17336091 0
-1.439238 0.94093955 -0.17170294 0
-1.1679926 0.94297767 -0.16889805 0
-1.096 0.97600001 -0.168 0
1.074 0.912 -0.141 0
1.1576508 0.94075388 -0.13611878 0
1.2455513 0.9687776 -0.13447964 0
1.3537593 0.95495874 -0.13189237 0
1.4542156 0.95415682 -0.13038418 0
1.5390346 0.93450582 -0.13104777 0
1.6486133 0.9614898 -0.12624823 0
1.7930015 0.91899365 -0.12314537 0
1.8641677 0.95832908 -0.11926358 0
-2.016 1.044 -0.18000001 0
-1.9977353 1.0348676 -0.17982629 0
-1.8702449 1.0888829 -0.17656913 0
-1.7541364 1.0234674 -0.17589992 0
-1.6544371 1.0380127 -0.17354709 0
-1.589365 1.0174496 -0.17158578 0
-1.3229561 1.067866 -0.16838831 0
-1.2376697 1.0491891 -0.16808549 0
-1.1316788 1.0567162 -0.16678497 0
-1.0304999 1.0605 -0.1655 0
0.95099998 1.0779999 -0.139 0
1.076 1.092 -0.133 0
1.1510651 1.0437587 -0.13453774 0
1.2499106 1.0524948 -0.13226302 0
1.3548529 1.0544848 -0.13041575 0
1.4504619 1.058105 -0.12798701 0
1.5447574 1.050801 -0.12383888 0
1.6409851 1.0404863 -0.12089709 0
1.7503002 1.0608946 -0.11986788 0
1.8176609 1.0554121 -0.11874624 0
1.9061522 1.09328 -0.11861561 0
-1.9450001 1.131 -0.177 0
-1.812968 1.1758387 -0.1728745 0
-1.738222 1.1288589 -0.17264019 0
-1.5127308 1.1671402 -0.17139593 0
-1.4565001 1.1475 -0.16850001 0
-1.3588393 1.1513783 -0.16767097 0
-1.2470363 1.1631484 -0.16635492 0
-1.1643465 1.1393968 -0.16556114 0
-1.0356994 1.1724348 -0.16407859 0
-0.958 1.1390001 -0.163 0
0.9469381 1.140088 -0.13676065 0
1.0438702 1.1475981 -0.13406128 0
1.1540549 1.1427665 -0.13081647 0
1.2649665 1.1616706 -0.13031152 0
1.3476585 1.1405631 -0.12959135 0
1.4439911 1.145794 -0.12509705 0
1.545496 1.1531397 -0.12387593 0
1.6610255 1.1490043 -0.11752699 0
1.7301418 1.1297531 -0.11745197 0
1.8503892 1.1481123 -0.11794376 0
1.9658672 1.1699425 -0.11567882 0
2.023 1.163 -0.114 0
-1.853 1.201 -0.17299999 0
-1.3425 1.2509999 -0.16600001 0
-1.276693 1.2477937 -0.1651223 0
-1.1414607 1.2288513 -0.16383806 0
-1.0608292 1.2596585 -0.16424391 0
-0.801 1.2920001 -0.15800001 0
-0.71935713 1.2867491 -0.1554056 0
-0.65450001 1.243 -0.15450001 0
0.76599997 1.284 -0.133 0
0.81700003 1.243 -0.1345 0
0.97350448 1.2451832 -0.13434502 0
1.0564121 1.2383281 -0.13416699 0
1.1736016 1.2279056 -0.12966363 0
1.2719736 1.25325 -0.12819171 0
1.3393124 1.2288704 -0.12713604 0
1.4471445 1.2547321 -0.12420611 0
1.5564179 1.2509056 -0.12141763 0
1.6487492 1.2350521 -0.11905102 0
1.7657249 1.2428365 -0.12123294 0
1.8799841 1.2290487 -0.11704735 0
1.921 1.2565 -0.116 0
-1.2289685 1.320581 -0.16307046 0
-1.1379511 1.3501524 -0.16517682 0
-0.84188664 1.3523823 -0.15800001 0
-0.75971419 1.3554981 -0.15581121 0
-0.66657072 1.3389189 -0.15460615 0
-0.51700002 1.351 -0.152 0
-0.458 1.391 -0.15000001 0
0.71100003 1.353 -0.13600001 0
0.85825509 1.334887 -0.13327365 0
0.95514143 1.3642899 -0.12949105 0
1.034165 1.3361652 -0.13254428 0
1.1660603 1.3636403 -0.12683487 0
1.2498652 1.3274629 -0.12596932 0
1.3493947 1.3415693 -0.1234973 0
1.4463367 1.3532356 -0.12219503 0
1.5545452 1.3601876 -0.12033959 0
1.6465272 1.3422542 -0.11952253 0
1.7823319 1.3614374 -0.12010204 0
1.825 1.35 -0.119 0
-1.206 1.4299999 -0.16599999 0
-0.92365992 1.4731467 -0.15800001 0
-0.84109098 1.443336 -0.15694641 0
-0.72142673 1.4452972 -0.15551536 0
-0.55669779 1.4605855 -0.15162686 0
-0.48341975 1.4725184 -0.14956173 0
-0.366 1.4545 -0.1485 0
0.155 1.4514999 -0.13600001 0
0.454 1.456 -0.132 0
0.51599997 1.418 -0.132 0
0.67153561 1.445263 -0.13395205 0
0.74974197 1.4598806 -0.13277264 0
0.85910565 1.4335406 -0.1296663 0
0.95610529 1.4459091 -0.13176425 0
1.0731676 1.4304928 -0.12744747 0
1.1384951 1.4664954 -0.12563282 0
1.2482965 1.4576244 -0.1213358 0
1.3657753 1.4491048 -0.1192822 0
1.4645833 1.4447606 -0.11645393 0
1.5337782 1.4280945 -0.1207212 0
1.6486654 1.4500251 -0.12216997 0
-4.4743795 1.5919631 -0.16045633 0
-4.3491898 1.5464816 -0.17972818 0
-4.224 1.501 -0.199 0
-4.1170001 1.573 -0.19599999 0
-4.0702038 1.5531539 -0.19762166 0
-1.622 1.568 -0.171 0
-0.95200002 1.515 -0.15800001 0
-0.87800002 1.557 -0.15700001 0
-0.77628285 1.5516756 -0.15642458 0
-0.62655568 1.5599571 -0.15220435 0
-0.54765773 1.5428509 -0.15062821 0
-0.44094953 1.5492013 -0.14925 0
-0.35195157 1.5579877 -0.14735886 0
-0.25002471 1.5540925 -0.14552902 0
-0.16366668 1.5526667 -0.14333333 0
0.16837013 1.5392472 -0.13543896 0
0.20508127 1.5772331 -0.13600001 0
0.46098804 1.5664641 -0.13207898 0
0.56383479 1.5410805 -0.12895434 0
0.68800002 1.545 -0.13 0
0.76749396 1.5451764 -0.13098975 0
0.82645178 1.586284 -0.13163584 0
0.94046742 1.564098 -0.12658301 0
1.0206966 1.5289003 -0.12506264 0
1.1671991 1.5390894 -0.12249009 0
1.242825 1.5968257 -0.11872137 0
1.3396884 1.5620724 -0.11522449 0
1.4318652 1.5184629 -0.11546932 0
1.5334105 1.5045031 -0.12216999 0
1.603 1.501 -0.122 0
-4.7247591 1.6829262 -0.12191267 0
-4.6412992 1.6526051 -0.13476056 0
-4.5578394 1.6222841 -0.14760844 0
-4.3663821 1.6698648 -0.16020212 0
-4.2416911 1.6214324 -0.17810106 0
-1.7525159 1.6899714 -0.17164083 0
-1.687258 1.6289858 -0.17132042 0
-1.5622773 1.6631519 -0.16715433 0
-0.81099999 1.619 -0.15700001 0
-0.64175206 1.6561257 -0.15189871 0
-0.54182631 1.6481857 -0.14884679 0
-0.46873519 1.6364002 -0.14837672 0
-0.36908093 1.634209 -0.14690165 0
-0.25273547 1.657508 -0.14488199 0
-0.15968849 1.6455297 -0.14199322 0
-0.055904165 1.6495292 -0.13848333 0
0.1484378 1.6651331 -0.13611493 0
0.21412189 1.6508497 -0.13600001 0
0.37 1.696 -0.131 0
0.45640555 1.6860374 -0.13072014 0
0.54197609 1.6459281 -0.12815796 0
0.6343348 1.6590805 -0.12695435 0
0.74587345 1.6470768 -0.12743001 0
0.83847809 1.6671286 -0.12749134 0
0.97328293 1.6595483 -0.12464631 0
1.0551658 1.6194154 -0.12388557 0
1.1578588 1.6434991 -0.12092391 0
1.2801991 1.6702563 -0.11599008 0
-4.808219 1.7132471 -0.10906479 0
-4.6573277 1.7828737 -0.11843793 0
-4.5326366 1.7344414 -0.13633686 0
-4.4495091 1.7021531 -0.14826949 0
-3.8229959 1.7798088 -0.17384824 0
-3.7409999 1.742 -0.183 0
-1.8177739 1.7509573 -0.17196125 0
-1.6561092 1.7596074 -0.16761731 0
-1.304 1.775 -0.15800001 0
-0.649858 1.7574713 -0.15079054 0
-0.55825537 1.7610534 -0.14727943 0
-0.46004182 1.7433479 -0.14708456 0
-0.33348346 1.7298188 -0.14570746 0
-0.2662937 1.7542157 -0.14333189 0
-0.17041345 1.7336537 -0.1415621 0
-0.077435091 1.7556658 -0.13867611 0
0.069000006 1.7309999 -0.1365 0
0.15772346 1.750719 -0.13493653 0
0.24606641 1.7381941 -0.13294983 0
0.3394134 1.7768588 -0.13115178 0
0.45792252 1.7712609 -0.12943141 0
0.54093993 1.7554396 -0.12644659 0
0.64431119 1.7386862 -0.12531497 0
0.76200408 1.7613418 -0.12472717 0
0.85232735 1.7604519 -0.1243453 0
0.93450314 1.7537051 -0.12508734 0
1.052381 1.7450894 -0.1225884 0
1.1478004 1.756346 -0.12059408 0
1.281 1.727 -0.116 0
-4.7820182 1.8313062 -0.100539 0
-4.068984 1.8932352 -0.14639296 0
-3.9459901 1.8365219 -0.16012061 0
-1.9482899 1.8729287 -0.17260207 0
-1.8830318 1.8119431 -0.17228167 0
-1.7499411 1.8560629 -0.1680803 0
-1.3574469 1.8459649 -0.15855791 0
-0.65619254 1.8543234 -0.14933674 0
-0.53953016 1.8673985 -0.14374205 0
-0.46129337 1.8551739 -0.1476934 0
-0.35178933 1.8458966 -0.14446628 0
-0.2689549 1.8407674 -0.14267708 0
-0.17423283 1.8453013 -0.14050557 0
-0.07790111 1.8704681 -0.137045 0
0.072373286 1.8217154 -0.13553336 0
0.16467312 1.8406439 -0.13386387 0
0.24591194 1.8654506 -0.13075398 0
0.33138239 1.8607342 -0.1305013 0
0.43049785 1.8651423 -0.12765121 0
0.54683501 1.8575402 -0.12591304 0
0.65228248 1.8268234 -0.12293176 0
0.77369916 1.8674767 -0.12182026 0
0.85239124 1.8642976 -0.12278269 0
0.95804971 1.8602234 -0.12481368 0
1.0810382 1.8381863 -0.12091975 0
1.1710662 1.8612461 -0.11935914 0
1.2221967 1.8194003 -0.11806265 0
-4.2329764 1.9688528 -0.12808943 0
-4.1509805 1.931044 -0.13724118 0
-2.0461769 1.9644074 -0.17308271 0
-1.8437731 1.9525185 -0.16854329 0
-1.4376171 1.9524124 -0.15939476 0
-1.252 1.976 -0.154 0
-0.72765285 1.9302952 -0.15116407 0
-0.6509164 1.9394935 -0.14751153 0
-0.54419714 1.9625322 -0.14493801 0
-0.4294827 1.9699461 -0.14526364 0
-0.32273388 1.9399115 -0.14269537 0
-0.24975687 1.9507074 -0.14110877 0
-0.15926722 1.9475967 -0.13884884 0
-0.06223334 1.9542336 -0.13486665 0
0.075746559 1.9124308 -0.13456674 0
0.17986758 1.9507912 -0.13217579 0
0.25815785 1.9544157 -0.12963338 0
0.34793776 1.9468527 -0.12907951 0
0.44999677 1.9499633 -0.12622683 0
0.54591441 1.931957 -0.12567189 0
0.65425366 1.9487977 -0.12100095 0
0.75270844 1.9430795 -0.11945987 0
0.85596263 1.9429266 -0.12023 0
0.94731289 1.9468628 -0.11925767 0
1.0225999 1.9642 -0.122 0
1.1386017 1.9418452 -0.11962686 0
1.2352054 1.9349284 -0.10830143 0
-4.4789643 2.0822792 -0.10063415 0
-4.3559704 2.0255659 -0.11436179 0
-2.1440639 2.055886 -0.17356332 0
-1.937605 2.048974 -0.16900627 0
-1.5177875 2.0588598 -0.16023161 0
-1.3007348 2.0516541 -0.15430021 0
-0.99000001 2.0580001 -0.154 0
-0.81900001 2.0599999 -0.152 0
-0.75159883 2.0394988 -0.14952967 0
-0.63747996 2.0420303 -0.14503413 0
-0.55439645 2.0603082 -0.14454013 0
-0.44893649 2.0574903 -0.14490071 0
-0.34271663 2.0463727 -0.14204736 0
-0.22837396 2.0612571 -0.13946523 0
-0.13298367 2.0306244 -0.13714324 0
-0.064041674 2.041292 -0.13383332 0
0.056284785 2.0490081 -0.1334949 0
0.12381469 2.0485835 -0.13265653 0
0.22250533 2.0519259 -0.1294392 0
0.35685495 2.05513 -0.12740758 0
0.46949568 2.0347848 -0.12480244 0
0.56851649 2.015424 -0.12386912 0
0.63238454 2.0688033 -0.12013799 0
0.74145401 2.0679379 -0.11689791 0
0.87079108 2.0429072 -0.11655341 0
0.91565353 2.0158067 -0.11643766 0
1.0650061 2.061414 -0.11056883 0
1.132293 2.0219245 -0.11161755 0
1.2372314 2.0367973 -0.1081754 0
-2.2211609 2.1279359 -0.17394187 0
-2.0314369 2.1454296 -0.16946927 0
-1.5712343 2.1298246 -0.1607895 0
-1.3494697 2.1273081 -0.15460043 0
-1.0299661 2.1358023 -0.15312301 0
-0.98000002 2.1400001 -0.154 0
-0.85273272 2.1370122 -0.15056795 0
-0.76169199 2.162255 -0.14701511 0
-0.64237803 2.14219 -0.14409593 0
-0.55391937 2.1494021 -0.14727549 0
-0.46839029 2.1450348 -0.14453776 0
-0.35355249 2.1460533 -0.1409874 0
-0.23863411 2.1503212 -0.13866486 0
-0.14986552 2.1434968 -0.1362773 0
-0.065850005 2.1283505 -0.1328 0
0.059835404 2.1852975 -0.13199271 0
0.13906603 2.1620231 -0.13135311 0
0.23265165 2.1416523 -0.12842521 0
0.33876395 2.1493025 -0.12653643 0
0.4396075 2.1493752 -0.12429872 0
0.55695844 2.1363151 -0.12226512 0
0.6712442 2.1627853 -0.117556 0
0.75411558 2.1290448 -0.1156824 0
1.1249187 2.1267195 -0.10335349 0
-2.1389999 2.256 -0.17 0
-2.0939915 2.2097332 -0.16977791 0
-1.6514046 2.2362721 -0.16162635 0
-1.4469392 2.2786162 -0.15520085 0
-1.3982044 2.2029622 -0.15490064 0
-1.2338172 2.2644081 -0.15540335 0
-1.1098983 2.2914069 -0.15136901 0
-1.0466506 2.2426708 -0.15286797 0
-0.92019808 2.2910371 -0.14770386 0
-0.84449255 2.2383733 -0.14767562 0
-0.73896784 2.268645 -0.14448312 0
-0.66054493 2.2596922 -0.1432129 0
-0.54300165 2.2268348 -0.14593264 0
-0.43737841 2.2581172 -0.14265972 0
-0.35975853 2.2515054 -0.1394318 0
-0.24889427 2.2393858 -0.13786452 0
-0.14803615 2.2518225 -0.13501018 0
-0.06832917 2.2477045 -0.13138333 0
0.062202483 2.2761569 -0.13099125 0
0.14397922 2.2525277 -0.13032374 0
0.25377256 2.2520278 -0.12691513 0
0.35241675 2.2368631 -0.12534371 0
0.45812899 2.23455 -0.12275846 0
0.53048491 2.2597601 -0.12077024 0
0.62691122 2.2672989 -0.11876107 0
-1.7315749 2.3427196 -0.1624632 0
-1.4956741 2.3542705 -0.15550107 0
-1.293269 2.3706324 -0.1506134 0
-1.1498643 2.3692093 -0.150492 0
-1.0900198 2.3744078 -0.15235792 0
-0.9539308 2.3680494 -0.14627181 0
-0.86020172 2.3512797 -0.14544046 0
-0.74118185 2.3640027 -0.14347318 0
-0.64698458 2.3452835 -0.14300001 0
-0.56060517 2.3402727 -0.14519 0
-0.43933138 2.3589375 -0.140866 0
-0.3423349 2.3756461 -0.13808464 0
-0.25915444 2.3284502 -0.13706414 0
-0.1453345 2.3506904 -0.13376556 0
0.064569563 2.3670163 -0.1299898 0
0.14889243 2.3430324 -0.12929437 0
0.25886437 2.3661256 -0.1258924 0
0.36606956 2.3244238 -0.12415101 0
0.45319754 2.3460364 -0.12117206 0
0.542 2.3510001 -0.1195 0
-1.783 2.411 -0.163 0
-1.5444089 2.4299245 -0.1558013 0
-1.3329035 2.4414485 -0.14742009 0
-1.1582618 2.4497776 -0.15071279 0
-0.95420992 2.4397039 -0.14507952 0
-0.846416 2.4608142 -0.14320123 0
-0.76222587 2.4287338 -0.14311233 0
-0.63835698 2.4263477 -0.14508027 0
-0.5509153 2.4663205 -0.14353427 0
-0.43426877 2.4600716 -0.13917831 0
-0.35456488 2.4647925 -0.13731922 0
-0.25336969 2.4509079 -0.1353998 0
-0.189 2.441 -0.134 0
0.066936642 2.457876 -0.12898834 0
0.15380564 2.433537 -0.12826498 0
0.26901066 2.4558518 -0.12487841 0
0.35710639 2.4560575 -0.12257372 0
0.43074396 2.4269507 -0.12158972 0
-1.6418786 2.5812325 -0.15640172 0
-1.5931437 2.5055785 -0.15610151 0
-1.4121726 2.5830808 -0.14103349 0
-1.372538 2.5122647 -0.14422679 0
-1.2297965 2.5248139 -0.14873801 0
-1.1633663 2.5306795 -0.15126319 0
-1.0261981 2.5330372 -0.14320385 0
-0.95355374 2.518708 -0.14409156 0
-0.52049112 2.5215778 -0.1420612 0
-0.44343349 2.5596766 -0.13877484 0
-0.36582205 2.545598 -0.13664049 0
-0.27323875 2.5115998 -0.13703103 0
0.069303729 2.5487354 -0.12798688 0
0.17030233 2.5468204 -0.1267339 0
0.24707147 2.5277081 -0.12483476 0
0.31 2.5539999 -0.123 0
-1.6906134 2.6568866 -0.15670194 0
-1.4388744 2.6300733 -0.13544421 0
-1.309 2.6789999 -0.147 0
-1.235505 2.6327944 -0.14958178 0
-0.4606469 2.6696272 -0.13613889 0
-0.38999999 2.625 -0.13600001 0
-0.28841043 2.6408887 -0.13623947 0
0.071670808 2.639595 -0.12698543 0
0.16539739 2.6438568 -0.12584099 0
0.25400001 2.6010001 -0.124 0
-1.739 2.7320001 -0.15700001 0
-1.5082468 2.7504394 -0.11266524 0
-1.248 2.711 -0.15000001 0
0.074000001 2.7290001 -0.126 0
0.13699999 2.7030001 -0.126 0
0.74199998 3.2609999 -0.107 0
0.76442999 3.3472357 -0.10591117 0
0.93699998 3.3800001 -0.111 0
0.78685999 3.4334714 -0.10482233 0
0.96341175 3.4635551 -0.10877845 0
0.80928999 3.519707 -0.10373349 0
0.98982346 3.5471098 -0.10655691 0
0.84293497 3.6490607 -0.10210025 0
1.0162352 3.6306648 -0.10433536 0
0.87657994 3.7784142 -0.100467 0
1.042647 3.7142196 -0.10211381 0
0.259 3.8800001 -0.109 0
0.26735765 3.9609764 -0.10714275 0
0.27571526 4.0419526 -0.1052855 0
0.55500001 4.0370002 -0.106 0
0.28407291 4.1229286 -0.10342824 0
0.56911027 4.1195536 -0.10372937 0
0.29243052 4.2039046 -0.10157099 0
0.5832206 4.202107 -0.10145876 0
-3.6975148 -4.0012851 -0.096284166 0
-3.6391006 -3.9354994 -0.083998196 0
-3.5528431 -3.8383567 -0.065856114 0
-1.55 -3.8659999 -0.017000001 0
-1.5169754 -3.7876725 -0.0047216415 0
-1.835 -3.1989999 -0.032000002 0
-1.7892187 -3.1220267 -0.023749288 0
-1.7434372 -3.0450537 -0.015498573 0
-1.6976558 -2.9680805 -0.0072478596 0
-1.624 -2.4489999 -0.1 0
1.0534852 -1.9833177 -0.096308723 0
4.1592808 -1.8298588 -0.072142571 0
3.9472809 -1.7335254 -0.089142568 0
4.0267367 -1.7696306 -0.082771085 0
3.8678246 -1.6974204 -0.095514059 0
3.5427709 0.34894767 -0.097963519 0
3.6328995 0.35993895 -0.095124103 0
3.7230279 0.37093022 -0.092284694 0
3.8131564 0.3819215 -0.089445278 0
3.903285 0.39291278 -0.086605862 0
3.9860001 0.403 -0.083999999 0
3.4534109 0.58638239 -0.097506821 0
3.5866137 0.61075944 -0.093008682 0
3.6754158 0.62701076 -0.09000992 0
3.7642176 0.64326209 -0.087011158 0
3.8680098 0.66225672 -0.083506197 0
-5.576292 0.89207989 -0.048855916 0
-5.4845266 0.87414384 -0.065540642 0
-5.3539391 0.84861982 -0.089283869 0
-5.0359998 1.796 -0.074000001 0
-4.9751387 1.7738891 -0.083369017 0
-4.8916788 1.7435682 -0.096216902 0
-4.9460001 1.895 -0.077 0
-4.8651457 1.8635945 -0.088606372 0
1.2411892 2.0470304 -0.097825065 0
1.3276163 2.074785 -0.08690428 0
-4.6279998 2.151 -0.083999999 0
-4.5609608 2.1200879 -0.091482386 0
1.1605041 2.1745057 -0.096599445 0
1.2617072 2.1329503 -0.09096086 0
1.3477578 2.1585526 -0.078365952 0
-2.9733896 2.2613225 -0.0048689395 0
1.1578593 2.2383881 -0.090339333 0
1.2591722 2.2436986 -0.081970222 0
1.3639252 2.2401893 -0.066701606 0
1.4431298 2.2496061 -0.060157847 0
1.5687711 2.2907681 -0.0065510161 0
-3.1156948 2.3686614 -0.02743447 0
-3.0280337 2.3351455 -0.011047889 0
-2.9582233 2.358665 -0.013761116 0
1.181266 2.3078887 -0.084568076 0
1.2371432 2.3466823 -0.077402748 0
1.3514116 2.3415613 -0.061379999 0
1.4370521 2.3169956 -0.050625671 0
1.6198993 2.3354838 -0.019561976 0
-3.3010001 2.464 -0.022 0
-3.2447834 2.4425678 -0.028767396 0
-3.1577113 2.4620955 -0.033019636 0
-3.0727866 2.4264565 -0.021341678 0
1.2606514 2.4326863 -0.068490513 0
1.3420748 2.444211 -0.059516557 0
1.6712571 2.4202745 -0.032328155 0
1.7335596 2.4798782 -0.039075673 0
-3.2135 2.5374999 -0.039000001 0
1.3505634 2.5565062 -0.051999841 0
1.745306 2.5415041 -0.053049367 0
2.7538962 2.5400298 -0.012175506 0
2.8179481 2.5995147 -0.024587754 0
1.352766 2.6458888 -0.048568077 0
1.7925904 2.6405895 -0.076183677 0
1.8595765 2.6590958 -0.061960813 0
2.882 2.6589999 -0.037 0
1.837 2.71 -0.090000004 0
1.9351865 2.7666261 -0.075691894 0
-1.5706818 2.8587689 -0.092164159 0
1.9855933 2.8383131 -0.084845945 0
-1.633117 2.9670985 -0.071663089 0
2.036 2.9100001 -0.093999997 0
-1.6838701 3.0551591 -0.054997854 0
1.0690587 3.7977746 -0.099892259 0
0.89900994 3.8646498 -0.099378161 0
1.0954704 3.8813295 -0.097670712 0
0.92143995 3.9508855 -0.098289326 0
1.1218822 3.9648843 -0.095449165 0
0.94593501 4.0450606 -0.097100243 0
1.149647 4.0527196 -0.09311381 0
0.30078816 4.2848806 -0.099713743 0
0.59733087 4.2846599 -0.099188134 0
0.30399999 4.316 -0.098999999 0
0.6114412 4.3672132 -0.09691751 0
0.62555146 4.4497666 -0.094646893 0
0.64083087 4.5391598 -0.092188135 0
-1.4839509 -3.7093451 0.0075567178 0
-1.4509263 -3.6310177 0.019835077 0
-1.4179018 -3.5526903 0.032113437 0
-1.3848772 -3.4743629 0.044391792 0
-1.3288935 -3.3415811 0.065206222 0
-1.6289837 -2.8526211 0.0051282141 0
-1.5603116 -2.7371612 0.01750429 0
-1.5145302 -2.6601882 0.025755003 0
-1.445858 -2.5447283 0.038131077 0
-1.38 -2.434 0.050000001 0
6.5618448 -1.6047319 0.064886838 0
6.6409998 -1.624 0.050999999 0
6.4431124 -1.57583 0.085717097 0
-2.6176269 1.9929756 0.051544894 0
-2.529927 1.9739667 0.052798938 0
-2.4779999 1.977 0.059 0
-2.8149688 2.0799487 0.079256475 0
-2.7455359 2.0250843 0.09372168 0
-2.6739235 2.0628877 0.034705628 0
-2.5802894 2.0378036 0.040462453 0
-2.953835 2.1896777 0.050326057 0
-2.8385124 2.1594651 0.032533232 0
-2.7339792 2.1326697 0.024862541 0
-2.6422248 2.1075203 0.034117453 0
2.1945558 2.1184773 0.066876516 0
2.2613001 2.181859 0.061577722 0
2.3522925 2.1670594 0.065648988 0
-3.0579844 2.2719743 0.028628236 0
-2.9022372 2.207653 0.0064138249 0
-2.8617163 2.2598908 0.0051458059 0
-2.7826686 2.2191401 0.012838088 0
2.326489 2.2437634 0.056402419 0
2.4336369 2.2426043 0.049885727 0
-3.1621342 2.3542709 0.0069304202 0
-2.9410338 2.3000653 0.0010745656 0
2.3916779 2.3056681 0.051227119 0
2.4772778 2.3348308 0.04176265 0
2.5617406 2.3615744 0.025061235 0
2.5546501 2.4604297 0.038288862 0
2.6578183 2.4508021 0.0064428654 0
2.6524334 2.5532863 0.030525908 0
2.7502167 2.6461432 0.022762954 0
2.848 2.7390001 0.015 0
6.1849999 -1.513 0.131 0
6.245225 -1.52766 0.12043421 0
6.3243799 -1.546928 0.10654736 0
-2.6525514 1.9516098 0.11309344 0
