# .PCD v0.7 - Point Cloud Data file format
VERSION 0.7
FIELDS x y z intensity
SIZE 4 4 4 4
TYPE F F F F
COUNT 1 1 1 1
WIDTH 403
HEIGHT 1
VIEWPOINT 0 0 0 1 0 0 0
POINTS 403
DATA ascii
-37.203026 -7.8700938 8.4956636 10
-37.394535 -7.3524585 9.3266363 10
-36.851845 -8.7161598 8.4707136 10
-37.088112 -8.1782131 9.2916803 10
-36.965115 -8.5178947 10.769699 12
-36.762306 -8.9929552 9.2557287 10
-36.554905 -9.0993347 10.287746 11
-36.663773 -9.2855263 10.699746 12
-36.662251 -8.8614025 11.300732 12
-36.23354 -9.9469576 10.280798 11
-36.369919 -10.049417 10.637794 12
-36.049007 -10.507553 11.302834 12
-36.346882 -9.6803551 11.292783 12
-35.925758 -11.230962 8.4618692 10
-35.859993 -11.441897 9.1958828 10
-35.787621 -11.563751 9.8748922 11
-35.752701 -11.325047 11.315887 12
-35.29158 -12.88668 8.4739857 10
-35.59391 -12.059058 8.460927 10
-35.486084 -12.351711 9.8429499 11
-35.373726 -12.515674 10.328963 11
-35.02359 -13.372468 7.9610271 10
-34.949913 -13.689331 8.4870481 10
-34.917629 -13.838437 9.1730595 10
-34.879551 -13.907323 9.7970648 11
-34.880917 -13.78369 11.399059 12
-34.759182 -14.136514 7.9990835 10
-34.582458 -14.695863 9.7791252 11
-34.758102 -14.216764 10.386088 11
-16.818584 -1.0517217 0.0049453839 3
-9.9111757 -8.9978037 -0.074228637 3
-9.8780594 -1.0409734 -0.0005843126 3
-9.8595953 8.8289042 12.03297 25
-8.5026808 8.9093132 11.144444 25
-7.1690845 8.5977907 10.045079 25
-6.4790702 -1.6774721 0.018655328 3
-6.5097718 7.0773497 0.047380794 3
-6.1635776 -3.2832553 -0.23326494 2
-6.1396365 -2.1870978 0.028692806 3
-6.1773763 -1.9284693 0.035682421 3
-5.6202512 6.7002311 0.046200711 3
-5.4075027 -1.3950423 -0.17727725 2
-5.3153162 -0.52661341 -0.17527825 2
-5.0392566 2.6519029 -0.13307634 3
-4.976016 3.6567297 -0.035945099 3
-5.0143905 2.3538058 0.033894476 3
-5.0839601 1.7450286 0.72416592 7
-5.0831127 1.7102624 0.89232969 8
-4.5562315 -3.4104273 -0.13163733 2.5
-4.7392473 1.4257857 -0.170164 2
-4.7399306 1.9510914 -0.0061196601 3
-4.7142038 3.1344059 -0.16398433 2
-4.2847867 -3.53039 -0.040110122 3
-4.017024 -2.669446 0.032864958 3
-3.6299901 -1.7017577 -0.21114776 2
-3.6347072 -1.4063016 -0.20765668 2
-3.6894648 1.3410635 -0.17708276 2
-3.7768114 3.5578818 -0.043342635 3
-3.861439 -2.0504043 0.031848833 3
-3.8238509 3.2952793 0.020769387 3
-3.3011827 -2.7336025 -0.22007939 2
-3.5969229 -1.1095098 -0.20216069 2
-3.4066737 -1.8870771 0.65437436 8.25
-3.4527605 -1.8897843 0.85987109 10
-2.9050207 -3.3798378 -0.22851503 2
-3.0584028 -2.9290214 -0.22105134 2
-3.0159252 -1.8115059 -0.21010122 1
-2.9888809 -1.397756 -0.2061138 1
-2.8169274 -0.85413432 -0.19311334 1
-3.1091354 -0.13194601 -0.17612691 2
-3.0811744 1.4607548 -0.16134721 2
-3.0189705 2.3655338 -0.1450787 2
-3.0336399 -1.9484961 0.61675984 8.2857141
-3.1241951 -1.9382489 0.80989587 10
-2.7814991 -0.69996923 -0.19011201 1
-2.4334466 1.0302042 -0.16499911 1
-2.4618447 2.2438602 -0.15134537 2
-2.4101989 3.0322158 -0.099633813 2
-2.6857753 -2.0280743 0.23926349 5.3333335
-2.5221522 2.5447674 0.28007051 5.5
-2.7632573 -2.0174663 0.5139243 7.5
-2.7701452 -1.9978868 0.65992308 9
-2.6308923 2.5014472 0.51279074 7.5
-2.0017443 -0.82334316 -0.18806288 1
-2.2093904 0.6661427 -0.16851589 1
-2.3384933 1.1210202 -0.16397925 1
-2.0849574 2.2806621 -0.1544885 2
-2.1521471 4.5964737 -0.097221039 3
-2.3442738 -9.0844917 0.029360007 3
-2.1604693 -2.206846 0.16747427 5
-2.3296673 -2.144171 0.74195993 10
-2.3053038 -2.1367075 0.855461 11.5
-2.010989 9.408824 2.6092463 11
-1.7323673 -3.9039199 -0.12340594 2.5
-1.8165857 -2.143383 -0.14133996 1.6666666
-1.9204462 -1.9235759 -0.20802353 1
-1.7643988 -1.3636874 -0.19355527 0.75
-1.9110489 -1.0162197 -0.18918574 0.5
-1.9968154 -0.71093541 -0.18606341 1
-1.7572438 1.3323421 -0.15484916 1
-1.7985117 1.7467872 -0.15140362 2
-1.7592107 4.6278572 -0.083342493 3
-1.8084524 -2.3037803 0.30712673 6.5
-1.6383351 -2.5512447 0.67252523 9.5
-1.8064815 -2.3008697 0.47308505 8
-1.7338052 9.3446426 0.9911958 6
-1.6690285 9.3895092 1.4066662 7.5
-1.6878675 -30.664598 23.810631 23
-1.2869096 -5.1067019 -0.26381359 2
-1.4877386 -4.0917578 -0.16188128 2
-1.4057465 -1.4192907 -0.18470849 0
-1.4588423 -1.1591158 -0.18432118 0
-1.5019717 0.60669333 -0.16803998 0
-1.2583835 0.93895954 -0.1568782 0
-1.3447425 1.3452344 -0.15416992 1
-1.2824302 2.8432493 -0.13991749 2
-1.2488246 -4.0768647 0.024130302 3
-1.2049555 -3.3842518 0.030094134 3
-1.4721911 -2.2757335 0.12002077 4.6666665
-1.5845648 -2.5469849 0.72502822 10
-1.5899819 -2.2479217 0.48101249 8
-1.5147377 -30.608265 23.835634 23
-1.1085062 -5.4386787 -0.26578665 2
-0.80693573 -2.2680142 -0.19794722 1
-1.1550466 0.77598625 -0.15529227 0
-0.96405709 1.0261874 -0.15177037 0.25
-1.113922 2.1156034 -0.14473741 2
-1.1117343 2.8242276 -0.13795812 2
-0.8937757 -3.434576 0.072110943 4
-0.95658904 -2.8752618 0.066078171 4
-0.89474845 -2.4476285 0.17839165 5.3333335
-0.99973178 -2.3786492 0.17921697 5.25
-0.9331581 9.1663761 0.14105706 4
-0.88834685 -2.3864856 0.4896667 9
-0.99153537 -2.463989 1.0476382 15
-0.9295699 9.1659193 2.3440571 11
-1.0635911 9.2707863 2.3600559 11
-0.95749855 9.1603775 2.5300653 11
-1.0676371 -30.583668 24.540649 24
-0.54850465 -10.194818 -0.10549637 3
-0.5739122 -4.4407344 -0.24032238 2
-0.40003592 -3.6419525 -0.21986169 1
-0.55168241 -3.5274949 -0.21887198 1
-0.61816633 -2.680486 -0.2074196 1
-0.70461094 1.4130495 -0.14563143 1
-0.57319212 3.5849767 -0.11632451 2
-0.79220873 3.7921612 -0.1163359 2
-0.58093441 9.0748978 -0.037996177 3
-0.44190443 -3.4308839 0.31962568 6
-0.65333992 -2.5034785 0.27168602 6.5
-0.59263068 6.0349269 0.006933542 3
-0.49132946 9.0856438 0.14998029 4
-0.64595199 -2.4622729 0.53131032 9.545455
-0.51309031 9.0837898 0.45398578 5
-0.70282435 -2.4926374 0.91956782 13.5
-0.49879831 9.0678997 1.4339876 8
-0.47669649 9.0696201 2.3329821 11
-0.48483789 9.0240908 2.8089981 12
-0.42261934 -30.373585 3.3466589 7
-0.1142501 -13.739204 -0.12028158 3
-0.052455377 -4.4162169 -0.23781183 2
-0.26261377 -4.3416829 -0.23581968 2
-0.152658 1.3957638 -0.14337653 0.75
-0.011895508 2.6232686 -0.12915307 2
-0.29346693 3.3835318 -0.11882579 2
-0.29886112 5.9763846 -0.0071145752 3
-0.0064681913 6.8696032 -0.025450412 3
-0.3814716 -3.4470201 0.31112796 6
-0.33367875 9.0360394 0.2304602 4
-0.29772195 9.0576191 1.0526123 6.3333335
-0.2184332 9.0405493 1.3365334 7.5999999
-0.23968093 -30.096647 1.7546484 5
-0.36835167 -30.040203 2.307641 6
-0.25631297 9.0290155 2.3309457 11
-0.26978996 8.996047 2.646292 11.666667
0.23634383 1.4251951 -0.12782796 1.25
0.30764779 2.0732026 -0.13304265 2
0.17735809 2.5372348 -0.12716295 2
0.31511751 6.7002206 -0.041466109 3
0.38570178 1.3048664 0.061188299 4
0.13857801 8.9422646 0.30288601 4
0.33013427 8.9079485 0.42085579 5
0.25092694 8.9433174 1.0136118 6.5
0.17626323 8.9223528 1.4265507 8
0.01980659 -29.982487 2.28565 6
0.39243823 8.8786812 2.3278522 11
0.26890531 8.8831558 2.5818768 11.5
0.12088316 -17.19322 3.0969219 9
0.19746906 -17.124718 3.4069197 9
0.35894266 -29.900263 3.6976552 7
0.23261079 -16.948126 3.7704113 10
0.20195301 -30.2791 10.124673 13
0.24015896 -29.990431 11.762657 14
0.53592759 -4.0648723 -0.00083135889 3
0.58250916 1.441959 -0.10863342 1.5
0.43586424 2.176713 -0.13409647 2
0.61179757 6.4694095 -0.054455325 3
0.47845769 -3.657166 0.057144176 4
0.72420561 -3.2749627 0.16561393 4.5714288
0.71597546 0.77179331 0.12833115 6.25
0.57966191 0.89461142 0.13575594 6.5555553
0.55852509 1.3439939 0.0066519119 3
0.44894558 8.8734751 0.29984152 4
0.63564134 -3.3756313 0.42912328 7
0.73885685 8.8061848 1.1133025 7
0.54287666 8.8535614 1.3315785 7.75
0.47425026 8.8939419 2.1718304 10
0.43740493 8.8486547 2.4778519 11
0.51597536 -17.236401 3.1309342 9
0.55133849 -16.929855 3.8839178 10
0.79083878 8.1778564 3.9359851 16
0.6880253 -30.414688 10.732694 13
0.5587064 -30.208162 10.821679 14
1.0614703 -4.0986743 -0.22434087 2
0.89792246 -3.4690783 -0.20687865 1
0.84036422 -2.4909568 -0.19294773 1
0.91757095 -2.2258434 -0.18497503 1
1.0121868 -1.9482908 -0.1785088 1
1.0580338 0.99577123 -0.14045486 1
1.0537779 1.7471983 -0.13121484 1.3333334
0.97152054 2.0807402 -0.1276474 2
0.82774001 -3.2132761 0.28535631 6
1.1169654 0.74506146 0.041796193 4
1.0396273 0.80300027 0.036284003 4
0.86281705 8.7889452 0.29878286 4
0.83194625 -3.2405121 0.42010796 7
1.1510268 8.7171307 1.1247479 7
0.80964714 8.8284988 0.88878149 6
0.84626722 8.7785053 1.3817894 8
0.88425207 8.8163033 1.2127703 7
0.90945369 8.7751808 2.2704446 10.666667
0.83826584 8.8006582 2.3027847 11
0.92945564 8.7653742 2.5424435 11.666667
1.1561112 -17.014353 3.429934 9
1.1359241 -16.631126 3.9289119 10
0.99843556 8.1488342 3.8114524 16
1.0529065 6.6580749 4.270401 20
0.91359162 -30.446394 10.235702 13
0.90348089 -30.156185 11.821685 14
0.93780911 -30.419348 15.791702 18
1.2641521 -3.7625775 -0.21687251 2
1.3002084 -3.3684819 -0.20090473 2
1.5102154 -3.1789963 -0.1304343 2
1.3128481 -0.69193751 -0.15825091 0
1.5534824 0.35145548 -0.14161867 1
1.3585452 0.8389346 -0.13976823 1
1.3203092 0.60009861 0.17440738 6.5
1.3154218 8.6892557 0.062724411 3
1.3708954 8.6862125 0.99538147 6.6666665
1.3779817 8.672204 1.3377179 7.8000002
1.3759073 8.6763601 2.2022169 10.5
1.4171821 8.6504602 2.5174673 11.5
1.4642881 -17.073383 3.4254422 9
1.413995 -16.91116 3.9374323 10
1.2353995 -16.867496 4.2549267 11
1.3395969 6.5728865 4.2896237 20
1.2643677 -30.384611 10.845707 14
1.428485 -30.346615 11.393709 14
1.7009652 -2.4412129 -0.18802455 1
1.8126202 -2.2668364 -0.18655811 1
1.9027724 -1.7390858 -0.17114411 1
1.960927 -0.94661748 -0.15880515 1
1.925395 -0.63430434 -0.15562499 1
1.779297 -0.0045763357 -0.14253359 1
1.6201576 0.062622875 -0.13752921 1
1.8838611 0.55318934 -0.14273916 1
1.7772905 1.0596472 -0.0074030785 3
1.8487402 1.4049462 -0.099034168 2.25
1.7060882 1.7671717 -0.13214107 2
1.9374578 -3.2897377 0.21254228 5.25
1.67259 0.57174224 0.053285476 4
1.9176159 -3.260206 0.48104116 7
1.8584638 8.5664091 1.0371598 6.75
1.8559518 8.5625982 1.320995 7.6666665
1.926437 8.5414515 2.0636554 10
1.884416 8.5293312 2.5831668 11.5
1.653457 -31.095423 10.512755 13
2.2646503 -3.9776936 -0.21591851 2
2.166373 -0.44464281 -0.1529685 1
2.1032255 -0.21289559 -0.14977458 1
2.1813366 0.92114222 -0.12191138 2
2.0541487 1.2685345 -0.045014407 2.5
2.3642128 2.5043857 -0.12648328 2
2.1797717 8.5156336 0.060616981 3
2.0463521 8.5332146 0.8236357 6
2.0914736 8.5093145 2.1511352 10.5
2.1171234 8.4962473 2.5579681 11.666667
2.2362292 7.9685898 3.4982781 15
2.172663 7.967042 3.7775397 16
2.3956947 -31.376934 10.673788 13
2.2984414 -31.01362 12.158762 14
2.1833148 -31.118801 16.813766 18
2.3886175 -31.326406 17.670782 19
2.6930296 -3.8832345 -0.21696545 2
2.4985681 -2.9784884 -0.18904848 2
2.5424724 0.74450898 -0.13790536 2
2.5829275 8.4098482 0.052578446 3
2.5536211 8.0126982 3.5437086 15
2.5054121 7.8945022 3.752754 16
2.6770139 6.3049979 6.0717268 25
2.7390561 -31.043564 11.019773 13
2.4638858 -31.047768 12.672768 15
2.4314642 -31.381039 16.455788 18
2.8904097 -3.7615364 -0.22199842 2
3.1823921 -0.063002311 -0.15175478 2
3.1397488 0.1466848 -0.1548105 2
3.0034633 1.2392904 -0.05314251 3
3.0881443 3.2750998 -0.11284595 3
3.0980303 0.69587797 0.15702291 4.75
3.0082865 0.75963163 0.50701648 8
3.0256193 6.2342529 4.4141932 20
3.1353521 6.1828494 5.9108605 24
3.0258274 6.2178359 6.1279988 24.799999
3.1264935 -31.398785 10.7498 13
2.8782382 -31.148386 11.670781 14
3.0024531 -31.160044 12.226783 14
3.1532221 -31.182085 12.758787 15
3.2719793 -0.21792211 -0.14272524 2
3.2805448 0.23202172 0.093139753 4
3.39149 6.1328673 5.958169 24
3.53179 5.9941049 6.2076921 25
3.4504457 6.096909 6.1379209 24.5
3.486078 -31.238838 11.067795 13
3.3046129 -31.453184 11.692806 14
3.7110665 -3.2560394 -0.21416165 2
3.8298681 -3.0724533 -0.21120553 2
3.7401152 -2.7413769 -0.19824581 2
3.9369252 3.4687176 -0.004033688 3
3.7362595 6.0783691 6.0641327 24
3.8957093 -31.65155 10.918824 13
3.6002908 -31.268404 11.711799 14
3.839088 -31.271746 12.832801 15
3.9515946 -31.727922 16.842825 18
3.8544102 -31.361528 18.757805 19
4.2486157 -3.7104826 -0.12116628 3
4.0979972 -1.6852188 -0.18650246 2
4.1595597 -1.3891337 -0.18457898 2
4.0574908 -1.0595777 -0.18063933 2
4.3156037 2.2198806 -0.11667049 3
4.1795406 -0.042807963 0.11606819 4
4.2413821 5.9225259 6.1771073 24
4.2921596 5.9549856 6.4060888 25
4.2599497 -31.52589 11.153821 13
4.0360527 -31.630529 11.803824 14
4.3789263 -31.248728 12.003805 14
4.0812411 -31.518364 24.361814 23
4.5726862 -3.6407957 -0.13222021 3
4.516933 -2.9755082 -0.21032028 2
4.7884989 -0.96425581 -0.16978897 2
4.5000396 -0.59522152 -0.16433454 2
4.65521 0.41700652 -0.010148095 3
4.5726976 0.95506966 -0.094299704 3
4.4774899 5.7894382 6.2071147 24
4.5669737 -31.177658 10.838801 13
4.6823335 -31.192335 11.687802 14
4.5923467 -31.738831 17.031332 18
4.4444046 -31.575146 17.710823 19
5.0789633 5.8013487 6.4852715 24
4.9481039 5.7236462 6.8100672 25
5.3257179 -3.8550024 0.20670846 4
5.2738891 5.7226605 6.5870185 24
5.5124435 -28.443369 10.058639 13
5.5705953 -28.456268 10.764639 14
5.8449378 -28.236082 9.9806242 13
5.8658423 -28.2204 10.608624 14
5.9564271 -28.252802 11.773627 15
6.0861835 0.30223989 -0.013357605 3
7.0079517 5.5293384 4.1943235 16
7.5385013 -5.0738611 0.21896592 3.75
7.9700398 -0.02005147 -0.10558966 3
7.7271743 -4.8852563 0.13953237 3.3333333
7.7102003 -4.6886992 0.22383463 3.6666667
7.9199638 -0.56430537 0.25423318 4.3333335
7.8945055 -0.33816174 0.19451036 4
7.6841846 -5.05164 0.5685662 5
7.9587946 -0.65951568 0.51408505 5
7.7004642 5.2014012 5.4328275 19
8.0131807 -0.52637082 0.79254019 6
8.1214094 -0.41740164 1.0044925 7
8.0097208 5.2800465 4.4047537 16
8.2835169 5.0652175 5.6597824 19
8.5965929 4.9960351 5.7877564 19
9.5588284 -29.055407 11.10962 14
9.2026196 -29.337978 11.467648 14
9.4461184 -29.077063 12.476624 15
9.3550081 -29.346458 16.722643 18
9.2429066 -29.405157 17.118649 19
9.6480169 -29.018295 10.365616 13
9.936677 -29.254015 16.026619 18
9.6650105 -29.15481 16.766621 18
10.035759 -4.5989037 0.40512735 4
10.973573 4.467195 6.3785501 18
10.814227 4.4758277 6.7595735 19
11.900717 -0.48991442 -0.14513931 3
11.850338 4.2691102 5.3394723 15
12.925211 4.0330014 5.7203708 15
13.755097 4.1787682 4.4451885 12
14.013049 4.5443454 3.8390331 11
17.743305 -33.943497 14.383636 14
17.843184 -33.959602 15.628631 15
20.768553 -14.576638 -0.46575502 3
30.547083 -7.0078311 -0.03074437 3
39.484169 -17.440186 -0.0030393496 3
