# .PCD v0.7 - Point Cloud Data file format
VERSION 0.7
FIELDS x y z intensity
SIZE 4 4 4 4
TYPE F F F F
COUNT 1 1 1 1
WIDTH 1101
HEIGHT 1
VIEWPOINT 0 0 0 1 0 0 0
POINTS 1101
DATA ascii
-1.0508015 -4.224143 -0.23753241 0
-1.5829999 -4.1160002 -0.24600001 0
-1.0257583 -4.1140323 -0.23527984 0
-0.73445743 -4.161612 -0.23445778 0
-0.53048539 -4.112751 -0.2318662 0
-1.5534378 -4.0408697 -0.24412175 0
-1.0059134 -4.0267782 -0.23349486 0
-0.71792704 -4.0524778 -0.23192762 0
-0.52180904 -4.0242519 -0.22961034 0
-0.4302538 -4.0630383 -0.22971696 0
0.0040164376 -4.00634 -0.22295892 0
-1.5201941 -3.956383 -0.24200958 0
-0.98606867 -3.9395242 -0.23170988 0
-0.70493919 -3.9667315 -0.22993967 0
-0.5136472 -3.9410014 -0.22748826 0
-0.42400604 -3.9712615 -0.22734714 0
-0.219 -3.9059999 -0.22499999 0
0.0048262998 -3.9245436 -0.22093426 0
-1.6893296 -3.8511968 -0.2414528 0
-1.4869503 -3.8718958 -0.2398974 0
-0.9662239 -3.8522701 -0.2299249 0
-0.69195133 -3.8809853 -0.22795174 0
-0.50548542 -3.8577511 -0.2253662 0
-0.41575378 -3.8500383 -0.22421695 0
-0.22458382 -3.8412933 -0.22302924 0
-0.14056924 -3.842587 -0.22037384 0
-0.084294572 -3.8332486 -0.21952972 0
0.0056197252 -3.8444078 -0.21895069 0
-1.6420305 -3.7456832 -0.2390272 0
-1.4370847 -3.7451653 -0.23672915 0
-0.94637907 -3.7650161 -0.22813992 0
-0.67246962 -3.7523658 -0.22496983 0
-0.45241255 -3.751658 -0.22216547 0
-0.23314595 -3.7420735 -0.2200073 0
-0.14291079 -3.7339392 -0.21779813 0
-0.080941856 -3.734623 -0.21729457 0
0.0064131501 -3.764272 -0.21696712 0
-1.6054016 -3.6639729 -0.23714881 0
-1.387219 -3.6184349 -0.23356088 0
-0.9265343 -3.677762 -0.22635494 0
-0.65298784 -3.6237464 -0.22198793 0
-0.4573873 -3.6490834 -0.21970735 0
-0.14468309 -3.6517043 -0.21584859 0
-0.078294568 -3.6567485 -0.21552971 0
0.0076032877 -3.644068 -0.21399179 0
1.0591968 -3.6455746 -0.20142335 0
-1.5504584 -3.5414071 -0.23433119 0
-1.3539751 -3.5339479 -0.23144871 0
-0.90668952 -3.590508 -0.22456996 0
-0.88684475 -3.5032539 -0.22278498 0
-0.63999999 -3.5380001 -0.22 0
-0.14645541 -3.5694695 -0.21389906 0
-0.074323639 -3.539937 -0.21288243 0
-1.4955152 -3.4188416 -0.2315136 0
-1.3207313 -3.449461 -0.22933653 0
-0.86699998 -3.4159999 -0.221 0
-0.14911386 -3.4461174 -0.21097475 0
-1.4588864 -3.3371313 -0.22963521 0
-1.2874875 -3.364974 -0.22722435 0
-1.4222577 -3.2554209 -0.2277568 0
-1.2542437 -3.2804871 -0.22511218 0
-1.3856288 -3.1737103 -0.2258784 0
-1.221 -3.1960001 -0.223 0
-1.349 -3.092 -0.22400001 0
-2.4525881 -2.952378 -0.20114781 0
-3.823 -2.8610001 -0.249 0
-3.7892158 -2.8344884 -0.24893388 0
-2.3729117 -2.8565645 -0.20770347 0
-3.7210422 -2.7809901 -0.24880047 0
-3.6528685 -2.7274919 -0.24866706 0
-2.2932353 -2.7607512 -0.21425913 0
-3.5506079 -2.6472442 -0.24846694 0
-2.253581 -2.6570358 -0.21003938 0
-2.187 -2.6329999 -0.223 0
-2.0731804 -2.6335435 -0.20407844 0
-3.4483473 -2.5669968 -0.24826682 0
-3.3801737 -2.5134983 -0.24813341 0
-2.2097836 -2.549897 -0.20783691 0
-2.0504489 -2.5441408 -0.20660368 0
-3.312 -2.46 -0.248 0
-2.2142496 -2.4310095 -0.20700286 0
-2.1525223 -2.4825981 -0.21422461 0
-2.0619082 -2.435796 -0.21734491 0
-1.9371967 -2.4564238 -0.21901307 0
-2.1531248 -2.3655047 -0.21800143 0
-2.0380001 -2.348 -0.227 0
-1.975 -2.3870001 -0.22499999 0
-2.092 -2.3 -0.229 0
-4.506 -2.191 -0.25299999 0
-4.4731312 -2.1741633 -0.25299999 0
-4.3961124 -2.1347115 -0.25299999 0
-3.7467747 -2.1562631 -0.24199763 0
-3.6720426 -2.1113081 -0.24185307 0
-4.3190937 -2.0952594 -0.25299999 0
-4.242075 -2.0558076 -0.25299999 0
-4.1650562 -2.0163558 -0.25299999 0
-3.9470444 -2.0245123 -0.25497514 0
-3.5617819 -2.044981 -0.24163981 0
-4.0495281 -1.9571779 -0.25299999 0
-3.8569336 -1.976164 -0.25481451 0
-3.7807779 -1.9353033 -0.25467876 0
-3.4515214 -1.978654 -0.24142654 0
-3.3780141 -1.934436 -0.24128436 0
-3.934 -1.898 -0.25299999 0
-3.7046223 -1.8944427 -0.25454301 0
-3.6284668 -1.853582 -0.25440726 0
-3.5523112 -1.8127213 -0.25427151 0
-3.304507 -1.890218 -0.24114218 0
-3.2309999 -1.846 -0.241 0
-1.2358949 -1.8473096 -0.20080861 0
-3.4761558 -1.7718606 -0.25413576 0
-3.4000001 -1.7309999 -0.25400001 0
-1.243 -1.79 -0.20100001 0
-2.4349999 -1.059 -0.219 0
-2.3617375 -1.027694 -0.21690217 0
-2.3759999 -0.90399998 -0.212 0
-2.2782638 -0.99202466 -0.21451196 0
-2.153053 -0.93852055 -0.21092662 0
-2.3461123 -0.85078955 -0.21132129 0
-2.2446117 -0.85468841 -0.20970644 0
-2.1607852 -0.82322735 -0.20824313 0
-2.0278425 -0.88501644 -0.2073413 0
-1.9443687 -0.849347 -0.20495109 0
-1.8608949 -0.81367761 -0.20256087 0
-2.409996 -0.74643427 -0.21259777 0
-2.3188186 -0.7592814 -0.21026377 0
-2.2362633 -0.76200038 -0.20880353 0
-2.1511681 -0.73325038 -0.20707808 0
-2.0734458 -0.7624563 -0.2063213 0
-1.9625717 -0.73086816 -0.2044629 0
-1.7774212 -0.77800822 -0.20017065 0
-2.4200001 -0.63699996 -0.213 0
-2.3290565 -0.67172515 -0.21098804 0
-2.2425504 -0.6468668 -0.20904492 0
-2.1510921 -0.64781195 -0.20685533 0
-2.0635028 -0.64891797 -0.20485926 0
-1.9386494 -0.66090477 -0.20280531 0
-1.8441957 -0.65389746 -0.20151655 0
-1.741653 -0.66592211 -0.2009266 0
-2.368037 -0.59344471 -0.21203177 0
-2.2811441 -0.57161754 -0.21047267 0
-2.1542017 -0.55798614 -0.20787214 0
-2.0473738 -0.53922725 -0.20561841 0
-1.9556392 -0.5563764 -0.20268625 0
-1.8921955 -0.57032108 -0.20091733 0
-1.9335721 -0.48430878 -0.20423634 0
-1.846679 -0.46248159 -0.20267725 0
-1.759786 -0.4406544 -0.20111817 0
-3.7363384 0.29780301 -0.21997374 0
-3.6487536 0.29410225 -0.21948031 0
-3.5611691 0.29040152 -0.21898687 0
-3.4735844 0.28670076 -0.21849343 0
-3.3859999 0.28299999 -0.21799999 0
-4.0913382 0.31280303 -0.22197375 0
-3.9552999 0.30705494 -0.22120732 0
-3.8239229 0.30150378 -0.22046717 0
1.327 -3.6159999 -0.199 0
1.0263444 -3.5235052 -0.19949086 0
1.3048031 -3.5520389 -0.19822659 0
1.0032953 -3.4378617 -0.19813502 0
1.2753806 -3.4672568 -0.19720142 0
0.98024607 -3.3522182 -0.19677918 0
1.245958 -3.3824749 -0.19617623 0
0.95719683 -3.2665744 -0.19542335 0
1.1871128 -3.2129107 -0.19412588 0
1.2165354 -3.2976928 -0.19515106 0
1.8611989 -3.2434473 -0.19692563 0
0.9341476 -3.1809309 -0.19406751 0
1.1576903 -3.1281285 -0.19310071 0
1.850579 -3.1399527 -0.19548306 0
-2.503 -3.013 -0.197 0
-2.4289999 -3.0969999 -0.16500001 0
-2.3995416 -3.0586302 -0.16823532 0
0.88804924 -3.0096436 -0.19135584 0
0.91109842 -3.0952873 -0.19271167 0
1.1282676 -3.0433464 -0.19207552 0
1.7442985 -3.0419209 -0.19463845 0
1.8431849 -3.0459542 -0.19417076 0
2.3520069 -3.0187418 -0.18321802 0
2.4070001 -3.0880001 -0.198 0
-2.7116241 -2.9640238 -0.11750714 0
-2.54 -2.938 -0.171 0
-2.4172215 -2.9591727 -0.13481009 0
-2.3451481 -2.9877825 -0.17420918 0
-2.2907546 -2.9169345 -0.18018302 0
0.86500001 -2.924 -0.19 0
1.0988451 -2.9585643 -0.19105035 0
1.6764387 -2.9249368 -0.19331075 0
1.7732699 -2.931433 -0.19290534 0
2.297014 -2.9494836 -0.16843605 0
-2.6421232 -2.8895428 -0.13001287 0
-2.5809984 -2.824038 -0.14101143 0
-2.4674587 -2.8527422 -0.17909226 0
-2.3498876 -2.872052 -0.14854266 0
-2.2663467 -2.8244228 -0.172811 0
1.0694225 -2.8737822 -0.19002517 0
1.6311989 -2.8469472 -0.19242562 0
1.7266599 -2.8550854 -0.19206172 0
1.935771 -2.8810234 -0.19380423 0
2.1870277 -2.8109672 -0.1388721 0
2.2420208 -2.8802254 -0.15365407 0
-2.5198736 -2.7585335 -0.15200999 0
-2.381567 -2.7517939 -0.18867381 0
-2.2427769 -2.7334657 -0.17038761 0
-2.1547709 -2.7398152 -0.19511765 0
1.04 -2.789 -0.189 0
1.5859591 -2.7689579 -0.19154049 0
1.656745 -2.7405643 -0.19079629 0
1.8510027 -2.7569132 -0.19218189 0
2.0209999 -2.723 -0.19499999 0
2.1320345 -2.741709 -0.12409012 0
-2.4587488 -2.6930287 -0.16300857 0
-2.3609648 -2.6560094 -0.18453433 0
-2.1892214 -2.6641726 -0.18131009 0
1.4954796 -2.6129789 -0.18977025 0
1.5637746 -2.6585054 -0.19009311 0
1.7764636 -2.6477792 -0.19075529 0
1.9768121 -2.6646893 -0.19403706 0
2.0770416 -2.6724508 -0.10930815 0
-2.3364992 -2.5620191 -0.18500571 0
-2.1356661 -2.5948794 -0.19223256 0
1.4502398 -2.5349894 -0.18888512 0
1.54022 -2.5496953 -0.18868724 0
1.6770782 -2.5022676 -0.18885317 0
1.7267709 -2.5750234 -0.18980423 0
1.8714373 -2.5256352 -0.19174077 0
1.9241247 -2.5951624 -0.19288892 0
2.4960001 -2.5320001 -0.19 0
-2.2753744 -2.4965143 -0.19600429 0
1.4493051 -2.4651737 -0.18792181 0
1.6273855 -2.4295115 -0.18790212 0
1.8187499 -2.4561081 -0.19059262 0
2.373071 -2.409071 -0.18877245 0
2.4373012 -2.4733012 -0.18941385 0
2.5344019 -2.453402 -0.19202299 0
1.447 -2.3970001 -0.18700001 0
1.5776927 -2.3567557 -0.18695106 0
1.7397187 -2.3518176 -0.18887037 0
2.3088408 -2.344841 -0.18813108 0
2.4366031 -2.355603 -0.19228449 0
2.5359859 -2.341557 -0.18980666 0
1.528 -2.2839999 -0.186 0
1.6606874 -2.2475271 -0.18714815 0
2.1803806 -2.2163806 -0.18684831 0
2.2662725 -2.2437727 -0.19008584 0
2.36619 -2.2354467 -0.19030681 0
2.4519749 -2.2653027 -0.18885198 0
2.5692348 -2.2636724 -0.18987766 0
1.608 -2.178 -0.186 0
2.1161506 -2.1521506 -0.18620692 0
2.2284672 -2.1474674 -0.19284099 0
2.3179805 -2.1436799 -0.18732932 0
2.4560995 -2.1656432 -0.18859205 0
2.5618262 -2.1515141 -0.18962082 0
2.6310363 -2.1433506 -0.19177216 0
1.9876903 -2.0236902 -0.18492416 0
2.0519204 -2.0879204 -0.18556553 0
2.1764932 -2.0550284 -0.18940333 0
2.2682326 -2.0503378 -0.18661059 0
2.3766572 -2.0435519 -0.18782848 0
2.4644818 -2.0667031 -0.18878525 0
2.5510981 -2.0468466 -0.19118483 0
2.658 -2.0320001 -0.191 0
1.9234602 -1.9594603 -0.18428276 0
2.0499916 -1.9004343 -0.18428399 0
2.1169889 -1.9612457 -0.18504533 0
2.2172351 -1.9586724 -0.18587767 0
2.3346891 -1.9536219 -0.18767115 0
2.4445817 -1.962539 -0.18948737 0
2.5427628 -1.9398985 -0.1892373 0
2.6107233 -1.9942149 -0.19027683 0
-1.262 -1.814 -0.2 0
1.3583845 -1.8459539 -0.18190174 0
1.795 -1.831 -0.183 0
1.85923 -1.8952301 -0.18364139 0
1.9829944 -1.8396229 -0.18352266 0
2.0807409 -1.8404034 -0.1843266 0
2.148988 -1.8995379 -0.18510213 0
2.2472479 -1.8532158 -0.18677647 0
2.3380654 -1.878231 -0.18778989 0
2.4408221 -1.8584239 -0.18767798 0
1.265233 -1.7651401 -0.18111446 0
1.349735 -1.7452573 -0.18154368 0
1.4135001 -1.7409999 -0.182 0
1.849 -1.7180001 -0.182 0
1.9301221 -1.750473 -0.18276843 0
2.0124941 -1.781269 -0.18355106 0
2.1536922 -1.7531453 -0.18530719 0
2.270921 -1.7226328 -0.1850791 0
2.3388815 -1.7769493 -0.18611865 0
1.1738466 -1.639428 -0.1802229 0
1.258674 -1.6438013 -0.18057586 0
1.348074 -1.6618114 -0.18107677 0
1.437204 -1.6473236 -0.18143226 0
1.876 -1.663 -0.182 0
2.0540218 -1.6534104 -0.18326329 0
2.135 -1.614 -0.183 0
2.2029605 -1.6683164 -0.18403955 0
3.2249999 -1.608 -0.167 0
1.1815 -1.5335 -0.17950001 0
1.2500247 -1.5432703 -0.17969227 0
1.3409314 -1.5630536 -0.18026583 0
1.4538507 -1.5518602 -0.18123057 0
1.9475055 -1.5691025 -0.18156582 0
3.0288105 -1.51529 -0.17917404 0
3.1402159 -1.567935 -0.17226106 0
3.6593506 -1.5206339 -0.18829425 0
3.7260001 -1.548 -0.18799999 0
1.255132 -1.4416914 -0.17929715 0
1.3606764 -1.4541644 -0.18019737 0
1.4489684 -1.463374 -0.18087347 0
1.5088993 -1.4525284 -0.18124646 0
2.8431351 -1.4275483 -0.19069567 0
2.9545405 -1.4801934 -0.1837827 0
3.449513 -1.4344754 -0.1892207 0
3.5754156 -1.4861705 -0.18866482 0
1.256 -1.3440001 -0.17900001 0
1.3537537 -1.34723 -0.17883843 0
1.4616954 -1.3531971 -0.1797522 0
1.5330782 -1.3843038 -0.18096657 0
1.9691749 -1.3042965 -0.17798072 0
2.1471219 -1.3219229 -0.18195577 0
3.1557403 -1.3138536 -0.19051771 0
3.2396753 -1.348317 -0.19014713 0
3.3236103 -1.3827804 -0.18977655 0
1.2755001 -1.2415 -0.17649999 0
1.3492317 -1.251399 -0.17758405 0
1.4180782 -1.2828038 -0.17896658 0
1.5447278 -1.2465512 -0.18010066 0
1.852284 -1.2299819 -0.17759365 0
1.9897952 -1.2226765 -0.18052922 0
2.0660195 -1.2707611 -0.18122038 0
2.9459023 -1.2276951 -0.19144413 0
3.071805 -1.2793902 -0.19088827 0
1.3460305 -1.1617756 -0.17738366 0
1.451896 -1.1639991 -0.17852977 0
1.5180045 -1.1863439 -0.17978732 0
1.6671748 -1.1122966 -0.17698072 0
1.7412186 -1.1593707 -0.17722589 0
1.8378954 -1.1148531 -0.17901438 0
1.9343014 -1.1670629 -0.1788279 0
2.0341482 -1.1515522 -0.1797772 0
2.164 -1.194 -0.182 0
2.8199999 -1.176 -0.192 0
1.3561116 -1.0798159 -0.17675413 0
1.5561093 -1.0416853 -0.17661294 0
1.6908562 -1.0267023 -0.17869595 0
1.7643759 -1.0707777 -0.17885518 0
1.8525687 -1.0173495 -0.17841116 0
1.9486786 -1.0534436 -0.17789303 0
2.0265443 -1.0455486 -0.17703652 0
2.1398187 -1.0497835 -0.18074811 0
1.3710001 -0.92400002 -0.176 0
1.4450438 -0.97107416 -0.17624518 0
1.5324488 -0.93416917 -0.1763823 0
1.6435729 -0.9646067 -0.17789364 0
1.7582906 -0.93795317 -0.17765212 0
1.8594469 -0.95018727 -0.17763953 0
1.9418124 -0.96704531 -0.17805903 0
2.0369844 -0.94154167 -0.17725791 0
1.38 -0.838 -0.175 0
1.4562244 -0.88608456 -0.17569116 0
1.5395229 -0.83978313 -0.17480372 0
1.6269282 -0.86572486 -0.1772352 0
1.7517185 -0.84601939 -0.17699058 0
1.8637651 -0.83727258 -0.17646627 0
1.9531122 -0.84924036 -0.17585307 0
2.060792 -0.84785414 -0.17596866 0
-1.6522106 -0.72450411 -0.19658533 0
1.383 -0.75099999 -0.17299999 0
1.4686106 -0.75489396 -0.17386737 0
1.5559194 -0.75479269 -0.17466582 0
1.6369395 -0.76659447 -0.17624937 0
1.74465 -0.73571175 -0.17559171 0
1.8548011 -0.76459783 -0.17512359 0
1.9610951 -0.74545455 -0.17513508 0
2.0558226 -0.75332743 -0.17497003 0
-1.731311 -0.61438209 -0.19928759 0
-1.6578264 -0.63446105 -0.19946331 0
-1.5504999 -0.63699996 -0.1955 0
1.396 -0.67400002 -0.17299999 0
1.4801722 -0.62744534 -0.17248826 0
1.5613441 -0.66089064 -0.17297651 0
1.6427687 -0.64921427 -0.17376494 0
1.7461263 -0.64104515 -0.17436032 0
1.8559322 -0.66470027 -0.17372386 0
1.9644768 -0.64256436 -0.17339233 0
2.0448611 -0.66853511 -0.17355111 0
-1.808548 -0.54585904 -0.19935997 0
-1.7198343 -0.54163933 -0.19728643 0
-1.6405954 -0.56075001 -0.19672543 0
-1.5555 -0.53200001 -0.19499999 0
1.3965001 -0.55449998 -0.171 0
1.4765967 -0.54476893 -0.17061003 0
1.5591934 -0.57453787 -0.17122003 0
1.641852 -0.53834414 -0.17275061 0
1.7225082 -0.56439918 -0.17291105 0
1.854624 -0.58342838 -0.17175224 0
1.9477657 -0.51345652 -0.17150503 0
2.056 -0.542 -0.17200001 0
-1.7274275 -0.47677281 -0.19781381 0
-1.6489686 -0.45484796 -0.19681509 0
-1.5505 -0.44800001 -0.19350001 0
1.395 -0.44100001 -0.169 0
1.478568 -0.46689609 -0.16950041 0
1.5653396 -0.45312017 -0.16988578 0
1.6528149 -0.43567222 -0.17015617 0
1.7488762 -0.42945066 -0.17179847 0
1.8469503 -0.46228808 -0.17139038 0
1.9535351 -0.43276444 -0.17095087 0
2.0445235 -0.4701421 -0.17102988 0
-1.586 -0.39700001 -0.198 0
1.4571046 -0.35885295 -0.16921514 0
1.5720843 -0.33466959 -0.16952014 0
1.6443754 -0.34800148 -0.17226006 0
1.7527174 -0.34313115 -0.17210801 0
1.8520972 -0.37136412 -0.17129205 0
1.9563111 -0.36907241 -0.1717117 0
2.0453196 -0.38704526 -0.17106982 0
1.402 -0.29800001 -0.169 0
1.641 -0.223 -0.17399999 0
1.7572132 -0.22937711 -0.17184095 0
1.8580716 -0.23789233 -0.17062306 0
1.9404277 -0.24963868 -0.17008963 0
2.0288918 -0.26219252 -0.16952811 0
1.4527514 -0.16632664 -0.17086165 0
1.5754533 -0.14406753 -0.17049789 0
1.6587867 -0.15006752 -0.1719979 0
1.7371492 -0.13703832 -0.17252588 0
1.8427461 -0.15438987 -0.17204662 0
1.9604477 -0.15335461 -0.17146111 0
2.0265 -0.167 -0.171 0
2.3557928 -0.10192071 -0.17147249 0
2.4478209 -0.1068304 -0.17101578 0
1.3935001 -0.057499997 -0.16949999 0
1.4795145 -0.062801167 -0.16984522 0
1.5611575 -0.030376198 -0.16983168 0
1.646118 -0.048782151 -0.17262375 0
1.7335819 -0.052746244 -0.17261121 0
1.8210458 -0.05671034 -0.17259866 0
1.93619 -0.055888515 -0.17236103 0
2.0332139 -0.072553597 -0.17267717 0
2.1780946 -0.092440531 -0.17235437 0
2.2669437 -0.09718062 -0.17191343 0
1.381 0.041999999 -0.169 0
1.4667288 0.042998504 -0.16942793 0
1.5524576 0.043997008 -0.16985586 0
1.6381863 0.044995513 -0.17028379 0
1.7239151 0.045994017 -0.17071173 0
1.8525083 0.047491778 -0.17135362 0
1.9815507 0.048994765 -0.17199776 0
1.614 0.132 -0.17399999 0
1.7458878 0.139516 -0.17310524 0
1.8777755 0.14703198 -0.17221047 0
1.9657006 0.15204264 -0.17161396 0
2.0536258 0.15705331 -0.17101747 0
2.141551 0.16206396 -0.17042096 0
2.2294762 0.16707462 -0.16982445 0
2.3342009 0.17304264 -0.16911396 0
1.556 0.39700001 -0.17299999 0
1.5588491 0.47699487 -0.17047855 0
1.6280363 0.41108829 -0.17140509 0
1.7360908 0.4322207 -0.16901274 0
1.827 0.44999999 -0.167 0
-2.1052256 0.59442592 -0.19098261 0
-2.0296128 0.56996292 -0.19024131 0
1.4630001 0.56999999 -0.168 0
1.5314008 0.59920484 -0.16697527 0
1.6663963 0.50397944 -0.16891423 0
1.7680472 0.52948457 -0.16743568 0
-2.0378015 0.65303636 -0.18922684 0
-1.9643334 0.65266663 -0.18933332 0
1.434 0.639 -0.167 0
1.5499203 0.64968204 -0.1659427 0
1.6682024 0.65761453 -0.16492581 0
1.73 0.68400002 -0.164 0
-2.02 0.72799999 -0.18799999 0
-1.9540012 0.75544238 -0.1875 0
-1.883 0.778 -0.18700001 0
1.377 0.78100002 -0.167 0
1.4428303 0.72989237 -0.16644156 0
1.5521996 0.74173915 -0.164818 0
1.6570585 0.74693155 -0.16340229 0
-2.3463602 0.8632648 -0.19443396 0
-2.2190001 0.81599998 -0.19499999 0
-1.949 0.83599997 -0.18650001 0
-1.869426 0.858473 -0.18539999 0
-1.795 0.89499998 -0.184 0
-1.3232532 0.86629462 -0.17591834 0
-1.2385 0.85300004 -0.175 0
-1.1449947 0.86939263 -0.1733755 0
-1.068 0.89700001 -0.17200001 0
1.3405 0.84800005 -0.16599999 0
1.4439402 0.85154063 -0.16478963 0
1.5309088 0.8711977 -0.16413659 0
1.620491 0.82417721 -0.16332471 0
-2.6435342 0.97354937 -0.19311318 0
-2.5586274 0.94203949 -0.19349054 0
-2.4737206 0.91052961 -0.19386791 0
-1.8377643 0.94700879 -0.18398584 0
-1.7624716 0.96881789 -0.18333332 0
-1.4637594 0.9608838 -0.17775503 0
-1.3759295 0.95014572 -0.17657213 0
-1.2720778 0.94271082 -0.1750779 0
-1.15871 0.95035625 -0.17285171 0
-1.028 0.95099998 -0.171 0
1.2773334 0.94366664 -0.16366668 0
1.3560234 0.95199281 -0.16373546 0
1.4269874 0.97666395 -0.16350576 0
1.570043 0.93259048 -0.16275238 0
1.6443278 0.94684219 -0.16251951 0
1.7419633 0.97921491 -0.16249217 0
-2.9831614 1.0995889 -0.19160372 0
-2.8558011 1.0523241 -0.19216977 0
-2.728441 1.0050592 -0.19273582 0
-1.808 1.016 -0.183 0
-1.7460856 1.0770652 -0.18224999 0
-1.6406329 1.0502365 -0.18079585 0
-1.5340126 1.0081784 -0.17867336 0
-1.4591173 1.0614789 -0.17728825 0
-1.3449287 1.0360931 -0.1752045 0
-1.2403727 1.0441483 -0.1737722 0
-1.1521885 1.0423061 -0.17289154 0
-1.072419 1.0416381 -0.17201419 0
-0.97350001 1.04 -0.1715 0
1.178 1.058 -0.16 0
1.2560153 1.0493786 -0.16261318 0
1.3535764 1.0501997 -0.16178326 0
1.4763685 1.0454892 -0.16226986 0
1.5480522 1.0443012 -0.1629952 0
1.6402889 1.0471015 -0.16278428 0
1.7469126 1.0594567 -0.15903755 0
1.8646977 1.0476054 -0.16118279 0
1.9465501 1.073633 -0.16154921 0
-3.119 1.15 -0.191 0
-3.0680683 1.1310986 -0.19122636 0
-2.0039117 1.1959448 -0.14860392 0
-1.9311373 1.1621482 -0.17253464 0
-1.8568624 1.1439015 -0.16932659 0
-1.712 1.128 -0.18099999 0
-1.6419321 1.1474618 -0.17949487 0
-1.55041 1.1479836 -0.1778875 0
-1.455333 1.1322458 -0.17623393 0
-1.3583387 1.1445838 -0.17498744 0
-1.2474385 1.1568407 -0.17346364 0
-1.1517509 1.1557498 -0.17320471 0
-1.0467063 1.1548972 -0.1720106 0
-0.93857735 1.1606069 -0.17115867 0
0.76300001 1.17 -0.15700001 0
1.081 1.179 -0.15800001 0
1.1376562 1.1234386 -0.15682606 0
1.2244935 1.1525202 -0.15847193 0
1.3282639 1.134656 -0.15812992 0
1.4231732 1.1035964 -0.16103342 0
1.5504329 1.1267874 -0.16337925 0
1.6651565 1.1714035 -0.15998562 0
1.763389 1.1371669 -0.16008936 0
1.8752285 1.1444564 -0.15658985 0
1.9654584 1.1503165 -0.1563963 0
2.0495028 1.1475996 -0.15896925 0
2.152848 1.1759397 -0.16026288 0
-2.1531863 1.2892414 -0.12567317 0
-2.0519006 1.2541633 -0.15776536 0
-1.9717088 1.2524019 -0.16623019 0
-1.8794999 1.2385 -0.18349999 0
-1.6489226 1.2388897 -0.17863259 0
-1.5322719 1.2617362 -0.17682877 0
-1.4573318 1.259428 -0.17593043 0
-1.3665001 1.2378314 -0.1745052 0
-1.2587842 1.2535529 -0.17395315 0
-1.1397514 1.2373939 -0.17290013 0
-1.0454398 1.2518145 -0.1725449 0
-0.98000002 1.276 -0.17200001 0
-0.76800001 1.2920001 -0.17 0
0.67299998 1.286 -0.15800001 0
0.73879385 1.2589428 -0.15730581 0
0.80797929 1.2362747 -0.15739805 0
1.0625 1.2444999 -0.16049999 0
1.1422774 1.2615913 -0.15945794 0
1.25 1.23 -0.156 0
1.3650874 1.2268584 -0.16191885 0
1.4274499 1.2831445 -0.16255847 0
1.6597314 1.2071499 -0.16151702 0
1.7508327 1.2396173 -0.15916345 0
1.8455708 1.2593117 -0.15854135 0
1.9414446 1.2435071 -0.15592137 0
2.0290928 1.2376845 -0.15338477 0
2.137795 1.2333106 -0.15481681 0
2.2432086 1.2592126 -0.15646701 0
2.3491681 1.2873251 -0.15759352 0
-2.3024609 1.3825381 -0.10274245 0
-2.224936 1.3467681 -0.13537909 0
-2.1464179 1.3488586 -0.14816849 0
-2.0244775 1.3361652 -0.17254718 0
-1.9161656 1.3310373 -0.17647679 0
-1.8279999 1.303 -0.182 0
-1.7684536 1.3265338 -0.17987955 0
-1.4364172 1.3531736 -0.17509496 0
-1.3456695 1.3551813 -0.17454354 0
-1.2591879 1.3443363 -0.17363083 0
-1.1540401 1.3567976 -0.17266127 0
-1.0575529 1.3504003 -0.17198402 0
-0.93800002 1.351 -0.17299999 0
-0.81063044 1.3603256 -0.17 0
-0.71600002 1.347 -0.169 0
0.57099998 1.399 -0.16 0
0.62099999 1.3380001 -0.15800001 0
0.70717257 1.3536181 -0.15848473 0
0.85069054 1.3440485 -0.15807115 0
1.0499309 1.3401223 -0.16056447 0
1.1577152 1.3590533 -0.1603124 0
1.221 1.3200001 -0.16 0
1.4898124 1.3394306 -0.16319808 0
1.5521748 1.3957168 -0.1638377 0
1.8505245 1.3282307 -0.15791823 0
1.9244258 1.3518405 -0.15717524 0
2.0446582 1.3456483 -0.15382789 0
2.1559808 1.3248748 -0.15079023 0
2.2662833 1.3429132 -0.15167557 0
2.3359547 1.3578283 -0.15054995 0
2.4347088 1.3578863 -0.1538137 0
2.5062239 1.3764336 -0.15545802 0
-2.4402781 1.4955438 -0.13507104 0
-2.346643 1.467333 -0.12091622 0
-2.2794733 1.4242845 -0.13239288 0
-2.1694555 1.4338305 -0.16159436 0
-2.0614972 1.4321117 -0.16443038 0
-1.9736422 1.4053142 -0.16784331 0
-1.5480574 1.4879332 -0.17571872 0
-1.4910383 1.4376221 -0.17547914 0
-1.392 1.42 -0.175 0
-1.2496799 1.4430213 -0.17299999 0
-1.1494842 1.4528141 -0.17229337 0
-1.0251455 1.4675571 -0.17245534 0
-0.95296538 1.4406972 -0.17222174 0
-0.87253809 1.446157 -0.171 0
-0.77480531 1.4517748 -0.1692985 0
-0.66725224 1.4415604 -0.16940261 0
-0.579 1.4960001 -0.17 0
0.5579074 1.4655936 -0.16049999 0
0.66760099 1.4433739 -0.15904331 0
0.75843143 1.4550452 -0.15921178 0
0.86355674 1.4626 -0.15914054 0
0.95045853 1.4195495 -0.15979609 0
1.0574712 1.4366721 -0.15979786 0
1.2597926 1.4380759 -0.16127807 0
1.568 1.41 -0.164 0
1.6335166 1.4691989 -0.16376601 0
1.9648721 1.4120646 -0.15723339 0
2.0466487 1.4474194 -0.15537213 0
2.156733 1.4205672 -0.15124972 0
2.2426 1.4399129 -0.14905846 0
2.3414574 1.4384915 -0.15091394 0
2.4523723 1.4954746 -0.15374181 0
2.5847518 1.4209877 -0.15439028 0
2.6751399 1.472271 -0.15316126 0
-2.440424 1.5750784 -0.13936894 0
-2.358515 1.5213017 -0.13633151 0
-2.2578065 1.5325456 -0.15567556 0
-2.155695 1.5332069 -0.15014747 0
-1.6100383 1.5426221 -0.17597915 0
-1.2389641 1.5291412 -0.17295203 0
-1.1686299 1.5105399 -0.17200001 0
-1.057264 1.5603944 -0.17177679 0
-0.94259644 1.558226 -0.16243286 0
-0.86219311 1.5343109 -0.16426526 0
-0.73551297 1.5483629 -0.16941577 0
-0.64142394 1.5455486 -0.16988841 0
-0.5345 1.5420001 -0.17 0
-0.48699999 1.586 -0.17 0
0.39899999 1.598 -0.164 0
0.45682624 1.55893 -0.162 0
0.54488069 1.5316631 -0.16124035 0
0.62662959 1.5413741 -0.16 0
0.71420193 1.5487477 -0.16008662 0
0.81184518 1.5607362 -0.15996943 0
0.96629876 1.5207912 -0.15933008 0
1.0718 1.5642815 -0.16153428 0
1.3540661 1.5444114 -0.1619129 0
1.6990333 1.5283978 -0.16353203 0
1.7645499 1.5875968 -0.16329804 0
2.0969257 1.5285994 -0.1540681 0
2.1646218 1.5389411 -0.1547308 0
2.2707827 1.5360179 -0.14992809 0
2.5545585 1.5602119 -0.15461272 0
2.5999999 1.589 -0.155 0
-2.4555411 1.6686695 -0.14212769 0
-2.35216 1.6342607 -0.14033753 0
-2.2649267 1.6099427 -0.13952994 0
-1.026 1.6210001 -0.171 0
-0.95029944 1.6630188 -0.16255911 0
-0.83992004 1.6580627 -0.16981378 0
-0.74121302 1.6391541 -0.16987455 0
-0.62430847 1.6683635 -0.16966414 0
-0.55212849 1.6515086 -0.16972981 0
-0.44593883 1.6341635 -0.16855226 0
-0.35082617 1.6535927 -0.16374999 0
-0.266 1.692 -0.163 0
0.29499999 1.675 -0.164 0
0.36185506 1.6616802 -0.16490267 0
0.43111071 1.6500371 -0.16277316 0
0.54085946 1.6349535 -0.16174035 0
0.64578193 1.656433 -0.16057368 0
0.75013459 1.6299984 -0.16089107 0
0.87313735 1.6445677 -0.15990679 0
1.1400799 1.6604505 -0.16185483 0
1.8300664 1.6467957 -0.16306405 0
2.2629189 1.6363693 -0.15280552 0
2.344579 1.6535929 -0.15377012 0
-2.507 1.78 -0.116 0
-2.4425077 1.7343664 -0.11648788 0
-0.99305135 1.7121441 -0.119367 0
-0.83600003 1.747 -0.17 0
-0.74019557 1.7781942 -0.16955367 0
-0.65396267 1.7460451 -0.16949622 0
-0.54536933 1.7704355 -0.16892201 0
-0.44703478 1.7385194 -0.16688904 0
-0.33853474 1.7529815 -0.16350001 0
-0.2547451 1.7546177 -0.16479972 0
-0.17399999 1.7855 -0.16500001 0
0.16249999 1.772 -0.1645 0
0.24927199 1.741015 -0.16485862 0
0.32687682 1.7422829 -0.16417521 0
0.44770876 1.7491268 -0.16287714 0
0.5437181 1.7666856 -0.162 0
0.65988064 1.7251632 -0.16099036 0
0.72220063 1.7851464 -0.15980919 0
0.93954951 1.7632706 -0.15962715 0
1.171 1.704 -0.162 0
1.895583 1.7059947 -0.16283007 0
1.9610996 1.7651937 -0.16259608 0
-0.81436944 1.8584182 -0.17 0
-0.71600002 1.816 -0.169 0
-0.64217991 1.8554276 -0.16920435 0
-0.55998564 1.8356665 -0.16920234 0
-0.44944853 1.8266773 -0.16562128 0
-0.35003152 1.8572325 -0.16333334 0
-0.25501937 1.8533646 -0.16493827 0
-0.13579492 1.8457901 -0.16500001 0
0.17055619 1.8383727 -0.16467112 0
0.23843968 1.860553 -0.16453218 0
0.35169592 1.8415737 -0.16379689 0
0.44499213 1.8555807 -0.16323701 0
0.50501555 1.8540376 -0.162 0
0.75540125 1.8692929 -0.15961838 0
0.98382425 1.8424059 -0.15944074 0
2.0593748 1.853992 -0.16224509 0
-1.4051797 1.9909143 -0.1738885 0
-1.353 1.919 -0.17399999 0
-0.84964335 1.942102 -0.17 0
-0.69467276 1.9497499 -0.16943657 0
-0.54415703 1.9154444 -0.16796823 0
-0.3354618 1.9376408 -0.16350001 0
-0.24259624 1.9497999 -0.16447215 0
-0.14071439 1.9481832 -0.1548028 0
0.15333733 1.9571683 -0.16500001 0
0.25153998 1.948967 -0.16434008 0
0.35556504 1.9521238 -0.16325432 0
0.47600001 1.9299999 -0.162 0
0.51700002 1.9 -0.162 0
0.78860188 1.9534392 -0.15942757 0
1.0280989 1.9215412 -0.15925433 0
2.128 1.916 -0.162 0
-1.4573594 2.0628288 -0.173777 0
-0.88491726 2.0257854 -0.17 0
-0.72340733 2.0337 -0.16932389 0
-0.63687128 2.0581481 -0.16869175 0
-0.35508215 2.0486813 -0.16335851 0
-0.28981707 2.0568471 -0.16371864 0
-0.13733894 2.047286 -0.1441056 0
0.156 2.0009999 -0.16500001 0
0.25694788 2.0458436 -0.16402844 0
0.34031603 2.034795 -0.16307585 0
0.84990126 2.0607929 -0.15961838 0
0.93400002 2.082 -0.16 0
1.0611868 2.0373383 -0.16003394 0
1.1166484 2.0798116 -0.15888149 0
1.227 2.053 -0.162 0
-1.5095392 2.134743 -0.17366551 0
-0.93782806 2.1513109 -0.17 0
-0.75214189 2.11765 -0.16921121 0
-0.67807257 2.1693268 -0.16845235 0
-0.40954146 2.1736906 -0.162 0
-0.32699475 2.1462908 -0.16400746 0
-0.15181226 2.154283 -0.14574663 0
0.667 2.1170001 -0.161 0
0.77200001 2.0999999 -0.16 0
0.82902062 2.1529377 -0.15916207 0
0.94225365 2.1622877 -0.15961552 0
1.0910903 2.1505356 -0.16021232 0
1.1609232 2.158947 -0.15869506 0
1.2676097 2.1239817 -0.14817905 0
1.3082194 2.1949632 -0.13435811 0
-1.6138986 2.2785718 -0.17344251 0
-1.5617189 2.2066574 -0.17355402 0
-1.028 2.25 -0.171 0
-0.99073887 2.2768364 -0.17 0
-0.82100004 2.2736666 -0.16933334 0
-0.75478351 2.2273986 -0.16881518 0
-0.67000002 2.2119999 -0.168 0
-0.4253886 2.262254 -0.162 0
-0.33816564 2.2582419 -0.16351199 0
-0.17819959 2.2854204 -0.16262503 0
0.69421846 2.2031112 -0.16022509 0
0.72143692 2.2892222 -0.15945019 0
0.86114001 2.2370825 -0.15870576 0
0.93507928 2.2642398 -0.15888055 0
1.0082604 2.2446957 -0.1593653 0
1.1321807 2.2270713 -0.15942465 0
1.2051979 2.2380822 -0.15850864 0
1.348829 2.265945 -0.12053716 0
-1.6660783 2.350486 -0.17333102 0
-1.0370055 2.3440349 -0.17026067 0
-0.85966074 2.3531861 -0.16922095 0
-0.75853586 2.3362958 -0.16829775 0
-0.44123578 2.3508177 -0.162 0
-0.35180914 2.3477831 -0.16322982 0
-0.18626611 2.3758938 -0.1621667 0
0.74865544 2.3753333 -0.15867528 0
0.86511451 2.3524299 -0.15783454 0
0.9693681 2.3449268 -0.15855934 0
1.0324495 2.3594766 -0.15862073 0
1.1732711 2.3036072 -0.15863697 0
1.2525271 2.3645711 -0.15810244 0
1.3894387 2.3369267 -0.10671622 0
1.831 2.368 -0.15700001 0
-1.7443478 2.4583576 -0.17316377 0
-1.1255422 2.4502609 -0.17045507 0
-1.0572277 2.4300606 -0.16973108 0
-0.917189 2.431289 -0.16946836 0
-0.86445403 2.4354563 -0.16841546 0
-0.78838116 2.4193945 -0.16806367 0
-0.45708293 2.4393811 -0.162 0
-0.36545271 2.4373248 -0.16294765 0
-0.19433264 2.4663672 -0.16170837 0
0.7758739 2.4614444 -0.15790039 0
0.89615268 2.4365733 -0.15711272 0
0.9878056 2.4583178 -0.15828273 0
1.0687029 2.4387641 -0.15823624 0
1.1196508 2.4887393 -0.15841325 0
1.2554518 2.4566786 -0.15706162 0
1.326 2.454 -0.15800001 0
1.8839437 2.438798 -0.1419322 0
-1.821 2.5639999 -0.17299999 0
-1.1558752 2.5792997 -0.16966069 0
-1.0924554 2.5091214 -0.16946217 0
-0.95218986 2.5663078 -0.16865672 0
-0.85332638 2.5345898 -0.16784942 0
-0.4411101 2.537797 -0.16250955 0
-0.35481089 2.5510066 -0.16217117 0
-0.20239916 2.5568407 -0.16125004 0
0.80309236 2.5475557 -0.15712549 0
0.92719084 2.5207167 -0.15639091 0
1.0494229 2.5576096 -0.15779406 0
1.1348906 2.5835435 -0.15754795 0
1.2965422 2.5332143 -0.15627395 0
1.9633592 2.5449951 -0.11933052 0
-1.2230841 2.6505218 -0.16991015 0
-1.1629108 2.6672425 -0.16892435 0
-1.0164725 2.6717224 -0.16867091 0
-0.95213509 2.6761405 -0.16753864 0
-0.87791699 2.6686902 -0.16736144 0
-0.45676869 2.6266966 -0.16236806 0
-0.37253648 2.6857772 -0.16174912 0
-0.2104657 2.6473141 -0.16079172 0
0.83031082 2.6336668 -0.15635058 0
0.97374809 2.6469316 -0.15530819 0
1.1939111 2.6514351 -0.15777855 0
1.3503163 2.6333752 -0.15524314 0
-1.2621009 2.7306261 -0.16969217 0
-1.1981386 2.7463033 -0.16865543 0
-1.049567 2.7518671 -0.16840509 0
-0.93770814 2.7683859 -0.16712458 0
-0.51231217 2.7480359 -0.162 0
-0.44023016 2.7261202 -0.16245311 0
-0.38435355 2.7756245 -0.16146778 0
-0.21853223 2.7377875 -0.1603334 0
0.85752928 2.7197778 -0.15557568 0
1.0203054 2.7731466 -0.15422545 0
1.2310413 2.7327828 -0.1574612 0
-1.3206263 2.8507826 -0.16936521 0
-1.2333663 2.8253639 -0.16838652 0
-1.0628872 2.8433373 -0.16771309 0
-0.4603501 2.8421779 -0.16208506 0
-0.39617062 2.8654716 -0.16118641 0
-0.22659875 2.8282609 -0.15987507 0
0.88474774 2.8058889 -0.15480077 0
0.91196626 2.892 -0.15402587 0
1.0513436 2.8572903 -0.15350364 0
1.2765857 2.8325653 -0.15707192 0
-1.3825758 2.9779696 -0.16901913 0
-1.2762971 2.9217122 -0.1680588 0
-0.40400001 2.925 -0.161 0
-0.23466527 2.9187346 -0.15941674 0
0.93918473 2.9781113 -0.15325096 0
1.073 2.9159999 -0.153 0
-0.242 3.0009999 -0.15899999 0
0.94800001 3.006 -0.153 0
-1.4725302 4.3535542 -0.16278064 0
-1.510121 4.4782171 -0.15012255 0
-1.5351814 4.561326 -0.14168382 0
-1.2642452 4.5573206 -0.16046301 0
0.80199999 4.5640001 -0.141 0
0.90899998 4.5409999 -0.14 0
-1.5602418 4.6444345 -0.1332451 0
-1.3039805 4.6782832 -0.14685202 0
0.82164949 4.6473703 -0.13370162 0
0.92224979 4.6273131 -0.13684528 0
-1.5853024 4.7275434 -0.12480637 0
-1.3304707 4.7589245 -0.13777803 0
0.84129894 4.7307401 -0.12640324 0
0.94212455 4.7567825 -0.1321132 0
-1.622893 4.8522062 -0.11214828 0
-1.3569609 4.8395658 -0.12870404 0
0.8707732 4.8557949 -0.11545566 0
0.9619993 4.8862524 -0.12738113 0
-1.656 4.9619999 -0.101 0
-1.3834511 4.920207 -0.11963004 0
0.93774831 4.9767075 -0.11436725 0
-1.4209707 5.0344243 -0.10677803 0
0.98849893 5.0588784 -0.12107169 0
1.0017488 5.1451917 -0.11791697 0
1.0140001 5.2249999 -0.115 0
-2.408 -4.4640002 -0.026000001 0
-2.026 -4.4759998 -0.015 0
-2.3424432 -4.3496532 -0.0065509523 0
-1.9878703 -4.3950615 -0.0048453659 0
-4.342 -3.8050001 -0.0040000002 0
0.33133221 -3.057287 -0.010520063 0
0.29877385 -2.9510803 -0.046240568 0
0.32111019 -2.9732392 -0.024433382 0
0.28923818 -2.8701284 -0.05638491 0
0.30577713 -2.8471675 -0.045303367 0
0.2803306 -2.7414188 -0.069551498 0
0.27076578 -2.6350398 -0.083091453 0
2.0220485 -2.6031926 -0.094526179 0
0.26100001 -2.5534999 -0.094999999 0
1.9670554 -2.5339344 -0.079744205 0
1.875 -2.418 -0.054999992 0
1.9120623 -2.4646761 -0.064962238 0
-1.9560587 1.0701137 -0.01629151 0
-1.8502541 1.0643487 -0.010400489 0
-1.7386918 1.0727983 -0.0068719708 0
-1.6811461 1.0257981 -0.0017600358 0
-2.1538949 1.1736444 -0.038330257 0
-2.0393062 1.1429842 -0.02947198 0
-1.9423543 1.1532449 -0.02086137 0
-1.8459601 1.1573846 -0.029489979 0
-1.7716147 1.1680604 -0.0080871573 0
-1.5686117 1.1820755 -0.0054972488 0
-2.3517311 1.2771753 -0.060369007 0
-2.2725966 1.235763 -0.05155351 0
-2.1491075 1.2543609 -0.041011892 0
-2.047709 1.2503469 -0.044855211 0
-1.9519743 1.2395123 -0.038408101 0
-1.855692 1.2490115 -0.014507229 0
-1.7193773 1.2357441 -0.011613441 0
-1.6357411 1.2323837 -0.014998168 0
-1.4531934 1.2611384 -0.004504418 0
-2.51 1.36 -0.078000002 0
-2.4319329 1.3542938 -0.073592253 0
-2.3550839 1.3468884 -0.06916739 0
-2.2508662 1.3352442 -0.057317734 0
-2.14748 1.3491924 -0.08299499 0
-2.054096 1.3493563 -0.040506318 0
-1.9404285 1.3501381 -0.031744994 0
-1.8460743 1.3068559 -0.024159208 0
-1.77 1.3329999 -0.034000002 0
-1.5535553 1.3683252 -0.017786976 0
-1.4695101 1.3437495 -0.0045199371 0
-1.3407786 1.3359884 -0.0088314014 0
-1.239501 1.3574532 -0.0079223253 0
-1.1252273 1.3988756 -0.0016482361 0
-2.444 1.471 -0.081 0
-2.3719764 1.4266161 -0.081739485 0
-2.2326763 1.4393491 -0.097714469 0
-2.1619999 1.405 -0.037999999 0
-2.0663829 1.4645705 -0.054772802 0
-1.9929466 1.411999 -0.04456827 0
-1.6342605 1.4407762 -0.028235912 0
-1.5257263 1.4060034 -0.015420756 0
-1.4600799 1.4436831 -0.022641135 0
-1.351167 1.4798177 -0.025307443 0
-1.295334 1.4186355 -0.016614886 0
-1.1490008 1.4431852 -0.0078536095 0
-2.5239999 1.598 -0.086999997 0
-2.4605083 1.5566776 -0.094742857 0
-2.2132552 1.5697137 -0.075181872 0
-2.1398191 1.5171422 -0.064977333 0
-1.676 1.525 -0.035999998 0
-1.4069999 1.541 -0.034000002 0
-1.2467341 1.5564091 -0.026725277 0
-2.3601277 1.6748568 -0.095590934 0
-2.2866914 1.6222852 -0.085386395 0
-1.34 1.651 -0.039000001 0
-0.072999999 2.0480001 -0.067000002 0
1.243813 2.0613396 -0.0013776384 0
1.32637 2.0851035 -0.009251263 0
1.4030691 2.0955956 -0.0092189685 0
-0.08284229 2.1562653 -0.059208192 0
1.2900504 2.1372716 -0.01350211 0
1.3740275 2.1590776 -0.022188447 0
1.4523019 2.1684468 -0.022414226 0
-0.12579648 2.2462864 -0.097018637 0
-0.092684582 2.2645304 -0.051416378 0
1.3594065 2.2511697 -0.031688817 0
1.421685 2.2330518 -0.035125632 0
1.5015346 2.2412977 -0.035609484 0
-0.12867789 2.3395717 -0.081711181 0
-0.097000003 2.312 -0.048 0
1.4490526 2.3360469 -0.048969172 0
1.5338836 2.3475745 -0.054902371 0
1.6040001 2.3525 -0.033500001 0
1.4566828 2.4393027 -0.078631759 0
2.0427747 2.6511919 -0.096728824 0
2.0957184 2.7219899 -0.081661023 0
2.1486621 2.792788 -0.06659323 0
2.2016058 2.8635859 -0.051525436 0
2.2545495 2.9343839 -0.036457643 0
2.3257465 3.0295908 -0.016194925 0
0.9198969 5.06422 -0.097209707 0
0.94077319 5.1527948 -0.089455664 0
-1.9497408 -4.3141232 0.0053092679 0
-2.2768865 -4.2353063 0.012898095 0
-1.9116111 -4.2331848 0.015463901 0
-2.2331822 -4.1590748 0.025864128 0
-1.8734814 -4.1522465 0.025618535 0
-2.1676254 -4.0447278 0.045313176 0
-1.8353517 -4.0713081 0.035773166 0
-2.1020687 -3.9303808 0.06476222 0
-1.7781572 -3.9499004 0.051005118 0
-2.0583642 -3.8541496 0.077728249 0
-1.7209628 -3.8284926 0.06623707 0
-4.2761674 -3.7441852 0.0038276413 0
-2.017 -3.7820001 0.090000004 0
-1.6828331 -3.7475543 0.076391712 0
-4.2103353 -3.6833706 0.011655282 0
-4.1445026 -3.6225557 0.019482926 0
-1.6438518 -3.664808 0.086773172 0
-4.045754 -3.5313334 0.031224389 0
-3.9470053 -3.4401114 0.042965852 0
-3.8482566 -3.3488894 0.054707311 0
-3.7495079 -3.2576671 0.066448778 0
-3.6860001 -3.1989999 0.074000001 0
0.34185138 -3.1437786 0.0037977521 0
0.33151245 -3.0610995 0.016235467 0
0.32102492 -2.9771993 0.028470935 0
0.30529362 -2.8513489 0.046824135 0
0.28956228 -2.7254982 0.065177336 0
0.27907476 -2.641598 0.077412806 0
0.27000001 -2.569 0.088 0
-1.767895 0.9716444 0.0046697445 0
-1.6599003 0.97772092 0.013575605 0
-1.5797069 0.9333415 0.030096337 0
-1.4568863 0.97582996 0.028121624 0
-1.3794107 0.97429216 0.065910682 0
-1.8312759 1.0781221 0.0057951137 0
-1.7428712 1.0178192 0.007377224 0
-1.6617861 1.0397732 0.005980717 0
-1.5486215 1.0568917 0.021617673 0
-1.4392052 1.0508634 0.032680839 0
-1.3531117 1.0205755 0.025002751 0
-1.223 1.075 0.045500003 0
-1.1446666 1.0803334 0.064000003 0
-1.7125142 1.1166869 0.0056643374 0
-1.653749 1.1507802 0.0061665131 0
-1.5370054 1.1217005 0.013966107 0
-1.336308 1.1754115 0.024251843 0
-1.2564363 1.1400484 0.04225181 0
-1.1718127 1.1615224 0.034946356 0
-1.073 1.175 0.017999999 0
-1.4297878 1.2858059 0.012643129 0
-1.3503778 1.2572253 0.020406324 0
-1.2541399 1.2419658 0.018370919 0
-1.1557517 1.26568 0.0051165093 0
-1.0145 1.278 0.018999999 0
-1.4861792 1.3480101 0.0017377287 0
-1.3742169 1.3494751 0.00353604 0
-1.0653 1.3388819 0.009014992 0
1.0644865 1.721711 0.053638726 0
1.1495484 1.7501822 0.052084938 0
1.249 1.777 0.059000004 0
1.1442492 1.8483622 0.032278039 0
1.2451741 1.8319756 0.042823244 0
1.3217256 1.8865948 0.046034999 0
1.1744568 1.9474416 0.016809072 0
1.231055 1.937155 0.016623106 0
1.3370208 1.9541944 0.027350361 0
1.2787125 2.0111294 0.0036859177 0
1.3538364 2.0227444 0.0039762929 0
1.4171504 2.0303965 0.029023334 0
1.4648628 2.1022973 0.020517498 0
1.5125751 2.1741984 0.012011667 0
1.5602876 2.2460992 0.0035058334 0
-1.3225497 3.5704997 0.0837892 0
-1.352371 3.6518564 0.072352909 0
-1.3816425 3.7317138 0.061127421 0
-1.4255497 3.8514996 0.044289194 0
-1.4694569 3.9712856 0.027450968 0
-1.4987285 4.0511427 0.016225483 0
-1.528 4.131 0.0049999999 0
