# .PCD v0.7 - Point Cloud Data file format
VERSION 0.7
FIELDS x y z intensity
SIZE 4 4 4 4
TYPE F F F F
COUNT 1 1 1 1
WIDTH 111
HEIGHT 1
VIEWPOINT 0 0 0 1 0 0 0
POINTS 111
DATA ascii
-37.973785 -17.193579 15.075376 14
-36.498325 -19.421322 13.67581 13
-36.45467 -19.454742 15.060812 14
-34.985065 -21.701859 15.115265 14
-12.61758 -26.884426 15.359049 18
-10.85609 -26.729115 15.017577 18
-8.2286415 7.0939913 4.224124 14
-8.0665054 7.1049662 4.507092 15
-5.7245126 0.48471591 0.16303097 4
-5.7108822 0.55799985 0.40900746 5
-5.6895857 7.4189634 9.205636 27
-5.7368746 7.2226524 9.6946726 28
-5.4687243 1.2417835 0.23576955 4
-5.5902195 0.4465152 0.44701007 6
-5.476686 1.2548622 0.72576815 7
-5.3556075 1.0652739 0.94178879 8
-4.4663711 7.29849 5.2124763 20
-4.2764363 -2.3688891 0.51257896 6
-4.2964535 -2.724442 0.96270472 9
-2.8600538 1.4849626 0.050133344 3.5
-2.981977 1.3610548 0.2351848 5
-2.8425312 1.4931343 0.32712793 6
-2.8897645 1.5459585 0.43312696 7
-2.8453271 1.6784471 0.49409145 8
-2.6917062 2.1259167 0.07547868 3.5
-2.6905112 2.2060409 0.15096447 5
-2.7183444 2.6774349 0.14689068 4
-2.6527448 -2.5449877 0.3152633 5.5
-2.6772051 2.6606884 0.38888639 6
-2.7221162 1.8724563 0.43803009 7
-2.6892173 2.666646 0.4998875 7
-2.730428 2.4572048 0.64792889 8
-2.1123269 7.4141822 4.7221999 20
-1.843621 -2.4339669 0.55503482 8.5
-1.9171146 7.4309168 4.2821822 19
-1.7725658 -2.4360504 0.33201855 7
-1.700454 -2.4244487 0.67499727 10
-1.5081736 -2.440793 0.11595612 4.5
-1.0208819 -2.3727221 0.2228113 6
-0.84669739 -2.3422952 0.57375586 10
-0.60889143 1.4427146 0.29477066 9
-0.5008859 1.4842428 0.36975819 10
-0.51586729 1.4741757 0.40176022 11
-0.28975397 1.5291591 0.36874211 10
-0.31379753 1.5340656 0.40074253 11
-0.2525585 9.4968548 3.640846 14
-0.2283936 7.5190353 4.6720672 20
-0.10371229 -2.2637026 0.73502141 12.5
-0.14732111 7.5272455 4.2790632 19
0.078020044 -2.2824528 0.092854634 4
0.0080563398 2.0452228 0.029676797 4
0.1603072 -2.2277646 0.67287344 12
0.35120368 9.5023775 0.86582142 6
0.22105359 9.4880371 1.2578276 7
0.22212644 9.5021486 2.2408261 10
0.3914299 9.5106649 2.4088192 11
0.5985359 -2.1708276 -0.057060331 2
0.55645221 -2.1667373 0.0059348978 3
0.58042228 -2.1688609 0.74993765 13
0.45701668 -2.2095816 0.83491766 14
0.49669713 9.5431337 3.925812 15
0.60047114 -2.1808672 0.32193899 7
0.76976413 2.8893042 0.32657489 6.5
0.85618311 -2.1353395 -0.14402823 1
0.87511379 -2.1624 0.11197134 5
0.86834455 2.0363634 0.10768417 5
0.84026968 2.0548298 0.26618108 6.5
0.95574081 9.3680954 1.0758184 7
0.86229736 9.4558372 1.0048108 6
0.97881407 9.3912544 1.9988147 10
0.87361389 9.4080124 2.3728163 11
1.0275303 -2.1256413 -0.017010788 3
1.0155193 -2.1206243 0.031988513 4
1.1273414 -2.1291528 0.30633107 7
1.0205815 9.4723072 1.4188049 8
1.2576014 1.7388266 0.33873719 8
1.4713423 1.7165166 0.24724774 6.5
1.5784175 9.615984 3.9027765 15
1.6544875 -2.1364744 0.5795356 9.5
1.7687554 9.6084194 3.7087743 14
2.3519108 7.6788669 7.9609962 27
3.152957 7.7041545 6.5769944 23
3.3495002 1.914091 0.16076887 4
3.3406286 1.8379945 0.38277918 6
3.2742195 2.5808849 0.29667354 5
3.2541113 9.6745577 3.9757545 14
3.4699273 1.6627665 0.23080568 5
3.4559381 1.6587667 0.49080598 7
4.350884 -2.0554926 0.61411637 7
4.3321352 7.9551177 9.0769739 27
4.2995095 7.8180475 9.5069923 28
4.4039402 -2.0394707 0.4291167 6
4.5475888 7.7870078 5.2489986 19
4.7548504 7.8012848 5.6499996 20
4.7429609 7.8003869 7.2329993 23
5.1473808 7.8940353 9.503994 27
6.2988443 7.748733 6.1530313 20
6.6088829 -29.155668 22.297029 23
8.0689688 -25.56555 27.76861 27
10.761449 1.9967227 0.76282459 5
10.799405 2.0728662 1.094817 6
10.824203 2.3714116 1.334785 7
14.047555 -25.446564 16.016335 18
14.987562 -25.229595 16.460451 19
23.569647 -26.02529 12.949077 14
24.275921 -25.86249 11.394134 13
31.396751 -24.437233 11.447553 12
31.369789 -23.895699 14.408566 14
31.415098 -24.367996 8.021554 9
31.941481 -23.440062 8.8616009 10
31.829025 -23.579264 10.222594 11
