# .PCD v0.7 - Point Cloud Data file format
VERSION 0.7
FIELDS x y z intensity
SIZE 4 4 4 4
TYPE F F F F
COUNT 1 1 1 1
WIDTH 518
HEIGHT 1
VIEWPOINT 0 0 0 1 0 0 0
POINTS 518
DATA ascii
-42.205338 -13.767076 13.684116 12
-40.810867 -16.474686 12.747674 12
-40.887695 -16.42865 14.316672 13
-40.451698 -17.07415 12.973792 12
-40.472847 -17.325411 14.276868 13
-40.395794 -17.41523 12.758883 12
-23.72793 -0.93615311 -0.10619015 3
-14.799 -1.2480891 -0.048524331 3
-11.466345 -28.877897 13.551023 16
-11.510521 -28.956768 14.726052 17
-11.190449 -3.2740128 -0.38956136 2
-11.178077 -28.933706 14.630993 17
-10.674961 8.0130177 10.377142 23
-10.727027 -28.927059 13.486916 16
-10.596648 -28.926226 14.163896 16
-10.604374 -28.919992 14.549893 17
-10.062665 -28.959768 14.521817 17
-9.8455944 -28.932867 13.992773 16
-9.7519102 -28.970451 14.412767 17
-9.2627268 8.0707359 9.1369848 23
-8.812108 9.8456964 -0.16122277 3
-8.9811735 7.962667 9.306469 23
-8.9001074 7.8916459 10.383969 25
-8.8290462 7.9088678 10.411959 25
-8.5746613 7.8414998 10.868941 26
-8.0451469 7.8510222 9.86339 25
-7.8537374 -2.662549 0.012754587 3
-7.7628198 -2.2555084 0.0066294908 3
-7.8474536 7.8231802 10.361876 26
-7.7469959 -28.929794 14.539412 17
-7.4636636 -2.2741578 0.12758794 4
-7.5899901 7.7678318 10.897859 27
-7.3468404 -29.158579 13.915408 16
-7.3342195 -29.085728 14.279385 17
-6.9808145 5.2215028 -0.27594334 2
-6.9985895 7.7869124 9.1798058 25
-6.939599 7.7943401 9.2268019 25
-6.8887157 7.7769394 9.6737986 26
-7.1437688 -29.131657 13.283363 16
-7.1390424 -29.158396 14.575372 17
-6.5775471 -14.682075 -0.047909066 3
-6.6669397 7.7738886 9.9047813 26
-6.6868424 7.7840705 10.070783 27
-6.2165494 7.941361 8.8697357 25
-6.1750269 7.7698536 9.4192457 26
-6.0617981 7.7404141 9.6867418 27
-5.7579889 1.5250678 0.26393035 5
-5.6420875 1.4400963 0.4284288 5
-5.6823425 1.6297824 0.57090026 6
-5.619668 7.7381625 5.3327136 19
-5.8055277 7.8158269 9.3617191 26.333334
-5.759274 7.7157917 9.7122231 27
-5.3533835 -3.8340354 -0.18129268 2
-5.3638883 -2.1046004 -0.1127844 3
-5.3379045 2.1780646 0.17325912 4
-5.4228811 2.1481822 0.46277556 5.5
-5.273262 7.7072549 5.0036955 18
-5.3731933 7.695127 5.2362013 19
-5.4737024 7.5533614 7.1887169 23
-5.416923 7.7096219 6.9987025 22.5
-5.3340726 7.6969609 7.2116985 23
-5.5866175 7.8839617 8.9656992 26
-5.4014368 7.8305116 9.3476954 26.666666
-5.3099942 -29.265512 13.680069 16
-5.0927734 -4.0052185 -0.17528167 2
-5.1991024 7.8827376 9.1326809 26
-5.1057081 7.786129 9.3941803 27
-4.9362903 -29.293133 13.247008 16
-5.1998134 -29.277514 14.430053 17
-4.6541452 7.6862726 4.7346654 18
-4.5887451 7.6797905 4.9301634 18.5
-4.4009795 7.5556207 6.6596627 23
-4.5671339 7.6847386 6.4676614 22
-4.7259231 -29.314116 14.195976 17
-4.0130544 -2.0236404 -0.2290161 2
-4.1449203 -1.7522534 -0.23207067 2
-4.0507841 -1.3981735 -0.22318149 2
-4.3801842 1.8225194 -0.23181674 2
-4.0258975 2.1535726 -0.046910692 3
-4.1023965 2.6125405 -0.16045989 2
-4.0052977 1.6888334 0.059152815 4
-4.1173291 -28.832249 4.0387235 7
-4.3315153 7.6709561 6.3826532 22
-4.2197652 7.6461678 6.6286507 23
-4.0783687 -28.746634 9.0506926 12
-4.244987 -29.285133 31.236876 28
-3.676244 7.6241832 4.564136 18
-3.7838356 -28.94384 5.0226917 8
-3.7545338 -28.779421 19.317636 21
-3.8307083 -28.962978 31.513205 28
-3.3419971 -1.6876717 -0.23521392 1
-3.4005909 -1.5283219 -0.23824854 1
-3.3829486 -1.0664505 -0.23387474 1
-3.5610058 3.9688377 -0.22014546 2
-3.4407179 -28.817181 4.051589 7
-3.4192896 -28.935484 4.6566186 8
-3.5518885 7.628356 4.675632 19
-3.2652628 -28.977634 8.3946018 12
-3.4397974 -28.791794 9.0495825 12
-3.3557708 -29.181301 31.506678 28
-2.8901598 0.57576096 -0.21982285 1
-3.0904307 1.1024885 -0.19988212 1
-3.1413908 1.2865239 -0.20890306 1
-3.1810212 3.8966827 -0.20516624 2
-2.9670255 -2.1563447 0.17034277 4.5999999
-2.9579809 1.6800981 0.029020565 3.5
-3.0343356 -29.444824 3.8766885 7
-2.8803473 7.5171938 4.2606273 18
-2.9049387 -28.983232 4.6245327 8
-2.9823363 7.5808716 5.8286262 22
-3.0394945 -28.966242 8.7635546 12
-2.8032267 -28.836084 9.0524712 12
-2.4611969 -3.7859757 -0.051748447 3
-2.5506499 -3.3682797 -0.21385545 2
-2.5440724 -2.1251547 -0.096215419 2
-2.5966272 0.70557487 -0.20238806 1
-2.635 2.2228045 -0.088849969 2.3333333
-2.5163424 2.4879091 -0.098105639 2
-2.5182462 -2.1488633 0.14218314 4.5
-2.6776257 1.8554721 0.20567708 5
-2.6245117 2.1073496 0.2190626 5.25
-2.6246071 2.8823493 0.068871304 4
-2.483129 -2.1649046 0.4587864 7
-2.7832496 -28.929899 4.1814928 7.5
-2.6445379 7.5533466 4.2931252 18
-2.4518991 -29.514944 18.554594 20
-2.6922956 -28.937441 19.647478 21
-2.7223921 -29.238514 31.52557 28
-2.4249268 -28.984728 31.497438 28
-2.0085893 -8.7553053 -0.20139885 3
-2.1676431 -5.4349337 -0.23532106 2
-2.2709858 -3.8922639 -0.10474858 3
-2.2825253 -3.4832468 -0.20186503 2
-2.1758533 -2.1347318 -0.07269755 2.5999999
-2.2255025 -1.3235708 -0.20649053 1
-2.2866027 -0.908903 -0.20359126 1
-2.1378603 -2.1575882 0.1778606 5
-2.0895445 -29.512348 14.266521 17
-2.087781 -29.488585 18.828514 20
-2.3150787 -28.940493 19.344406 21
-2.0975847 -29.232697 31.559444 28
-1.6068652 -8.8205385 -0.20045593 3
-1.7096798 -4.8827195 -0.21755981 2
-1.983222 -3.8084419 -0.0078205736 3
-1.8092308 -3.461272 -0.19995017 2
-1.6702201 -2.5332983 -0.21123928 1
-1.841567 -2.2783332 -0.12878387 1.75
-1.6800356 -1.6972251 -0.20047513 1
-1.7281647 -1.592461 -0.20149657 1
-1.8954351 1.5465909 -0.18907706 1
-1.7350702 1.6312017 -0.18409704 1
-1.7157685 2.2917843 -0.11514252 2
-1.778458 -9.4614983 0.29125917 4
-1.6374849 -3.0938427 0.07091552 4
-1.6280699 -2.6199956 0.055278435 4
-1.817279 -2.1602437 0.1651784 5
-1.7652611 -9.5162325 0.44827238 5
-1.7723539 9.5074387 3.4265606 13
-1.8261926 9.5136633 3.6095588 14
-1.7121071 -29.486368 19.674437 21
-1.2444544 -14.995668 -0.19377266 3
-1.2114735 -8.9468794 -0.20249692 3
-1.3266191 -5.0049458 -0.20259523 2
-1.511312 -2.5252023 -0.20126857 1
-1.3995674 -1.3449638 -0.19362012 0
-1.3350039 1.1852018 -0.17609273 0
-1.2762685 1.2478052 -0.17410094 0
-1.4798014 1.7922907 -0.12545699 1.6666666
-1.3657806 2.1803787 -0.02664833 3
-1.5304502 2.5290453 -0.096662149 2.5
-1.4847661 -2.2406132 0.25874588 6.1999998
-1.2449775 1.6387715 0.040874496 4
-1.5141742 -2.2109504 0.44839254 8
-1.5819582 -29.533131 12.827425 16
-1.3030037 -29.544981 13.424371 16
-1.3807931 -29.61805 14.357408 17
-1.5245373 -29.558977 14.21842 17
-1.2412906 -29.521641 19.258352 21
-1.1514611 -2.8102775 -0.19625142 1
-0.84197426 -2.3114271 -0.19045067 1
-1.0664035 1.4193293 -0.1649529 0.33333334
-1.0320692 1.6211314 0.041869689 4
-0.96587116 7.4941592 7.8049908 27.333334
-1.0345384 -29.574816 13.411325 16
-1.0529389 -29.574905 18.67733 20
-1.1362543 -29.57793 19.249344 21
-1.010451 -29.53681 25.643307 25
-0.61138296 -3.4371588 -0.1891799 2
-0.48848364 -3.0957806 -0.1873019 1
-0.655963 -2.500654 -0.18710142 1
-0.43940982 1.6919842 -0.15512416 1
-0.57625943 2.2345357 -0.035146981 3
-0.78116149 3.0203447 -0.17518018 2
-0.79110914 5.5048175 -0.17826627 2
-0.45202678 1.6788733 0.13329227 5.5
-0.45281628 9.4623804 3.3706121 14
-0.579328 7.4791169 7.8603411 27.666666
-0.57943153 -29.545067 19.225222 21
-0.74440211 -29.541597 25.670254 25
-0.24272078 -7.2907257 -0.16116647 3
-0.27794996 -3.3363094 -0.18477975 2
-0.1976013 -3.1252134 -0.18285824 1
-0.24241798 1.5799313 -0.15510881 0
-0.14263594 1.7462933 -0.15310578 0.75
-0.32660279 2.131207 -0.013131327 3
-0.011921567 5.1713901 -0.14821434 2
-0.34935772 -10.166936 0.21767238 4
-0.091973543 -9.9496469 0.37155554 4
-0.35987568 1.7171533 0.11354609 5
-0.077723339 -10.025948 0.518574 5
-0.21746643 9.4468937 3.0946248 13
-0.29299232 9.4240456 3.3549552 13.666667
-0.29448691 7.463057 5.283689 22
-0.32681727 7.4727216 7.9171872 28
0.086738408 -7.2003107 -0.15726455 3
0.39770517 -7.0006366 -0.1503922 3
0.030078515 -4.9445429 -0.15789296 2
0.13668999 -3.3419774 -0.15937474 2
0.31150523 -2.9885542 -0.15502033 2
0.17822379 1.7584761 -0.14957559 1
0.29613471 2.9856832 -0.13111237 2
0.17420968 3.3524549 -0.13913651 2
0.38461092 7.1780009 -0.077258743 3
0.09649273 -9.8909903 0.2084977 4
0.1635088 -10.026978 0.51652151 5
0.14788717 -9.993103 0.51651543 5
0.26465228 9.398571 1.8599048 9
0.25608355 -16.226587 5.0942626 12
0.16426915 7.3787441 6.6993861 25.333334
0.66685998 -6.5741391 -0.14057763 3
0.63910037 -3.0893073 -0.16707833 2
0.66096419 -2.6213591 -0.16372356 1
0.77929002 -1.7595522 -0.1580271 1
0.7105574 1.4121803 -0.14773785 0.5
0.5783301 1.8144873 -0.10761353 1.6666666
0.7565971 2.0941029 -0.066022657 2
0.59839833 2.6333857 -0.13273358 2
0.55035698 2.8003447 -0.13708009 2
0.75210893 4.9794774 -0.086149246 3
0.72113466 7.1728725 -0.074234277 3
0.58320403 -9.8812771 0.34938589 4
0.78412914 1.433656 0.35852137 9.5
0.65438282 9.2871485 0.57218432 5.25
0.64142662 9.2886686 0.92968333 6
0.57060075 9.2785006 1.7335536 8.5
0.49823371 -16.263235 4.64922 12
0.61241835 -16.218704 5.0921822 12
0.58104593 7.4136481 7.7837462 27.5
1.1013846 -6.9459276 -0.16357751 3
1.0105021 -1.3595262 -0.1434138 1
1.1707423 1.1758444 -0.14190085 1
1.0274233 1.3102672 -0.14318314 1
0.88583767 1.774062 -0.073819861 2
0.94607902 4.8497863 -0.046126664 3
1.1803812 -3.4199395 0.094365932 4
0.88437235 -3.1139753 0.13036002 4
0.98361337 1.293837 0.23885053 7.8000002
0.84159958 1.7843654 0.066006459 4
1.0665835 2.0071266 0.073023051 4
0.83575106 3.2897179 0.13592844 4
1.0039942 9.3632545 0.62410641 5.4000001
1.0645617 9.3684454 0.89721066 6
0.97355771 9.368866 1.7479539 8.5
1.1627917 9.3424549 2.1327188 10
1.1743314 7.5809493 4.1667857 18
0.86207032 7.4015231 7.845767 28
1.3527911 -6.6074014 -0.15873954 3
1.4217842 -4.025969 -0.0015211991 3
1.3172734 -2.6119146 -0.13259603 2
1.4178228 -0.042073291 -0.1427694 0
1.390385 0.16829889 -0.14278479 0
1.4500121 0.55430502 -0.14047392 0.5
1.4480468 1.0683019 -0.13418584 1
1.537352 1.7729305 -0.1323964 2
1.399278 2.642256 -0.12397212 2
1.2749234 -2.869622 0.07216686 4
1.3543983 -2.3542562 0.34197474 7
1.3892671 1.1542861 0.35116553 8.8000002
1.2155143 1.2302088 0.20210102 7
1.386007 1.8327712 0.05482861 4
1.2056032 2.0259652 0.072040573 4
1.3687521 -2.3526647 0.45096928 8
1.4096169 1.1454486 0.41713583 10
1.2406237 9.355443 1.9777246 9
1.268589 9.3614664 3.0637257 13
1.3467888 9.3029985 3.4652345 14
1.4192399 7.4682722 4.1844363 18.5
1.2532449 7.6049771 4.1617913 18
1.2133021 -26.348515 11.864929 16
1.4644001 -26.357183 12.083875 16
1.461118 -26.332916 12.720868 17
1.6190605 -6.4104066 -0.15686733 3
1.6675024 -5.5242686 -0.15814212 2
1.8012637 -3.9149532 -0.089670159 3
1.6052328 -2.5165651 -0.079056941 2
1.7513325 -2.3646326 -0.080660097 2
1.6885604 -1.3121477 -0.12627806 2
1.6986841 -1.1069311 -0.12461658 1
1.8096737 -0.5500921 -0.13948292 1
1.8762503 -0.21478991 -0.12883607 1
1.6957138 0.31275246 -0.13726158 1
1.6544272 0.60555071 -0.13503717 1
1.7297527 1.6570725 -0.13086155 2
1.689473 2.2702932 -0.13191085 2
1.8887311 3.184454 -0.11794253 2
1.7716423 7.1176672 -0.12614298 3
1.9830414 -2.3727851 0.045759484 4
1.8018248 7.4164801 4.2009721 18.5
1.673409 -26.375097 11.697835 16
1.8634931 -26.412243 12.493801 17
1.6178098 -26.388508 12.76885 17
2.0322287 -2.2814641 -0.10829157 2.3333333
2.0518322 -1.9490435 -0.14042126 2
2.3811729 1.1326483 -0.12973984 2
2.1882703 1.3843898 -0.12928137 2
2.1296406 2.1370347 -0.047843639 3
2.2981069 4.8726039 -0.084985986 3
2.0353 -2.3753762 0.14440803 4.6666665
2.3678463 1.7659764 0.081213571 4
2.2804866 -26.48447 3.9207277 8
2.1244304 -26.450729 4.2827544 8
2.1046445 7.4360642 4.1722078 18
2.316324 -26.586956 11.86475 16
2.078696 -26.466324 12.186769 16
2.0431223 -26.467308 12.810777 17
2.287261 -26.449373 28.279716 28
2.1911294 -26.391197 28.063723 28
2.7514555 -0.58029526 -0.12064982 2
2.7228844 0.1939951 -0.12165569 2
2.6120429 0.79239452 -0.11269255 2
2.4219458 1.0189167 -0.12772748 2
2.6516488 3.9783335 -0.11689512 2
2.6089137 4.3481159 -0.11792147 3
2.6932499 5.0149817 -0.12494794 3
2.777575 -26.539333 3.1736295 7
2.4714341 -26.465046 3.4936788 7
2.7326889 -26.517935 4.3096342 8
2.6874089 -26.513493 12.263642 16
2.6155879 -26.490629 12.857653 17
2.937253 -3.0079055 -0.095362715 3
3.06374 -1.7689778 -0.10939228 2
3.0318689 -1.0192585 -0.10997406 2
3.0242751 -0.40955445 -0.10362238 2
3.0380566 -0.1949064 -0.10662042 2
2.8276103 0.58492833 -0.11199318 2
3.1040096 2.2019854 -0.01072554 3
3.0978265 -2.4395151 0.2718637 5.5
3.0697663 -2.4266777 0.65824461 8
3.0828214 -2.4303577 0.8818661 10
3.1639681 -16.44528 2.7236476 8
3.0933843 -26.496662 3.5465441 7
2.8897359 -26.504263 3.8465939 7.5
3.1105931 7.2527547 4.2524858 18
3.1830931 -26.634478 4.6295624 8
3.1760225 7.2749319 4.4819922 19
2.9979875 -26.606062 11.4116 15
2.9469104 -26.633696 11.96262 16
3.08147 -26.548687 12.538061 16.5
3.1936889 -26.53023 12.91553 17
3.4220443 -6.3101649 -0.12942544 3
3.2247493 4.8309631 -0.037875064 3
3.5165043 -2.4536593 0.35820583 6
3.467603 -2.4452667 0.73272157 8.25
3.5908811 -2.4766588 0.9701857 10
3.322371 -16.645302 2.3256657 7
3.3990991 -26.544039 3.150486 7
3.4935756 -16.677376 2.9166322 8
3.5147917 -26.578537 4.003469 8
3.3188181 7.2204804 4.28301 18
3.5722408 -26.602489 12.031462 16
3.3829103 -26.598713 12.924506 17
3.7963536 -6.2919822 -0.12455083 3
3.8532557 -2.5738199 -0.078879096 3
3.8401914 2.3029008 -0.088644646 3
3.8395469 4.2403693 -0.092765801 3
3.7256997 4.5236664 -0.095796719 3
3.6658819 4.9031019 -0.10182629 3
3.7604978 -2.8025749 0.19024737 4
3.8961546 1.8423269 0.12938905 4
3.7195942 -26.562546 3.6054158 7
3.6278567 -26.54701 11.377435 15
3.7978091 -26.603216 12.572908 16.5
3.9780555 -26.631918 12.970374 17
4.252594 -2.5615232 -0.079042345 3
4.1235213 -2.2393029 -0.070123181 3
4.3674893 1.8041862 -0.076557055 3
4.1094117 2.2214372 -0.086608827 3
4.1014361 -4.0974207 0.072601981 4
4.3470917 7.2379041 8.1881256 26.5
4.3875446 7.2236032 8.484129 27
4.2793999 -26.63764 11.414304 15
4.2867374 -26.627644 11.9983 16
4.4970393 -13.862849 -0.046452854 3
4.5044808 -4.0680294 -0.065558113 3
4.6875648 2.2128229 0.04345635 3
4.5134072 7.2560916 7.9511423 26
4.5413752 7.2462358 8.2068129 26.333334
4.5893283 7.2105274 8.4241533 27
4.5525212 -26.652908 12.537242 16
4.588964 -26.720638 13.050253 17
4.8088951 -1.3640373 -0.058489151 3
5.0852737 -1.0872569 -0.056951504 3
5.1300607 1.0712676 -0.047447469 3
5.0620937 1.4420084 -0.05746774 3
4.9086347 1.7794372 -0.073497996 3
4.9247432 -26.648304 11.423152 15
4.9103007 -26.635765 12.02215 16
4.9105563 -26.774506 12.90519 17
5.5881071 -26.701578 11.458001 15
5.5547142 -26.692566 12.072006 16
5.5458956 -26.83905 13.004051 17
5.8950977 -4.8109207 -0.075805567 3
5.6260486 -0.19935334 -0.058383353 3
5.7001352 0.1747857 -0.060376652 3
5.7300143 2.0953732 0.071574003 4
5.8864522 7.2941694 9.5228014 27
5.8760471 7.1889176 9.7733059 28
5.8390541 7.2226238 9.6232996 27
5.837986 -26.786345 12.777963 16
5.8146544 -26.768648 13.164965 17
5.8180332 -26.695333 24.207943 25
6.2206435 7.2918005 9.4826736 26.666666
6.246736 7.1754704 9.8243494 27.5
6.0014043 6.7689133 10.026344 28
6.1937366 -26.725395 12.124855 16
6.1614552 -26.807293 13.062887 17
6.0843444 -26.713947 24.167881 25
6.4244618 0.6727069 -0.026313594 3
6.6135802 7.3374949 9.3910503 26
6.6524215 7.156301 9.9603987 27
6.5454607 7.2005558 9.6223831 27
6.6404476 -26.822779 13.02177 16.5
6.4452281 -26.826313 13.248819 17
7.1928272 7.2959614 9.0774536 25
6.9768786 7.3794069 9.4724236 26
7.0794206 7.1640892 9.7244482 26.333334
6.9144769 6.9824333 10.09594 27
6.8589363 -26.791031 12.192703 16
7.1343341 -26.838724 13.004646 16
7.0879755 -26.874435 13.33867 17
7.2871513 7.1192808 5.1014743 17
7.4110498 7.1229978 5.4884882 18
7.3510866 7.1176486 5.8654823 19
7.4835973 7.2936802 9.2984877 25
7.3628473 7.1833568 9.7509794 26
7.390965 7.0938458 10.051488 27
7.436904 -26.811443 12.87156 16
7.4599123 -26.902876 13.28058 17
7.8134084 -26.911915 13.15549 16
7.7348452 -26.918821 13.426512 17
7.6652894 -26.85441 18.726513 21
8.1260328 0.9775368 0.6455099 5.5
8.1326427 0.91318387 0.94784468 7
8.3195639 7.08076 5.454596 17
8.2364941 7.1300206 5.975584 18
8.2736492 7.0386205 6.2195916 19
8.2119627 -26.894388 12.339377 16
8.1773834 -26.901808 13.496389 17
8.0207977 -26.861546 18.53742 21
8.4045029 7.0792899 5.8586068 18
8.4771605 -26.912916 13.278314 16
9.1701889 7.026381 6.5706954 19
8.8679762 -26.840343 12.375186 16
9.0867739 -26.895647 13.490143 16.5
9.4891005 7.0115514 5.8727345 17
9.3901739 6.9964595 6.2147222 18
9.3041916 7.0013666 6.4067121 18
10.777221 -11.491664 0.21980335 4
10.643424 -30.33606 14.822736 16
10.666559 -30.37747 15.350739 17
11.064971 -30.402542 13.296638 15
10.877408 -30.493307 14.140717 16
11.080976 -30.474741 15.419155 17
11.443501 6.9389024 6.6369543 17
11.396504 6.9355779 7.0819488 18
11.577258 6.9785447 8.0509691 19
11.429023 -30.415571 14.96354 16
11.615579 6.9252334 4.7579751 13
11.671901 6.9718676 4.9594789 14
11.932236 6.9595852 7.3165073 18
11.872304 6.936769 7.8050022 19
12.00639 6.9128518 6.8660173 17
15.095252 8.5828295 18.070274 27
15.58623 8.5065613 17.84733 27
15.213511 8.4681921 18.384289 28
15.683167 -11.370263 0.14294589 3
16.784117 6.7390966 5.8035312 13
16.662012 6.7520986 6.8065166 14
17.78035 -28.5021 15.297055 16
17.984882 -28.629353 16.23403 17
18.000429 -28.51392 13.440989 15
18.049246 -28.068764 14.243833 15
18.151794 -28.508223 16.35994 17
18.661608 1.0483965 0.41182804 4
20.697136 -28.732565 16.048183 16
20.515818 -28.253042 16.794088 17
20.924122 -28.33769 16.624979 16
21.028326 -28.273609 17.256926 17
21.453169 -28.196144 17.05076 17
21.733118 -28.808191 16.329865 16
23.665655 2.4061532 0.4882924 4
24.148758 -1.0282587 0.67231363 4
25.056379 -27.741705 16.812376 16
25.145361 -27.525503 17.982271 17
25.368526 -27.300879 17.492115 16
25.500689 -27.067141 18.307989 17
29.971825 -27.898712 19.59868 17
29.752382 -27.78714 20.531719 17
30.315218 -27.713535 19.84849 17
32.452011 -9.4318323 1.0977372 4
38.587917 -9.2216063 1.1423519 4
43.016521 4.4423246 16.650093 14
43.113995 5.8688102 21.322096 17
43.189621 7.5647006 24.495083 19
43.212715 4.1367664 14.902112 13
43.247803 6.8884916 21.473099 17
43.274895 7.9094434 21.587091 17
53.421288 -10.11037 1.514732 4
