# .PCD v0.7 - Point Cloud Data file format
VERSION 0.7
FIELDS x y z intensity
SIZE 4 4 4 4
TYPE F F F F
COUNT 1 1 1 1
WIDTH 86
HEIGHT 1
VIEWPOINT 0 0 0 1 0 0 0
POINTS 86
DATA ascii
-43.394554 -14.14469 17.224571 14
-41.893299 -16.812454 10.140136 10
-41.440376 -17.551228 9.3192883 9
-40.551674 -19.288599 16.215683 14
-40.115154 -19.802214 13.304772 12
-15.96894 7.4658861 5.0302634 12
-7.2024455 7.4303932 9.4279013 26
-7.392745 7.2260938 10.937948 28
-6.8632922 7.563611 8.9618435 25
-6.6058831 -29.155989 11.208537 14
-6.4554381 7.4810362 9.3818073 26
-6.4211283 7.3892026 9.9438143 27
-6.3121095 -29.414949 16.883553 19
-5.881237 0.91619813 0.38074946 5
-5.8144298 1.1673983 0.49467891 6
-5.999373 -29.600662 15.771545 18
-4.2130318 -15.924794 3.4997582 10
-4.2676349 7.489131 8.6356039 27
-4.0375876 7.3998914 5.1895952 20
-3.6359136 1.7746623 0.10016026 4
-3.662586 1.7354256 0.28317145 5.5
-3.6030309 2.0684917 0.4801071 7
-3.0450366 -2.2692921 0.039086811 4
-3.0535159 7.3984504 5.1645403 21
-2.9794939 -2.237721 -0.15993606 2
-2.8766329 -2.276782 0.21205664 5
-2.9307468 7.4269786 5.1305337 20
-2.4285438 -2.3102858 0.14998019 4.5
-2.3828938 -2.2823091 0.24896222 6
-2.0671923 1.5818156 0.12194906 5
-1.9403838 -2.8914509 0.24107075 5
-1.8372747 -29.049931 22.317404 23
-1.6594758 9.4014721 0.84238654 6
-1.4049749 1.6625838 0.085367441 4.5
-1.4122213 1.6350613 0.28737044 7.5
-1.4532559 -28.982817 10.169288 13
-1.4765841 -29.109032 10.473333 14
-1.2543648 1.7528236 0.12684865 5
-1.1674781 1.8722326 0.28783461 7.5
-1.1104003 -29.125425 16.706247 19
-0.58378243 7.3137035 6.1795149 24
-0.40791664 -29.603783 15.518228 18
-0.23161542 1.8452955 -0.015170317 3
-0.36546582 7.4270716 4.5925131 20
-0.29190302 7.4272318 4.8015161 21
-0.02325888 1.3244565 0.13487059 6
-0.03143616 1.3074644 0.21287088 8
0.31313345 1.1859436 0.35991472 11.5
0.24776343 -15.946912 3.2357104 9
0.26153859 -15.845659 3.431675 10
0.26740006 7.4152589 5.9265361 24
0.50491911 -2.2590694 0.14025535 5
0.50535387 -2.2416599 0.3072494 7
0.50951147 -2.2298622 0.47474414 9.5
0.79088855 -2.1812658 0.26913065 7
0.85421306 -2.1812887 0.020107932 3.5
1.3659456 -2.178472 0.0339141 4
1.3403848 -2.1858406 0.29042685 6.5
1.3370197 -2.1597297 0.62691849 10
1.2532039 -29.509829 22.123772 23
1.4309094 -2.2423136 0.42091247 8
1.413067 -2.1434147 0.47888249 9
1.9585817 -2.147764 0.31266183 6
1.9706377 -2.1233578 0.65164709 9.5
2.0588686 -2.1389122 0.37461615 7
2.1532073 1.8253883 0.32558176 6.5
2.0050101 -2.1287982 0.52963471 8
2.3628788 -2.1081564 0.81747383 11
2.4800482 -2.0950077 0.76841766 10
2.5750206 7.4204001 6.4306812 24
2.5730824 -26.11137 10.249337 14
3.3146608 -26.282623 14.956188 19
4.0235338 -26.24695 14.155979 18
4.6516061 -26.212814 8.7627897 13
4.6683307 7.5284209 9.5048647 28
5.1538086 -26.197515 15.18064 19
5.3881559 -26.175894 9.8595638 14
5.3184781 -26.18862 10.722588 15
5.9605188 7.5872169 9.4849882 27
6.195569 7.5907493 9.3210115 26
9.7267647 -26.087805 11.103201 15
9.8060503 -26.04788 10.178162 14
18.801409 -26.868711 19.167295 19
22.720781 1.9575397 1.9828687 6
22.690718 1.9435437 2.5878673 7
42.11779 5.5593624 11.61134 11
