# .PCD v0.7 - Point Cloud Data file format
VERSION 0.7
FIELDS x y z intensity
SIZE 4 4 4 4
TYPE F F F F
COUNT 1 1 1 1
WIDTH 518
HEIGHT 1
VIEWPOINT 0 0 0 1 0 0 0
POINTS 518
DATA ascii
-43.290733 -14.217835 9.0445738 9
-43.503082 -14.040675 10.271559 10
-43.545631 -13.644797 10.298443 10
-43.306072 -14.657714 16.421715 14
-43.127007 -14.72904 9.3777037 9
-42.967545 -14.975362 10.221751 10
-43.0536 -14.528679 10.296627 10
-42.883797 -15.144048 11.015789 10
-43.078724 -14.627254 14.622663 13
-42.88657 -15.014375 17.197748 14
-42.737465 -15.118268 9.0347538 9
-42.594124 -15.687773 9.3629074 9
-42.429955 -15.897945 10.179944 10
-42.592316 -15.426786 10.311823 10
-42.533966 -15.572851 14.595859 13
-42.739376 -15.597137 16.357904 14
-42.248936 -16.031179 9.0409517 9
-42.062279 -16.281195 10.309997 10
-42.383053 -16.064747 11.674987 11
-42.018139 -16.509588 14.578062 13
-42.247135 -16.164089 15.856994 13
-42.15662 -16.526342 16.294092 14
-42.384533 -15.876036 17.174927 14
-41.709419 -16.927595 9.0451374 9
-41.606911 -17.159184 10.329192 10
-41.86776 -16.939306 11.580173 11
-41.729645 -17.054646 15.843184 13
-41.684521 -17.348833 17.195267 14
-41.891312 -16.742718 17.170115 14
-41.371418 -17.735041 10.106334 10
-41.377396 -17.807985 11.49936 11
-41.214981 -17.94817 15.839375 13
-41.174938 -17.804935 9.04632 9
-40.946125 -18.499035 9.3245029 9
-41.074673 -18.007444 10.337367 10
-40.861034 -18.66136 11.41554 11
-40.657288 -18.685358 9.0575085 9
-40.589272 -18.859022 10.352551 10
-40.626862 -18.831589 13.28455 12
-40.680416 -18.81741 15.832557 13
-40.453342 -19.29463 17.190668 14
-40.382374 -19.251541 14.554643 13
-40.191551 -19.702978 15.850753 13
-40.107849 -20.044968 17.055849 14
-19.201214 7.3518677 5.8668661 12
-16.1516 7.285078 5.0443306 12
-14.717666 -3.8486967 -0.48616672 2
-14.57178 -26.331232 9.7132397 13
-14.655511 -26.326624 11.308254 14
-14.200774 -2.2437763 -0.20974919 3
-14.207034 -26.321409 10.459167 13
-14.317812 -26.458893 11.289234 14
-13.748499 -26.318062 9.622077 13
-13.689985 -26.561243 11.109146 14
-13.929298 -26.404491 11.223141 14
-13.42867 -26.32065 10.362017 13
-12.205747 -15.117157 -0.42893541 3
-12.044161 -2.4348369 -0.17411545 3
-12.131603 -26.233658 9.4447355 13
-12.087792 -26.343929 10.684761 14
-12.170712 -26.177416 11.627723 15
-11.986215 -26.467077 10.247782 13
-11.967907 -26.391657 10.913754 14
-10.347321 -29.566206 10.407463 13
-10.218019 -29.628599 11.186457 14
-10.25647 7.1328435 10.956368 25
-9.7106085 -29.809093 11.31141 14
-9.9951019 -29.73209 11.616445 14
-9.9991703 -29.543781 12.592383 15
-9.5622473 -29.595661 10.38031 13
-9.4320822 -29.568007 11.109274 14
-9.2973824 -29.565113 12.515243 15
-9.3263617 -29.605984 17.567263 19
-9.1609735 7.3827014 10.364168 25
-8.917573 -29.676346 11.132202 14
-9.1490679 -29.683115 17.342249 19
-8.7174101 -3.1230752 -0.042552333 3
-8.5347357 -2.6232851 -0.037742656 3
-8.7208357 -2.2526875 -0.035819523 3
-8.6959705 -29.606871 11.077131 14
-8.4993553 -29.692612 11.381118 14
-8.6151085 -29.62657 12.46112 15
-8.4367208 -29.665192 17.242098 19
-8.6049643 -29.590994 17.461107 19
-8.1509695 -2.9410925 0.26028159 4
-8.2317123 -2.9344783 0.5459618 5.3333335
-8.2151232 -2.9650314 0.84780145 6
-7.4148746 7.5146627 9.3359165 25
-7.3579912 7.433475 9.8809185 26
-7.0193725 7.5506706 9.2683649 25
-7.0578065 7.3992867 9.6973867 26
-6.7498875 2.0216215 -0.12733044 3
-6.7649088 7.6012712 9.0768299 25
-6.6366315 7.4158707 9.463335 26
-6.5778532 7.4152598 9.727828 27
-6.602901 -29.16914 10.60554 13
-6.4396038 -29.314198 10.868552 14
-6.4224586 -29.056604 12.024463 15
-6.4633355 -29.418642 17.122589 19
-6.0469213 -6.7483315 -0.21187136 3
-6.3504052 2.220077 -0.14244463 3
-6.1509833 -16.716555 3.5894234 9
-6.1899252 -16.675682 3.9500849 10
-6.1618581 -16.869482 4.4634752 11
-6.3963056 -29.033865 10.096451 13
-6.3504753 -29.479496 16.588583 18
-6.0394444 -29.653822 16.850569 19
-5.8454914 -2.4527469 -0.078315906 3
-5.6837759 -2.0665464 -0.2174675 2
-5.8996768 1.202757 -0.09931276 3
-5.8495073 1.156729 0.22652142 4.3333335
-5.8334894 1.2063621 0.50467366 6
-5.8346391 -16.976166 3.7264421 9.333333
-5.7423964 -16.858919 4.4263854 11
-5.7657027 -29.513552 10.257464 13
-5.6237798 -29.61968 10.999468 14
-5.7743559 -29.525454 10.925471 14
-5.8559618 -29.540049 12.168493 15
-5.6840205 -29.628727 16.564484 18
-5.6817341 -29.640585 16.955488 19
-5.4082804 -10.087373 -0.11388969 3
-5.4275165 -2.5626643 -0.073361665 3
-5.4597683 -1.7008593 -0.21162319 2
-5.2679181 2.1147106 -0.16861881 2
-5.3496208 7.392005 5.9277029 21
-5.2068586 7.3577852 6.0306921 21
-5.2812366 -29.687761 10.597412 13
-5.3228278 -29.632042 11.271403 14
-5.3541112 -29.633766 16.762413 19
-5.1042752 -2.7043734 -0.10437853 3
-5.1970034 -29.573284 12.130356 15
-4.483706 -0.88615656 -0.22205663 2
-4.4693456 1.2945722 -0.2136019 2
-4.7608328 1.4107805 0.19442798 4
-4.6610956 7.4177375 5.4786396 20
-4.6057639 7.4153852 5.7003031 21
-4.4018331 7.4234118 8.6451197 27
-4.3778481 -0.55949628 -0.21966979 2
-4.3896446 -0.2588062 -0.22424954 2
-4.2465496 1.4716645 0.11132191 4
-4.1906199 -15.807667 2.9707162 9
-4.0759997 -16.237343 3.3468292 9
-4.0961161 -15.981426 3.648751 10
-4.2475734 -15.78999 4.0647221 11
-4.0003586 7.414609 5.4565921 21
-4.1081352 7.3933806 8.7016001 27.5
-3.9136291 -2.5893254 -0.23264322 2
-3.8777339 -2.188278 -0.23177847 2
-3.9190495 -1.853949 -0.23587607 2
-3.7890904 -1.4730818 -0.23051909 1.5
-3.7105145 -1.1427182 -0.22813438 1
-3.9686942 0.94842428 -0.2096227 2
-3.8642449 1.5676099 -0.012764179 3
-3.6081049 2.0794065 -0.013893788 3
-3.6399345 1.8166108 0.24627893 5
-3.6455836 2.0738454 0.26311302 5
-3.6629314 1.7905583 0.46916208 7
-3.6509995 -16.109417 3.2776942 9
-3.8648393 -15.983839 3.3887012 9
-3.7847059 -15.937818 3.6756687 10
-3.8903427 -15.848908 4.0566635 11
-3.948072 7.4353681 5.3735871 20
-3.7272301 -29.562128 10.341017 13
-3.6725023 -29.516287 10.895988 14
-3.7424073 -29.521967 11.476007 14
-3.8617549 -29.503254 12.019028 15
-3.3393898 -5.4933929 -0.22380282 2
-3.2802269 -3.2667811 -0.19454396 2
-3.2367389 1.905607 -0.20692539 2
-3.4827359 -2.3095689 0.27443418 5.25
-3.5068891 -16.009575 3.7426302 10
-3.5270929 -15.907701 4.0526018 11
-3.4198737 7.4098186 5.0315576 20
-3.4062171 7.4185686 5.2485557 20.333334
-3.2818499 -29.566439 11.116915 14
-3.0164199 -3.9740083 -0.11536343 3
-2.9308677 -3.2034876 -0.20663197 2
-3.0414386 -2.2487676 -0.1181705 2.5
-3.0777309 -1.4532623 -0.23016477 1
-3.1821349 2.1854179 -0.21647434 2
-2.9917922 -2.2859771 0.20354025 5
-2.9485247 7.4178948 5.0788679 20.333334
-3.1663065 -29.100752 11.821739 15
-2.5459194 -8.3040314 -0.18605569 3
-2.7204683 -7.566792 -0.18825579 3
-2.751452 -4.0614867 -0.16138689 2
-2.6381962 -3.3052914 -0.20365585 2
-2.7154415 -2.6448886 -0.2168556 1
-2.7478571 -2.3585598 -0.079191975 2.5
-2.7711759 -1.1461636 -0.20631894 1
-2.6329188 2.2104881 -0.078803495 2.5
-2.5905237 2.5476079 -0.12409759 2
-2.5769808 2.9050043 -0.18613607 2
-2.5971828 3.7855496 -0.17821559 2
-2.6310101 7.2257252 -0.054464553 3
-2.5939584 -2.2850516 0.17229141 4.6666665
-2.4156497 -29.05698 10.069547 13
-2.4137509 -29.110914 16.708565 19
-2.0759556 -1.7265086 -0.19327621 1
-2.1492627 -1.4368371 -0.19185282 1
-2.3432307 -0.45341685 -0.19060454 1
-2.2677746 -0.32658926 -0.18965374 1
-2.1603181 1.7113379 -0.1820545 1
-2.2483277 7.2042241 -0.055474587 3
-2.3576338 -3.8443124 0.040463854 3
-2.3070676 -2.3301599 0.16946273 4.5
-2.069447 1.5745987 0.15955028 5.1999998
-2.297163 9.2375269 2.8404016 12
-2.1419225 -28.982523 10.141455 13
-2.2024329 -29.058641 10.617495 14
-2.3779325 -29.258635 16.225601 18
-2.0514994 -29.227636 22.354513 23
-1.7866716 -8.8352594 -0.18905446 3
-1.9591724 -7.8001542 -0.19134656 3
-1.7182839 -4.0286112 -0.17960928 2
-1.873101 -3.8862729 -0.17762226 2
-1.7624223 1.0284742 -0.1755206 1
-1.8887018 1.8600707 -0.092228122 2
-1.7906709 2.0739896 -0.17013401 1
-1.8783096 2.4805112 -0.17116284 2
-1.9823481 -3.4186695 0.13474959 4
-1.9435663 -2.9094949 0.2327439 5
-1.7036592 1.5724421 0.057405811 4
-1.7283376 -29.032362 10.000372 13
-1.7077068 -29.044708 11.267371 14
-1.8757427 -29.06068 11.757417 15
-1.7029001 -29.288126 16.253447 18
-1.9726232 -29.051537 16.174437 18
-1.7656293 -29.153763 16.722418 19
-1.8941412 -28.972252 17.118391 19
-1.9345834 -29.272257 28.538494 26
-1.8117484 -28.926186 28.491358 27
-1.2880517 -2.5744693 -0.1811678 1
-1.3034995 -1.6554302 -0.18345633 1
-1.2618861 0.79703003 -0.17506251 0
-1.5196307 1.1326907 -0.17056823 0
-1.5766093 2.2989287 -0.17117131 1
-1.5100102 2.5648079 -0.16469558 2
-1.335031 5.0722589 -0.039361052 3
-1.5122702 1.5980057 0.050883021 4
-1.3151193 1.7164534 0.21500045 6.4285712
-1.5699317 9.4072151 0.43838629 5
-1.5054969 9.4194374 0.92738575 6
-1.3286523 -29.083378 16.167288 18
-1.3759915 -29.216064 22.367342 23
-1.5106368 -29.505989 28.227468 26
-1.2799819 -29.348938 28.534361 26
-1.3533745 -28.942822 28.590248 27
-1.0371854 -3.2968676 -0.18024418 2
-1.1188743 -2.6815455 -0.17967115 1
-1.1829997 -1.7291595 -0.18145874 1
-1.0566765 1.7926315 -0.16266543 1
-1.0720333 2.330076 -0.12519975 2
-1.0031505 2.9102936 -0.16123649 2
-1.1712016 1.8731579 0.2550014 7
-1.0679967 2.8761101 0.11676641 4
-1.0757748 3.3620803 0.10373741 4
-1.1397818 7.5538998 0.053494632 3
-0.8030858 -16.192543 3.5100551 10
-1.0526782 -29.189779 9.9992552 13
-1.1030828 -29.566725 15.562389 18
-1.021912 -29.236444 16.248262 18
-1.1989528 -29.108809 22.332266 23
-0.82099843 -29.503183 28.102299 26
-1.0258937 -28.997662 28.495186 27
-0.76794982 -3.433332 -0.17701395 2
-0.48214999 1.5617154 -0.15991291 0
-0.55937672 1.7987558 -0.15828642 1
-0.57613522 2.6835136 -0.15189083 2
-0.758968 -16.167088 3.1370358 9
-0.43319017 -16.178774 3.5104582 10
-0.48170519 -15.995464 3.2729118 9
-0.53763437 7.4097924 5.9995103 24
-0.68093932 -29.171068 16.193157 18
-0.45365188 -29.371002 16.651161 19
-0.70643276 -29.132477 22.333155 23
-0.62314427 -29.441479 28.56423 26
-0.73764384 -28.957891 28.649103 27
-0.51723021 -29.466799 29.546209 27
-0.3846454 -3.2243693 -0.17017573 2
-0.11291912 -2.9111254 -0.16334791 2
-0.28205708 -2.6334679 -0.16789009 1
-0.21951282 1.7977042 -0.11153369 1.4
-0.023571394 4.0954437 -0.14028649 2
-0.041475046 1.31759 0.17374453 7.25
-0.21810098 1.8132893 0.047554292 3.8333333
-0.034126855 2.0594428 0.0048282999 3
-0.2349937 -16.183352 3.0099099 9
-0.18817192 -16.067503 3.736861 10
-0.18813092 7.4254198 4.5735188 20
-0.2440259 7.4228277 4.8820181 21
-0.087386258 7.248692 6.0615325 24
-0.13780573 -29.467358 27.963114 26
-0.26287413 -29.478895 28.25815 26
-0.37015036 -29.460075 28.942171 27
0.14469129 -15.038261 -0.13655235 3
0.28765917 -3.5470042 -0.15725747 2
0.10158476 -2.485482 -0.16204479 1
0.29116359 -2.2425275 -0.15968123 1
0.1793859 1.8060777 -0.14855765 1
0.20355326 2.6048191 -0.14168791 2
0.020838225 -9.8003016 0.29581141 4
0.32497874 1.1829122 0.32691646 11
0.34078744 1.8453494 0.033870399 4
0.22874829 2.0474834 0.040347658 4
0.37458843 -15.997256 3.1716938 9
0.34185511 -16.089584 3.5197318 10
0.1430472 7.2790742 6.0820384 24
0.46935576 -9.0043068 -0.14656116 3
0.42106783 -3.3459823 -0.15836182 2
0.57039422 -2.9615476 -0.15403354 2
0.78004605 -1.4514837 -0.15312657 1
0.77632159 1.2670248 -0.14661075 0
0.52952385 1.7555333 -0.14293697 1
0.48433203 2.041322 -0.019129351 3
0.45981368 2.4525342 -0.13915923 2
0.69591945 7.1894922 -0.064431086 3
0.63241345 -9.813797 0.24290319 4
0.60790282 -2.2310088 0.21366914 6
0.56921077 1.5695502 0.064414933 4
0.51469719 -9.9276085 0.45672145 5
0.43517235 -2.2759056 0.50061715 9.5
0.74587262 -15.822269 3.1655407 9
0.64773154 -15.893859 3.3825893 9.666667
0.77030879 -15.756697 3.9025133 11
0.42977828 -16.21427 4.0137482 11
0.65929788 -29.513716 22.146427 23
0.88514096 -8.988553 -0.14468014 3
0.86131334 -3.7834399 -0.0023548109 3
0.91282445 -2.7589812 -0.14771384 2
0.97727346 -2.1487958 -0.091948614 2.2
0.98011982 -1.7895634 -0.14458035 1
1.0370429 -1.3791363 -0.14438479 0.75
1.0203066 -1.0903444 -0.14337036 0.5
1.1722715 0.22778293 -0.13779432 0
1.0908462 0.57020712 -0.1386364 0
0.8165161 1.1965554 -0.14558347 0
0.91022509 1.3034292 -0.14351767 1
0.95375085 3.3319495 -0.13417551 2
1.0350847 5.3854737 -0.050302576 3
1.0375624 7.1748176 -0.065411538 3
0.97603631 -2.2015073 0.20735583 5.7857141
1.003473 -2.1842604 0.46005395 9
1.0599803 -15.862925 3.4664698 10
0.88492489 -15.796219 3.6974957 10
1.3068798 -8.9695854 -0.14380547 3
1.2563297 -2.1829264 -0.056041677 2.5
1.5001549 -1.0033782 -0.13559256 1
1.5161009 -0.60053408 -0.13678175 1
1.3792639 -0.14705877 -0.1360029 0.40000001
1.582625 1.095395 -0.13640921 1
1.5389477 1.5460422 -0.13396278 1
1.3648301 1.7293541 -0.12800223 1.3333334
1.314811 3.2493382 -0.13113633 2
1.3073543 -3.7824349 0.0094990516 3
1.3000733 -2.1909332 0.15819432 5
1.3794826 -2.1583376 0.56281793 9.333333
1.6398593 -2.5764775 -0.13004495 2
1.8021524 -2.164273 -0.13676703 2
1.7327125 -1.714358 -0.13141881 2
1.9117086 -1.5078861 -0.12719756 2
1.9711063 0.078144252 -0.12577125 1
1.883001 0.68854791 -0.12958249 1
1.6683205 0.88187462 -0.13154247 1
1.7225498 2.2076051 -0.12900542 2
1.9197724 -9.6898508 0.061248265 3
1.7986298 -2.160522 0.29832819 6.4285712
1.7268635 -2.146955 0.59613681 9.333333
2.1056798 -2.9059713 -0.1291045 2
2.0300844 -1.3417463 -0.12276529 2
2.1941721 -1.1363631 -0.1202391 2
2.1034489 -0.61002219 -0.12248614 2
2.1369615 -0.23665671 -0.12107503 1.3333334
2.3024013 0.33640242 -0.11976128 2
2.1486313 0.47107485 -0.12428603 1.5
2.2331016 1.5179027 -0.12737858 2
2.1383312 2.2475612 -0.099961035 2
2.1351964 5.1820803 -0.060200591 3
2.1839759 7.1771879 -0.056333147 3
2.2101541 -2.4861555 0.10369153 4
2.1735489 -2.1851633 0.27608615 5.8333335
2.2476585 1.7752671 0.26788312 6
2.0717266 2.0727203 0.19124804 5
2.2032378 -2.127008 0.62454987 9.166667
2.143393 1.7968332 0.40908337 8
2.3877373 7.4254656 6.3926659 24
2.2740326 7.4044843 6.4446588 24
2.407619 -0.47694671 -0.11571353 2
2.7948267 0.8199982 -0.11075471 2
2.5526812 7.1390681 -0.070301026 3
2.4025178 -2.1147833 0.83612615 11
2.5277157 7.4174142 6.4541769 24
2.7431259 -26.124514 8.7582941 13
2.7836854 -26.129581 9.910284 14
2.68592 -26.111355 14.785306 19
2.4482403 -26.133045 15.036378 19
3.0768657 -4.2245054 -0.12099196 3
2.9734435 1.7620473 0.1401784 4
3.0237155 -26.176397 9.5392332 14
2.9279153 -26.180382 10.595263 15
2.980124 -26.146229 15.000237 19
3.2746305 -3.6128786 -0.084303841 3
3.5845549 -3.5973673 -0.089437768 3
3.3655593 -3.0850353 -0.082552224 3
3.4659295 -2.7134001 -0.085193999 3
3.5232828 -1.7708534 -0.082147457 3
3.3913636 -0.19546886 -0.097643048 2
3.4089978 2.2753325 -0.098823026 3
3.3787053 -26.210722 8.7731466 13
3.4808791 -26.192123 9.3011122 13
3.4049163 -26.189964 9.9881325 14
3.5324075 -26.263983 10.653121 15
3.4127233 -26.291515 14.163162 18
3.5395062 -26.316597 14.623137 18
3.5605497 -26.227133 15.098102 19
3.6251245 -1.5237263 -0.085626982 3
3.6731977 -1.0113205 -0.088611148 3
3.8772576 -0.016133077 -0.10361027 2
3.8777583 0.26308239 -0.10512286 2
3.8544877 1.5986068 -0.11671766 2
3.7563248 1.8719045 -0.12025086 2
3.6378999 2.1622577 0.010211298 3
3.6586235 -26.209543 9.6240692 14
3.9248567 -26.265055 15.028012 19
4.3722167 -0.88228196 -0.076553278 3
4.2393217 -0.54147428 -0.079567067 3
4.2681675 -0.23626143 -0.085571267 3
4.2294984 1.2811841 -0.094656974 3
4.0239053 -26.266703 8.7839851 13
4.2321696 -26.186932 9.7483997 14
4.1192322 -26.224735 10.664944 15
4.1315441 -26.202089 15.145932 19
4.2804904 -26.167923 15.31788 19
4.4573102 -0.031960286 -0.092562526 3
4.5164223 0.18477695 -0.0965662 3
4.7184448 0.43821254 -0.079561211 3
4.6228328 2.1440873 -0.020687928 3
4.5286407 7.5096092 9.5118532 28
4.7797427 -26.172628 9.8257399 14
4.7165484 -26.221258 10.695774 15
4.6290736 -26.183357 14.146786 18
4.7893996 -26.163868 14.763734 18
4.5271835 -26.184507 15.071815 19
4.8727465 -1.7380682 -0.072524294 3
4.9215198 -26.208628 9.7877102 14
4.8818774 -26.167336 15.388707 19
5.2590504 -26.180645 10.187602 14
5.5653906 7.3906846 10.084963 28
5.2555614 -26.188381 14.179606 18
5.4309349 -26.167618 14.887547 19
5.9669342 0.83492231 -0.015476189 3
5.9032979 7.5763111 9.148983 26
5.921113 7.5101767 9.5734901 27
5.7803407 7.4097934 9.8539848 28
5.8837523 -26.171278 14.208417 18
5.8632774 -26.198389 14.798431 18
5.773932 -26.174522 15.27145 19
6.0715065 7.4537797 9.6310091 27
6.0245767 7.3757482 10.008012 28
6.0784802 -26.171173 15.024359 19
6.730113 7.5174909 9.5710716 26
6.631145 7.3924804 9.8490725 27
6.4669242 7.2596045 10.215066 28
7.0643287 1.7750714 -0.010435748 3
6.8836193 7.553216 9.3570843 26
7.1132774 7.3352776 10.199627 27
7.4180799 7.4422784 9.6201477 26
7.6929126 -10.13808 0.11841129 4
7.8114667 1.1574162 0.30666357 4
7.8801651 -26.138205 10.0218 14
7.8018932 -26.181093 10.92384 15
7.7108068 -26.153065 14.994859 18
7.6690717 -26.162483 15.619876 19
8.1701155 -26.155769 10.294718 14
8.1427422 -26.193024 10.815739 15
8.3402367 -26.156586 15.088663 18
8.0525112 -26.137779 15.473747 19
8.2616978 -26.111542 15.698674 19
8.5204821 -26.133553 10.0786 14
8.4600124 -26.232193 11.011651 15
9.1757994 -26.127584 10.137389 14
8.846777 -26.169514 10.422508 14
8.9875746 -26.302729 11.034008 15
9.1750402 -26.248146 14.574431 18
9.0049171 -26.153221 15.939454 19
9.5258856 -26.143105 10.549285 14
9.4461231 -26.161184 10.987316 15
9.462534 -26.128736 15.8918 19
9.9074373 -26.044249 16.196127 19
10.060082 -26.000952 15.954063 19
11.089251 -13.332321 0.039279092 3
11.750416 -29.434031 12.623657 15
12.323741 -29.453287 12.211474 14
12.174181 -29.424459 12.597515 15
12.790937 7.3351927 5.642693 14
12.497834 -29.353443 12.381384 14
12.52494 -29.421949 12.726398 15
12.841033 7.3250065 6.1156964 15
12.973088 -29.436947 12.740253 15
13.368233 -10.03066 0.30974299 4
13.318787 -29.432478 12.844135 15
15.172853 7.3071303 6.94592 15
17.83581 1.6805555 0.50947601 4
18.383251 -27.205208 18.857573 19
18.579477 -7.8294573 0.64346826 4
18.637474 -26.95949 19.362389 19
22.724142 1.4075818 1.983887 6
22.734102 1.4095175 2.5848882 7
22.615526 1.7982401 2.8568661 7
22.629599 1.8935018 3.3778632 8
28.364935 -8.5789185 1.2063338 4
42.206688 6.0900412 9.4773245 10
42.16087 6.2837753 10.587314 11
42.10215 6.5588398 11.527298 11
42.021732 6.2921157 12.429299 12
42.012402 6.3028893 17.355297 15
42.033649 7.2982225 17.43726 15
52.706825 -8.0008516 0.50441736 4
