# .PCD v0.7 - Point Cloud Data file format
VERSION 0.7
FIELDS x y z intensity
SIZE 4 4 4 4
TYPE F F F F
COUNT 1 1 1 1
WIDTH 135
HEIGHT 1
VIEWPOINT 0 0 0 1 0 0 0
POINTS 135
DATA ascii
-8.2476768 2.4742861 1.5492136 9
-8.2116013 3.7204478 3.5775576 15
-7.8815436 -2.5606608 3.4833543 15
-7.8751783 -2.5194898 3.6633701 16
-7.7660313 -2.2774644 0.20244057 4
-7.7722521 -2.2586341 0.54444999 5
-7.2715869 -1.4247792 0.16665523 4
-7.2452116 -0.72759694 0.036914553 3
-7.2685113 1.1022828 0.09255252 4
-7.2421765 1.1588098 0.31856418 5
-7.2669683 -1.3304801 0.49369091 5
-7.2732038 -1.4401032 0.74264973 6
-7.2379322 1.2249831 0.70358431 6
-7.2773485 -1.4924319 0.89463025 7
-7.2325263 1.1968796 0.90157402 7
-7.2692881 -1.4933866 1.0686277 8
-7.2278385 0.83847868 1.084457 8
-7.2767091 0.83949459 1.7524694 10
-7.2663937 -1.279864 1.9137106 11
-7.217103 1.1043675 1.9075408 11
-7.2581196 -1.35717 2.2206783 12
-6.8616967 2.3297846 0.51332754 5.5
-6.2902927 -5.6682324 0.27446586 4
-6.2750206 -5.6250229 0.56048256 5
-6.3006029 -5.8028932 0.66740203 6
-6.3347197 -5.8466825 0.97239113 7
-4.2715888 4.0304451 0.26362953 5
-4.1030164 4.0355396 1.057587 9
-3.7830963 2.1804926 4.1880207 26
-3.2699013 2.2672188 4.1189179 27
-3.0736837 4.0225639 0.65731806 7
-3.0264118 4.0230112 1.2373059 10
-2.8590894 2.7381778 4.103941 27
-2.6864274 3.5349224 4.1100984 26
-2.4710824 4.0110297 1.6841609 14
-2.3478401 4.0100398 0.087129377 4
-2.3693852 4.0087118 0.28663453 5.5
-2.2754693 4.0315533 1.5011164 13
-2.1901436 4.0040417 -0.097911954 3
-2.0082026 4.0079861 0.87604332 9
-2.1612668 -3.4221828 1.0415627 11
-2.1032779 4.0289731 3.960073 25
-1.9339019 4.0089312 0.70102501 8
-1.9429542 4.0187101 1.1260295 11
-1.8284208 -2.5381179 1.3509756 15.5
-1.785777 -2.6312125 0.39648578 7
-1.7331409 -2.7116871 0.46549425 8
-1.7269851 4.0104446 0.47797403 7
-1.534732 4.0417056 4.0719337 26
-1.2697085 3.9977827 -0.082140334 3
-1.0741986 -2.4610453 0.67646164 11
-1.1047972 4.0142474 1.1728245 12
-1.128814 4.0078979 1.5128286 14
-1.1968431 4.1296115 3.7468743 25
-0.95790732 -2.4987926 0.69412673 11
-0.98405969 3.9966042 0.87779182 10
-0.8453021 3.9979985 1.0737598 11
-0.91773731 4.0081863 1.3217791 13
-0.69453132 3.9956355 0.64572495 8
-0.71095693 -3.4818952 0.88453293 10.5
-0.48540026 3.985851 -0.030324275 3
-0.44101414 4.0328612 3.7066774 25.5
-0.28020823 3.9886508 0.49463165 7
-0.20582286 3.9972527 0.81861788 9
-0.027058436 2.1949406 0.1021603 5
-0.050484102 2.2237568 0.025171161 4
-0.031265762 2.2168803 0.20716618 6
-0.07449317 -2.4369516 2.5058854 27
0.074016713 2.0943334 -0.12987986 1.5
0.14062876 1.9742618 0.34958172 8.5
0.14982706 1.9618053 0.49007744 10.5
0.03121832 1.9362973 0.6560905 13.5
0.053272415 1.95242 0.92159075 16.5
0.086660065 1.8816746 1.0030689 18
0.18352798 4.0298491 4.2525439 28
0.22657603 1.986038 -0.10892888 2
0.21618555 1.9872444 0.10440628 5
0.21560484 1.9808536 0.34207162 8
0.20185062 1.9466919 0.57506597 12
0.36361611 -2.7342558 2.8983645 28
0.29277253 4.1719089 3.6105559 25
0.22874761 4.0263267 3.8175352 26
0.2692157 4.0035882 4.1305213 27
0.54064375 -2.1817117 0.30128106 7
0.64933312 -1.9477422 0.46023729 10
0.7988348 3.9942307 1.5194198 14
0.96577752 3.9795232 0.91338736 10
0.93558812 3.9902062 1.4513948 13
0.87446254 -2.3530512 1.6622552 21
1.0901802 -1.494294 -0.12189303 1
1.0227863 -2.2800813 1.6492258 21
1.2271627 -1.4560635 -0.082918927 2
1.3189956 -1.6653043 0.097099684 4.5
1.304835 2.8632319 0.13410212 4.5
1.2960325 -1.6192493 0.33709607 8
1.3650827 -1.533002 0.3710736 9
1.2900527 -1.5922071 0.48709285 10
1.2568753 3.1560991 0.50616682 8
1.3290695 3.0704217 0.67813957 9
1.2198619 -1.7655348 0.91212815 15
1.3990535 -1.5559778 1.3570726 21
1.2980838 3.8105607 1.239296 12
1.4283845 2.872885 0.260088 6
1.4690404 -1.577926 0.84706652 15
1.4850677 -1.4546313 2.1170454 27
1.455624 -1.9785779 2.5491261 27
1.4487158 -1.9054741 2.6591167 28
1.7327958 2.981559 0.14907132 5
1.6700357 -1.4803762 0.58302671 11
1.6490393 -1.4723957 0.68702805 12
1.941586 3.9823472 1.4532361 13
1.9263835 -0.92724633 2.1189194 27
2.1905949 2.5615182 -0.1015469 2.5
2.1937802 2.6541483 0.18096711 5
2.3975866 2.5357411 0.076931417 4
2.2036991 3.211019 0.31505862 6
2.3489885 2.2618506 1.045897 13
2.3541937 2.2428007 1.2288944 14
2.4456007 2.2172511 -0.027115509 3
2.4326096 2.2131755 0.11788489 4.5
2.4096384 2.5357687 0.19193043 5
2.4484878 2.2342496 0.31688643 6.5
2.4160867 2.1579335 0.51787907 8
2.6696584 -0.75675929 2.6098435 26
2.8317928 -1.4025503 0.6209029 9
3.1832054 -1.0755001 -0.043157868 3
3.0844374 -1.1871653 0.16086014 5
3.2011662 -1.0573895 0.032839183 4
3.3876872 2.5010536 0.14785409 4
3.2122946 -1.120602 0.32984468 6
3.6813817 2.4959369 0.33283472 5
5.6893711 3.910845 2.2848601 13
5.7321496 3.9619696 3.4148629 17
8.6858282 0.78818148 2.7135322 12
42.771179 16.956038 8.7528725 9
