# .PCD v0.7 - Point Cloud Data file format
VERSION 0.7
FIELDS x y z intensity
SIZE 4 4 4 4
TYPE F F F F
COUNT 1 1 1 1
WIDTH 1390
HEIGHT 1
VIEWPOINT 0 0 0 1 0 0 0
POINTS 1390
DATA ascii
-0.79500002 -1.567 -0.15700001 0
0.93599999 -1.566 -0.103 0
-2.4430001 -1.4265001 -0.147 0
-2.3403933 -1.4630946 -0.14624713 0
-2.261986 -1.4465309 -0.145928 0
-2.1342916 -1.4207547 -0.1470302 0
-2.0483007 -1.4535576 -0.146808 0
-1.9278398 -1.442786 -0.14718081 0
-1.8406318 -1.4594715 -0.14755452 0
-1.7451965 -1.4379811 -0.14793016 0
-1.6494222 -1.4476157 -0.14805019 0
-1.5462892 -1.4394633 -0.14827591 0
-1.4215751 -1.4440615 -0.14898384 0
-1.3132654 -1.4675188 -0.15037583 0
-1.2486371 -1.4000453 -0.15230198 0
-1.1335758 -1.4589462 -0.15252355 0
-1.0699337 -1.4651705 -0.15360554 0
-0.96368515 -1.44649 -0.15545177 0
-0.86833334 -1.4473333 -0.15700001 0
-2.340066 -1.3410944 -0.1468519 0
-2.237505 -1.3533493 -0.14579587 0
-2.1491692 -1.3511244 -0.14644688 0
-2.0638683 -1.3528843 -0.14731196 0
-1.9595662 -1.3551807 -0.14762034 0
-1.871436 -1.3326038 -0.14777289 0
-1.7581903 -1.3384216 -0.14806719 0
-1.6528101 -1.3415134 -0.14840932 0
-1.5309348 -1.3631942 -0.14775881 0
-1.4636555 -1.355307 -0.14878641 0
-1.3696667 -1.3583332 -0.14933334 0
-1.1453387 -1.3609529 -0.15323788 0
-1.049901 -1.3522156 -0.15399154 0
-0.94196278 -1.3423691 -0.15580417 0
1.8090154 -1.3230724 -0.10260595 0
2.0795965 -1.3017186 -0.11078181 0
2.1563947 -1.3480779 -0.10367272 0
-2.506 -1.276 -0.147 0
-2.4393446 -1.2426723 -0.14806527 0
-2.3370378 -1.2372689 -0.14612612 0
-2.2533922 -1.2613547 -0.14619027 0
-2.1623874 -1.2448938 -0.14658515 0
-2.0625691 -1.2526848 -0.14643109 0
-1.9505337 -1.2597077 -0.14796147 0
-1.8177094 -1.2388885 -0.1486606 0
-1.7436993 -1.240097 -0.14849201 0
-1.6251383 -1.2586856 -0.14886296 0
-1.5390253 -1.2610298 -0.14880751 0
-1.4463037 -1.2474074 -0.14985065 0
-1.3579984 -1.2588283 -0.15040429 0
-1.2029999 -1.215 -0.154 0
-1.1660454 -1.2394669 -0.15437743 0
-1.052336 -1.2323098 -0.15545228 0
-0.96249998 -1.243 -0.15549999 0
1.7464368 -1.2578686 -0.13214208 0
1.926 -1.209 -0.125 0
2.0027983 -1.2553593 -0.11789091 0
2.144639 -1.2130737 -0.12063855 0
2.245594 -1.2666945 -0.110315 0
-2.4476786 -1.1453676 -0.14746037 0
-2.3391371 -1.1410754 -0.15085225 0
-2.2599232 -1.1346854 -0.1517667 0
-2.1214998 -1.164127 -0.14733361 0
-2.0421126 -1.1596128 -0.14882548 0
-1.9451448 -1.16738 -0.14714311 0
-1.8459374 -1.1568941 -0.14845455 0
-1.760515 -1.1560934 -0.14884798 0
-1.6588142 -1.1621388 -0.14911801 0
-1.5733809 -1.1549616 -0.14917101 0
-1.4629835 -1.1595116 -0.15016374 0
-1.3647858 -1.1488991 -0.15201889 0
-1.2339991 -1.1415713 -0.15333572 0
-1.1248863 -1.1389555 -0.15555193 0
-1.02 -1.138 -0.15700001 0
1.5991652 -1.1326499 -0.15804555 0
1.6694565 -1.1795623 -0.15680693 0
1.7366605 -1.1097009 -0.16268966 0
1.8448963 -1.1756206 -0.16141379 0
2.0669999 -1.1695 -0.1295 0
2.2163754 -1.1222799 -0.13430735 0
2.3746798 -1.128828 -0.10747366 0
2.4563599 -1.165656 -0.10294732 0
2.6413329 -1.1034703 -0.12953602 0
2.7239993 -1.1372056 -0.11930402 0
2.8066657 -1.1709408 -0.10907201 0
-2.3466125 -1.0488139 -0.14550214 0
-2.2309687 -1.0366107 -0.15082362 0
-2.1406345 -1.0625672 -0.15540653 0
-2.0680001 -1.057 -0.154 0
-1.9406961 -1.0871774 -0.15084514 0
-1.8596479 -1.0580209 -0.15100522 0
-1.7567301 -1.0564992 -0.14983621 0
-1.6577946 -1.0504545 -0.14967689 0
-1.5482297 -1.0569941 -0.15006898 0
-1.4517959 -1.0333247 -0.15158819 0
-1.3434244 -1.0818235 -0.15338969 0
-1.2574465 -1.0264747 -0.15550473 0
-1.1409997 -1.0536286 -0.1555343 0
-1.052 -1.068 -0.15700001 0
1.4585825 -1.0388249 -0.16052277 0
1.559635 -1.053179 -0.16184898 0
1.6635284 -1.0651608 -0.16355172 0
1.8951349 -1.0291744 -0.16879767 0
1.9719908 -1.0692035 -0.16826396 0
2.0455277 -1.065951 -0.16484608 0
2.1541672 -1.0947065 -0.14607647 0
2.2702379 -1.0519949 -0.12306429 0
2.3489838 -1.0539932 -0.11925238 0
2.451565 -1.031657 -0.12724084 0
2.5466917 -1.0488489 -0.12203208 0
2.626714 -1.0348001 -0.11084394 0
2.7166615 -1.0333917 -0.10609485 0
2.8233626 -1.0222021 -0.13377689 0
2.9406343 -1.0621037 -0.11260957 0
-2.6033363 -0.96800113 -0.14700937 0
-2.5202909 -0.93685907 -0.14730179 0
-2.439909 -0.90671587 -0.14758483 0
-2.355149 -0.93302107 -0.14364479 0
-2.226315 -0.9337852 -0.14506707 0
-2.1412969 -0.96211219 -0.14810506 0
-2.0399067 -0.92941684 -0.14896411 0
-1.8138332 -0.99204236 -0.15444455 0
-1.7369165 -0.94902116 -0.15622227 0
-1.6359305 -0.96323824 -0.15212135 0
-1.5555899 -0.95204103 -0.15161769 0
-1.4638841 -0.92394996 -0.15332787 0
-1.3513211 -0.93817371 -0.15494624 0
-1.1392232 -0.95473737 -0.15725237 0
-1.079 -0.995 -0.15700001 0
1.3531456 -0.96845627 -0.1623807 0
1.4441321 -0.93154019 -0.16613793 0
1.5172642 -0.97608036 -0.16527586 0
1.6645675 -0.90908724 -0.17039885 0
1.7414234 -0.94911629 -0.16986512 0
1.837661 -0.94470215 -0.16962191 0
1.9352516 -0.93691063 -0.16909494 0
2.0278199 -0.96052074 -0.1674258 0
2.1547267 -0.95408034 -0.14963798 0
2.2625561 -0.95837688 -0.14017802 0
2.3384082 -0.9885025 -0.1315707 0
2.4795134 -0.91545576 -0.13661282 0
2.5602162 -0.94414693 -0.13053538 0
2.6509211 -0.95985591 -0.14564288 0
2.7563353 -0.95042515 -0.12576705 0
2.849 -0.90399998 -0.132 0
3.1320541 -0.91337234 -0.11533268 0
3.2165811 -0.93705845 -0.10499901 0
3.5416148 -0.91269433 -0.10190871 0
-2.4089999 -0.84600002 -0.145 0
-2.3381643 -0.85773271 -0.1461647 0
-2.2579589 -0.8456583 -0.14700279 0
-2.164813 -0.83182901 -0.14717005 0
-2.0629394 -0.86556089 -0.14747648 0
-1.948445 -0.86453432 -0.15029298 0
-1.8756654 -0.86090964 -0.15210922 0
-1.7941103 -0.82260644 -0.15240616 0
-1.5131654 -0.88744432 -0.15613498 0
-1.4299461 -0.85470521 -0.15732706 0
-1.3508464 -0.829153 -0.1585748 0
1.3710001 -0.88700002 -0.167 0
1.5492837 -0.84904361 -0.17119943 0
1.7397301 -0.84528118 -0.1711387 0
1.8830601 -0.8049463 -0.16849992 0
1.9620721 -0.83773553 -0.16719991 0
2.0383334 -0.8506667 -0.16599999 0
2.1337774 -0.84940839 -0.1591576 0
2.2374053 -0.8293823 -0.15484512 0
2.3552129 -0.85113716 -0.14823715 0
2.431293 -0.83609766 -0.14800464 0
2.5533495 -0.8496002 -0.1394145 0
2.6544161 -0.86132812 -0.12445784 0
2.7482045 -0.83828735 -0.14238109 0
2.8322573 -0.8634482 -0.13769022 0
2.9523227 -0.86293221 -0.13649137 0
3.0690207 -0.8404125 -0.13727689 0
3.1488225 -0.82925314 -0.14965732 0
3.2531993 -0.8516199 -0.13852789 0
3.3787432 -0.87079626 -0.12993914 0
3.4601789 -0.89174533 -0.11592393 0
-2.6324999 -0.74450004 -0.147 0
-2.560194 -0.75583148 -0.14853741 0
-2.4489915 -0.75108284 -0.14702789 0
-2.369648 -0.72670835 -0.14781022 0
-2.2627158 -0.7642023 -0.14720273 0
-2.1586792 -0.75221092 -0.14830722 0
-2.0466969 -0.74470359 -0.1487575 0
-1.9542252 -0.74238926 -0.14963746 0
-1.8438481 -0.76369911 -0.15059386 0
-1.7265 -0.77282232 -0.15271345 0
-1.6426667 -0.7256667 -0.153 0
-1.2687699 -0.78122938 -0.15986221 0
-1.199 -0.741 -0.162 0
1.45 -0.75300002 -0.17300001 0
1.5442085 -0.7536518 -0.17318249 0
1.6342206 -0.74844098 -0.17238247 0
1.7250361 -0.73936778 -0.17109995 0
1.8340378 -0.75054008 -0.16938521 0
1.9687104 -0.78630888 -0.16723712 0
2.0720923 -0.74342245 -0.16813537 0
2.1285245 -0.73517483 -0.16725039 0
2.2485514 -0.73520041 -0.16119553 0
2.3456955 -0.75371528 -0.15542267 0
2.4405985 -0.76591444 -0.15342307 0
2.5449839 -0.74589837 -0.15523705 0
2.6534615 -0.74467313 -0.15376833 0
2.7541003 -0.71937865 -0.16083807 0
2.856189 -0.75226784 -0.15142822 0
2.9635506 -0.77320224 -0.14361569 0
3.0387342 -0.77685809 -0.1581229 0
3.1379476 -0.75566626 -0.12239683 0
3.2809448 -0.74931479 -0.11632455 0
3.3697681 -0.76884127 -0.10548127 0
3.5150566 -0.7159366 -0.10904475 0
-2.632 -0.64700001 -0.146 0
-2.5708141 -0.66375011 -0.14664459 0
-2.4829829 -0.64162511 -0.14768013 0
-2.3478489 -0.63670594 -0.14921409 0
-2.2516906 -0.65460086 -0.14994584 0
-2.1337085 -0.65046847 -0.15009609 0
-2.0276573 -0.62152082 -0.15123846 0
-1.9271638 -0.64837241 -0.15080117 0
-1.828142 -0.66831207 -0.15152211 0
-1.7421311 -0.65258372 -0.15241823 0
-1.6420976 -0.65169966 -0.15350389 0
-1.5499418 -0.64457667 -0.15582582 0
-1.4583139 -0.61335891 -0.15844195 0
1.488 -0.64099997 -0.175 0
1.5683986 -0.6524204 -0.17370307 0
1.6495701 -0.662103 -0.17241237 0
1.7350029 -0.64832973 -0.17154586 0
1.8225341 -0.63133991 -0.17129757 0
1.936129 -0.65352398 -0.17073596 0
2.0585749 -0.64090377 -0.1714886 0
2.1389999 -0.65649998 -0.1715 0
2.2649148 -0.63687027 -0.17034841 0
2.3513298 -0.66074049 -0.16669679 0
2.4591665 -0.66028911 -0.16493236 0
2.5462222 -0.68338549 -0.16157646 0
2.691 -0.61699998 -0.17900001 0
2.7417026 -0.66285312 -0.17456955 0
2.85781 -0.65441269 -0.1612782 0
2.9530094 -0.64174879 -0.15046456 0
3.0375125 -0.66066504 -0.14078607 0
3.1360061 -0.6486308 -0.12751968 0
3.2216074 -0.66775697 -0.11702362 0
3.3072085 -0.68688315 -0.10652755 0
3.4259896 -0.65701437 -0.12893082 0
3.5430508 -0.63701618 -0.12910968 0
-2.6338513 -0.54163617 -0.14638007 0
-2.5588362 -0.53674942 -0.14752585 0
-2.4506531 -0.54413909 -0.14926669 0
-2.3423591 -0.5584451 -0.14977117 0
-2.2224979 -0.54833537 -0.15080227 0
-2.1316571 -0.55312502 -0.1518223 0
-2.0592172 -0.52233332 -0.15290523 0
-1.9478608 -0.56418079 -0.15295564 0
-1.8590364 -0.55420905 -0.15344535 0
-1.7711643 -0.54263026 -0.15380962 0
-1.6659559 -0.55000001 -0.15416184 0
-1.5450711 -0.54482347 -0.15716219 0
-1.4255 -0.5535 -0.16049999 0
1.4925001 -0.56 -0.17449999 0
1.5822086 -0.52895617 -0.17382614 0
1.6644171 -0.55591238 -0.1731523 0
1.7553263 -0.5401957 -0.17360681 0
1.8384351 -0.5654276 -0.1731424 0
1.9276409 -0.54312396 -0.17435825 0
2.0443096 -0.54961622 -0.17498063 0
2.179739 -0.57264626 -0.17530161 0
2.207 -0.53799999 -0.176 0
2.7508006 -0.56256306 -0.17475197 0
2.85919 -0.53775436 -0.16869366 0
2.9813671 -0.53501076 -0.16507313 0
3.0694895 -0.55101436 -0.15943083 0
3.1576118 -0.56701797 -0.15378854 0
3.2457342 -0.58302158 -0.14814624 0
3.3338566 -0.59902519 -0.14250395 0
-2.6705 -0.4325 -0.14750001 0
-2.565105 -0.44718224 -0.147 0
-2.4564214 -0.45676336 -0.14775608 0
-2.3574877 -0.46483588 -0.14969815 0
-2.2492085 -0.47135693 -0.15135972 0
-2.1607571 -0.45279741 -0.15246643 0
-2.0679092 -0.4553473 -0.1535484 0
-1.9656636 -0.46643147 -0.15455835 0
-1.8608526 -0.4438287 -0.15616588 0
-1.7612376 -0.44864038 -0.15695234 0
-1.6795403 -0.46996245 -0.15595195 0
-1.5496956 -0.43818432 -0.15866588 0
-1.4535244 -0.46571279 -0.16009194 0
1.5398914 -0.44660991 -0.17494866 0
1.6749563 -0.47254956 -0.17474329 0
1.737841 -0.44574893 -0.17624378 0
1.8477752 -0.45022526 -0.17653902 0
1.9583523 -0.45286614 -0.17695296 0
2.0569966 -0.42356545 -0.17869468 0
2.1437459 -0.44157633 -0.17897713 0
2.2343304 -0.47005817 -0.17883973 0
2.3499808 -0.45463294 -0.18097371 0
2.717 -0.48699999 -0.182 0
-2.6680486 -0.35890296 -0.14883707 0
-2.5728154 -0.35546902 -0.15003005 0
-2.4835582 -0.34258357 -0.15130448 0
-2.3628888 -0.3341445 -0.15285195 0
-2.2108872 -0.32919779 -0.15466499 0
-2.1217098 -0.31535822 -0.15593199 0
-2.0182991 -0.34779561 -0.15582053 0
-1.9157107 -0.37638167 -0.15562806 0
-1.8273554 -0.35869083 -0.15681402 0
-1.7466043 -0.33326164 -0.1592053 0
-1.6692139 -0.3778924 -0.15903172 0
-1.5559119 -0.35851333 -0.16220868 0
-1.4693333 -0.35533333 -0.163 0
1.5315 -0.35350001 -0.177 0
1.6415746 -0.35819012 -0.17719588 0
1.7650733 -0.34157112 -0.17792064 0
1.8472693 -0.33449596 -0.17892104 0
1.9540781 -0.36213169 -0.17942399 0
2.0708709 -0.3262338 -0.18095428 0
2.158016 -0.34043944 -0.18136331 0
2.255774 -0.36576334 -0.1815149 0
2.309 -0.33700001 -0.183 0
-2.707 -0.28 -0.15000001 0
-2.6358914 -0.24120015 -0.14831617 0
-2.5433881 -0.23002952 -0.15008993 0
-2.4373507 -0.24557671 -0.15220663 0
-2.3310177 -0.26263526 -0.15360686 0
-2.2436805 -0.25122249 -0.15459695 0
-2.138562 -0.24387316 -0.15539138 0
-2.0725794 -0.22649206 -0.15604945 0
-1.9437907 -0.2501899 -0.15880162 0
-1.8467804 -0.24260481 -0.16057067 0
-1.7586122 -0.24527062 -0.16189604 0
1.5506667 -0.2606667 -0.17833334 0
1.6351452 -0.25520563 -0.17890906 0
1.7376218 -0.24032329 -0.17950611 0
1.8573163 -0.24636641 -0.18088508 0
1.9449248 -0.2586062 -0.18140048 0
2.0325332 -0.27084601 -0.18191591 0
2.1505566 -0.22786498 -0.18361469 0
2.2599411 -0.24918762 -0.18408768 0
2.3204999 -0.25650001 -0.18450001 0
5.4738431 -0.20274359 -0.10429262 0
-2.6237936 -0.14938954 -0.14720349 0
-2.5231981 -0.16934739 -0.15055087 0
-2.4455671 -0.19214414 -0.15210328 0
-2.3573711 -0.18425111 -0.15359037 0
-2.2691753 -0.1763581 -0.15507746 0
-2.1809795 -0.16846508 -0.15656455 0
-2.061347 -0.14281221 -0.15735245 0
-1.9453752 -0.16825324 -0.15955484 0
-1.8478516 -0.16687115 -0.16153225 0
-1.7405 -0.1505 -0.164 0
1.5569999 -0.16600001 -0.1795 0
1.6448677 -0.17639846 -0.18007345 0
1.7565079 -0.16800553 -0.18193854 0
1.8442618 -0.17750829 -0.18240781 0
1.9320157 -0.18701106 -0.18287709 0
2.0235891 -0.14855638 -0.1843476 0
2.1154904 -0.10611874 -0.18581861 0
2.247613 -0.11439842 -0.18652327 0
2.3369999 -0.12 -0.18700001 0
4.842 -0.18099999 -0.17399999 0
4.9322634 -0.18410622 -0.1640418 0
5.0225267 -0.18721245 -0.15408361 0
5.1127896 -0.19031867 -0.1441254 0
5.2481847 -0.19497803 -0.12918812 0
5.3835797 -0.19963735 -0.11425081 0
-2.6075001 -0.058499999 -0.14649999 0
-2.5425305 -0.046986971 -0.15000606 0
-2.4587302 -0.047910228 -0.15162185 0
-2.3523805 -0.035111692 -0.15415435 0
-2.2433681 -0.039863668 -0.15540236 0
-2.1576891 -0.036169663 -0.15696336 0
-2.0708971 -0.029014923 -0.15745561 0
-1.9504423 -0.04314715 -0.16050906 0
-1.8480476 -0.039809957 -0.16312233 0
-1.7557501 -0.036250003 -0.1655 0
1.587 -0.072999999 -0.183 0
1.6750817 -0.078519791 -0.18346977 0
1.763833 -0.042428054 -0.18405655 0
1.8519995 -0.045892082 -0.18458483 0
1.940166 -0.049356107 -0.1851131 0
2.0292563 -0.0050413264 -0.18593389 0
2.1175077 -0.0064495923 -0.18652067 0
2.2498846 -0.0085619902 -0.18740082 0
2.3399999 -0.0099999998 -0.18799999 0
5.2919998 -0.094999999 -0.155 0
5.3791981 -0.09627381 -0.14040904 0
5.4663963 -0.097547628 -0.12581809 0
5.5535951 -0.098821439 -0.11122712 0
-2.6116481 0.091225095 -0.14915007 0
-2.553648 0.094225101 -0.15115006 0
-2.4940219 0.096817337 -0.15309964 0
-2.3504286 0.092429757 -0.15549286 0
-2.218791 0.088407509 -0.15768681 0
-2.1310329 0.085726008 -0.15914945 0
-2.0594985 0.0716343 -0.15756035 0
-1.9442079 0.068354346 -0.16151235 0
-1.8406876 0.067321084 -0.16494493 0
-1.7606667 0.065000005 -0.16733332 0
1.5880001 0.0020000001 -0.183 0
1.6762513 0.00059173489 -0.18358678 0
-2.7079999 0.15700001 -0.155 0
-2.6407716 0.16217142 -0.15869388 0
-2.033406 0.16392891 -0.15761131 0
-1.9373115 0.1554738 -0.16042814 0
-1.8623106 0.14908975 -0.1626336 0
-1.7642065 0.13580382 -0.16522606 0
1.5474424 0.16392177 -0.1818165 0
1.6226352 0.11749925 -0.18367489 0
1.7555881 0.12424812 -0.18468723 0
1.8885407 0.13099699 -0.18569955 0
1.977176 0.13549624 -0.18637443 0
2.0658112 0.13999549 -0.18704931 0
2.1544464 0.14449474 -0.1877242 0
2.2430816 0.14899398 -0.18839909 0
2.322 0.153 -0.189 0
-2.6722538 0.29268691 -0.15300636 0
-2.5826271 0.28384346 -0.15350318 0
-2.493 0.27500001 -0.154 0
-2.0428507 0.25497457 -0.15823071 0
-1.9588705 0.26635718 -0.16161723 0
-1.851427 0.24152544 -0.16496803 0
-1.7580115 0.25772312 -0.16856615 0
-1.6849999 0.243 -0.16599999 0
1.6866548 0.20253064 -0.181899 0
1.7749822 0.21129596 -0.1823485 0
1.8633096 0.22006127 -0.18279801 0
1.9516371 0.22882658 -0.18324752 0
2.0399647 0.23759191 -0.18369702 0
2.1282921 0.24635723 -0.18414652 0
2.2563097 0.25906128 -0.18479802 0
-3.3921347 0.36371726 -0.14901589 0
-3.2548289 0.35016936 -0.149777 0
-3.1203885 0.3369042 -0.15052223 0
-3.0271685 0.35986769 -0.15065295 0
-2.9384975 0.34927851 -0.15107267 0
-2.8498263 0.33868933 -0.15149239 0
-2.7611556 0.32810012 -0.15191212 0
-2.6727152 0.34233493 -0.15165736 0
-2.5865247 0.37071848 -0.15343584 0
-2.4842958 0.38897181 -0.15589096 0
-2.3518615 0.36319941 -0.15796319 0
-2.2201307 0.34245521 -0.16014446 0
-2.1323104 0.32862568 -0.16159865 0
-2.0337155 0.33620253 -0.16094725 0
-1.9537959 0.34380323 -0.16239825 0
-1.8476021 0.33554089 -0.16329391 0
-1.7558234 0.35294044 -0.16205612 0
-1.6524999 0.35100001 -0.16075 0
-3.3529999 0.43799999 -0.149 0
-3.2867205 0.42867944 -0.14925891 0
-3.1515164 0.44880462 -0.15047009 0
-3.0153081 0.46874574 -0.15213385 0
-2.9269235 0.4562881 -0.15277821 0
-2.8385386 0.44383049 -0.15342256 0
-2.7503471 0.4642638 -0.15454519 0
-2.6622314 0.4508425 -0.15519679 0
-2.5741158 0.43742126 -0.1558484 0
-2.487 0.454 -0.15700001 0
-2.2318099 0.49549812 -0.15808761 0
-2.1434085 0.47528413 -0.15864652 0
-2.0220022 0.45435667 -0.1594018 0
-1.960618 0.43983456 -0.15958811 0
-1.8626255 0.43605566 -0.16006465 0
-1.7530489 0.4519034 -0.16106565 0
-1.6644216 0.45897791 -0.16207863 0
-1.5925 0.45249999 -0.163 0
-3.3080001 0.50999999 -0.15000001 0
-3.2816944 0.55819422 -0.15075703 0
-3.1458507 0.56188679 -0.15205862 0
-3.0140805 0.54030943 -0.15304689 0
-2.9149616 0.55415082 -0.15306044 0
-2.8284521 0.53791118 -0.15371296 0
-2.7333446 0.54618853 -0.15370755 0
-2.6481724 0.52809429 -0.15435378 0
-2.5626729 0.55785656 -0.15604864 0
-2.4608757 0.5556888 -0.15712689 0
-2.3202114 0.51571214 -0.1575287 0
-2.1233726 0.57678616 -0.16078791 0
-2.0358105 0.55282176 -0.16115658 0
-1.9676602 0.54219925 -0.16110963 0
-1.8573992 0.54244822 -0.16178147 0
-1.7465951 0.549703 -0.16215952 0
-1.6407957 0.55857211 -0.16280648 0
-1.576 0.55299997 -0.16500001 0
-3.2219999 0.64999998 -0.15000001 0
-3.1592062 0.63665986 -0.15047644 0
-3.076582 0.65827692 -0.15157202 0
-2.9630222 0.64791292 -0.15279131 0
-2.8159657 0.67241681 -0.1544605 0
-2.7319803 0.6528728 -0.155498 0
-2.6479945 0.6333288 -0.15653548 0
-2.5536668 0.67366672 -0.15866667 0
-2.4736209 0.67264354 -0.15931317 0
-2.3860588 0.6486792 -0.15968186 0
-2.2547157 0.61273265 -0.16023488 0
-1.9323493 0.65287489 -0.16312835 0
-1.8338594 0.64569086 -0.16377585 0
-1.7491403 0.64644122 -0.16422936 0
-1.6758617 0.63434029 -0.163513 0
-1.598 0.625 -0.163 0
1.262 0.66299999 -0.17 0
1.3591435 0.67419791 -0.17165045 0
2.227 0.64200002 -0.167 0
2.3510606 0.68283743 -0.16390333 0
-3.1497164 0.73685265 -0.15072243 0
-3.0567131 0.76410902 -0.15067467 0
-2.974761 0.74259084 -0.15189557 0
-2.8839612 0.75410736 -0.1539728 0
-2.7524462 0.7518388 -0.15639322 0
-2.6297784 0.71653551 -0.15795729 0
-2.5653479 0.78714359 -0.1618997 0
-2.4820001 0.76499999 -0.163 0
-2.2638969 0.78885037 -0.16354413 0
-2.1779099 0.75936908 -0.16372612 0
-2.0489292 0.71514708 -0.1639991 0
-1.962 0.74800003 -0.1655 0
-1.8552806 0.73064315 -0.16515598 0
-1.7144012 0.76916915 -0.16557616 0
-1.6417006 0.73508453 -0.16478808 0
-1.5615001 0.74249995 -0.16499999 0
-1.4624869 0.77964222 -0.16929325 0
-1.388 0.73799998 -0.169 0
1.212 0.75400001 -0.169 0
1.355062 0.75743663 -0.1703552 0
1.4362872 0.71439582 -0.1723009 0
1.5520024 0.77469271 -0.17327657 0
2.2567034 0.77203923 -0.16757128 0
2.4751213 0.72367483 -0.16080664 0
2.5578282 0.75089979 -0.15874219 0
2.6405354 0.77812475 -0.15667774 0
-3.0678351 0.84260654 -0.15237185 0
-2.9694896 0.8542695 -0.15509231 0
-2.8570654 0.86464608 -0.15804864 0
-2.7457306 0.86235154 -0.15946963 0
-2.6636539 0.83756769 -0.16031308 0
-2.5392013 0.85085595 -0.16185334 0
-2.4358711 0.84781295 -0.16318017 0
-2.349884 0.81833166 -0.16336216 0
-2.0403984 0.86493385 -0.16673979 0
-1.9428343 0.85780764 -0.16798013 0
-1.8598025 0.83733827 -0.16715233 0
-1.7770305 0.84968424 -0.16736853 0
-1.6441398 0.84768051 -0.16808419 0
-1.5369736 0.82128441 -0.16958651 0
-1.4356411 0.85692656 -0.16958345 0
-1.357 0.85399997 -0.17 0
1.1570001 0.84149998 -0.168 0
1.2650421 0.83106232 -0.16961277 0
1.3584564 0.84781551 -0.17108479 0
1.4499044 0.85879827 -0.17191878 0
1.5434989 0.86649764 -0.17261386 0
1.6677178 0.83498961 -0.17425226 0
1.7448615 0.87518752 -0.17490271 0
2.375814 0.81715679 -0.16328511 0
2.4552209 0.8472352 -0.16042766 0
2.5346279 0.87731361 -0.15757021 0
2.7232425 0.80534971 -0.15461329 0
2.8369746 0.84278727 -0.15177441 0
-3.0558176 0.95488739 -0.15619455 0
-2.9210291 0.94812059 -0.15806694 0
-2.8381588 0.95631421 -0.15856689 0
-2.7573206 0.9631989 -0.15961015 0
-2.6785471 0.93446594 -0.16074011 0
-2.5997734 0.90573293 -0.16187005 0
-2.2463942 0.95726848 -0.16358927 0
-2.1227968 0.90186769 -0.16547959 0
-2.0131395 0.96684444 -0.16935894 0
-1.9167328 0.96071452 -0.16998866 0
-1.8364331 0.96066988 -0.16996163 0
-1.760434 0.9462111 -0.17046627 0
-1.6697557 0.94813764 -0.17075343 0
-1.5446026 0.92431641 -0.17045864 0
-1.4403571 0.97358799 -0.17189009 0
-1.3310001 0.95350003 -0.17200001 0
1.068 0.99299997 -0.168 0
1.2425971 0.9517532 -0.16980347 0
1.3511393 0.93654203 -0.1709578 0
1.541527 0.96508485 -0.17369078 0
1.656561 0.93193424 -0.17396906 0
1.7696232 0.9973709 -0.17532425 0
1.8485025 0.92919272 -0.17577657 0
2.653738 0.92243123 -0.15328404 0
2.7449999 0.95700002 -0.15000001 0
-3.0090001 1.0549999 -0.156 0
-2.9542546 1.0350314 -0.15678528 0
-2.6615362 1.0692658 -0.16682972 0
-2.5423942 1.0542684 -0.16458926 0
-2.4523902 1.0496031 -0.16043875 0
-2.3699918 1.0126692 -0.16169895 0
-2.2565577 1.0893778 -0.16743578 0
-2.1754181 1.0485333 -0.16807683 0
-2.0837872 1.0328737 -0.16880301 0
-1.9931479 1.0155293 -0.16944407 0
-1.8905001 1.048 -0.1715 0
-1.7625257 1.0590962 -0.17220904 0
-1.6313657 1.0873511 -0.17281662 0
-1.5538324 1.0616325 -0.17264295 0
-1.4674098 1.0535376 -0.17261656 0
-1.3540295 1.0293576 -0.1716419 0
-1.2885001 1.072 -0.17299999 0
-0.94999999 1.075 -0.175 0
1.034 1.058 -0.169 0
1.1308074 1.0517508 -0.16925894 0
1.3451942 1.0315064 -0.17160693 0
1.4355075 1.0482712 -0.17277086 0
1.5282785 1.0620842 -0.17391559 0
1.6513693 1.0354465 -0.17525437 0
1.7245975 1.0823543 -0.17629676 0
1.826 1.03 -0.176 0
-2.9293935 1.1827766 -0.1592162 0
-2.8474295 1.1480424 -0.16154593 0
-2.7775278 1.1569352 -0.15952867 0
-2.6392586 1.1567774 -0.16203046 0
-2.5320001 1.153 -0.175 0
-2.4188364 1.1710665 -0.16615367 0
-2.3257179 1.1579343 -0.16700751 0
-2.2335913 1.1431172 -0.16777624 0
-2.1534433 1.1005878 -0.16833219 0
-2.040457 1.1657547 -0.17083116 0
-1.9627285 1.1198773 -0.17141558 0
-1.848 1.142 -0.17299999 0
-1.7365029 1.1591078 -0.17349786 0
-1.6495858 1.1576275 -0.17338517 0
-1.5399059 1.1537889 -0.17300399 0
-1.4360858 1.1387625 -0.17281008 0
-1.3465542 1.1488404 -0.17356046 0
-1.2605 1.1565 -0.17399999 0
-1.0082519 1.1416394 -0.17488509 0
-0.90899998 1.135 -0.175 0
0.96650004 1.1435 -0.16850001 0
1.0685431 1.1476116 -0.16982491 0
1.1736838 1.1454227 -0.17091042 0
1.2564222 1.1692524 -0.17177683 0
1.4819903 1.1378441 -0.17401154 0
1.5747613 1.1516569 -0.1751563 0
1.6699898 1.1625178 -0.17628184 0
1.7435 1.1535 -0.177 0
-2.8150055 1.2642754 -0.15868659 0
-2.7390125 1.2533697 -0.16454482 0
-2.6661315 1.2567565 -0.16613019 0
-2.5794024 1.2709254 -0.16726333 0
-2.4913368 1.2452054 -0.16920702 0
-2.3938868 1.2281759 -0.16666438 0
-2.1570497 1.2345707 -0.16995451 0
-1.9483792 1.2378213 -0.17255883 0
-1.8387022 1.2288672 -0.17382891 0
-1.7558198 1.2544084 -0.17389977 0
-1.6477214 1.2466819 -0.17381419 0
-1.5505581 1.2396601 -0.17360659 0
-1.4397626 1.2290034 -0.17380589 0
-1.3598834 1.2575551 -0.17428355 0
-1.2505566 1.2528678 -0.175 0
-1.1247559 1.274918 -0.1746553 0
-1.042713 1.2406931 -0.17476767 0
-0.94338655 1.2378237 -0.17544128 0
-0.85150003 1.2360001 -0.17649999 0
0.89499998 1.227 -0.168 0
0.96569848 1.2909329 -0.17011836 0
1.0500422 1.2399819 -0.17035751 0
1.1544111 1.2403874 -0.17174308 0
1.2136292 1.2415154 -0.1724544 0
1.3506334 1.2573786 -0.17366526 0
1.6353931 1.2570908 -0.17670809 0
2.3699999 1.29 -0.19499999 0
-2.8143797 1.3846909 -0.15681019 0
-2.730314 1.3646746 -0.16166513 0
-2.644855 1.3404772 -0.16415338 0
-2.5424333 1.3564339 -0.17076612 0
-2.4393666 1.3647138 -0.17396967 0
-2.351371 1.349264 -0.16849345 0
-2.2736425 1.3033867 -0.16907787 0
-2.1373444 1.3608571 -0.17182356 0
-2.0490386 1.337724 -0.17228903 0
-1.9622127 1.3132035 -0.17297359 0
-1.8313513 1.3535941 -0.17367715 0
-1.7344192 1.3344291 -0.17447674 0
-1.6465517 1.3368837 -0.17396571 0
-1.5495783 1.3450614 -0.17452161 0
-1.4339027 1.3480726 -0.17467219 0
-1.3431413 1.3562179 -0.1748174 0
-1.2642783 1.3396313 -0.1749087 0
-1.1810026 1.344519 -0.17551346 0
-1.0738833 1.3421612 -0.17464769 0
-0.9716242 1.3381872 -0.176 0
-0.84909141 1.3677298 -0.17682949 0
-0.75349998 1.355 -0.17649999 0
0.96489692 1.3548658 -0.17073673 0
1.0452111 1.3292668 -0.17152882 0
1.131997 1.337451 -0.17208765 0
1.2557753 1.3482034 -0.17375831 0
1.333382 1.3638589 -0.17475735 0
1.4448445 1.3455048 -0.17555368 0
2.3310001 1.342 -0.19400001 0
2.4296575 1.3593822 -0.19527912 0
2.5293708 1.3752673 -0.19634734 0
-3.6340001 1.4859999 -0.114 0
-3.4223723 1.4925053 -0.13733974 0
-3.3429999 1.457 -0.14300001 0
-2.9661388 1.4695727 -0.13793059 0
-2.8884492 1.4334772 -0.14427549 0
-2.7422743 1.4675854 -0.16577591 0
-2.6225243 1.448324 -0.16720843 0
-2.5406168 1.449235 -0.16830011 0
-2.395 1.499 -0.178 0
-2.2507234 1.4346786 -0.1713824 0
-2.1474786 1.4397076 -0.17169058 0
-1.9383782 1.4339854 -0.17319286 0
-1.8391707 1.4282932 -0.17450625 0
-1.7867725 1.4508371 -0.17435199 0
-1.6543286 1.4483166 -0.1749824 0
-1.5660815 1.4376736 -0.17484713 0
-1.4707688 1.4499258 -0.17465378 0
-1.3546137 1.4456949 -0.1748174 0
-1.2511907 1.4444202 -0.1749713 0
-1.1401625 1.4606209 -0.17523576 0
-1.0448422 1.4380777 -0.176 0
-0.94325984 1.4394677 -0.17656884 0
-0.86595786 1.4709449 -0.17666286 0
-0.73422641 1.4551975 -0.17653222 0
-0.65549999 1.452 -0.17550001 0
0.68400002 1.457 -0.168 0
0.76596785 1.4440823 -0.16952547 0
0.85600001 1.448 -0.1715 0
0.95477575 1.4489541 -0.17247145 0
1.0643364 1.4559395 -0.17269108 0
1.149055 1.4591627 -0.17351794 0
1.2697637 1.4293153 -0.17461625 0
1.3578261 1.4572111 -0.1758862 0
1.45 1.483 -0.177 0
1.5123259 1.4086277 -0.17690632 0
2.29 1.47 -0.19499999 0
2.4882586 1.4302614 -0.19576916 0
2.5668881 1.4743922 -0.19665374 0
2.6488991 1.4392178 -0.19735783 0
-3.7648609 1.54441 -0.10164404 0
-3.67996 1.5571131 -0.11409048 0
-3.541431 1.5457633 -0.12884934 0
-3.3770001 1.523 -0.108 0
-3.0436096 1.5365559 -0.13086189 0
-2.836328 1.582952 -0.14617766 0
-2.7598624 1.5421617 -0.15234213 0
-2.6762276 1.5263815 -0.16355412 0
-2.545682 1.590301 -0.16696878 0
-2.4550147 1.5511823 -0.17156576 0
-2.351949 1.5432373 -0.17278294 0
-2.2586379 1.5156102 -0.17092079 0
-2.1167564 1.5679708 -0.17238572 0
-2.0299301 1.5399126 -0.17319594 0
-1.9356673 1.5376885 -0.17437539 0
-1.8568828 1.5078138 -0.17454512 0
-1.602 1.506 -0.175 0
-1.5325515 1.5465225 -0.17452174 0
-1.4213418 1.5405927 -0.175 0
-1.3370824 1.55608 -0.17436451 0
-1.2516837 1.5298893 -0.17482546 0
-1.1566679 1.5440695 -0.17567101 0
-1.0611641 1.5569441 -0.17607753 0
-0.90843678 1.5424174 -0.1764943 0
-0.8345781 1.5967829 -0.176 0
-0.75225621 1.5467422 -0.17575291 0
-0.63552243 1.5554466 -0.17573522 0
-0.54933333 1.5496668 -0.175 0
-0.48199999 1.596 -0.17399999 0
0.56599998 1.579 -0.169 0
0.64242601 1.5539585 -0.16866851 0
0.72046745 1.5304738 -0.16925749 0
0.84660208 1.5490568 -0.17157885 0
0.97206581 1.5516359 -0.17361984 0
1.0750558 1.5452712 -0.17439894 0
1.1670227 1.5551814 -0.17443305 0
1.2416822 1.5370066 -0.17487684 0
1.372 1.544 -0.177 0
1.411322 1.5152746 -0.17698616 0
2.3658712 1.5162792 -0.19577873 0
2.4417422 1.5625584 -0.19655746 0
2.6455173 1.5185229 -0.19753832 0
2.7462869 1.5329108 -0.19839561 0
2.8481126 1.5458018 -0.19904202 0
2.927798 1.5884354 -0.19971569 0
-3.8192344 1.6700319 -0.1090384 0
-3.739862 1.6345266 -0.11469867 0
-3.1513493 1.6544584 -0.11969388 0
-3.0369999 1.6900001 -0.13 0
-2.9510264 1.6441376 -0.13693096 0
-2.6411288 1.6611844 -0.16246356 0
-2.5492902 1.653357 -0.16721937 0
-2.4404709 1.6291002 -0.17038955 0
-2.2712295 1.6700795 -0.17437001 0
-2.1713953 1.6483688 -0.17254391 0
-2.0532846 1.6311553 -0.17417707 0
-1.9971035 1.6217673 -0.17493141 0
-1.4525887 1.634271 -0.17421617 0
-1.3584452 1.6591713 -0.17388579 0
-1.2778276 1.6417049 -0.17515177 0
-1.12561 1.6367931 -0.17530854 0
-1.0470976 1.6345751 -0.17603442 0
-0.9623276 1.6488131 -0.17637073 0
-0.85774344 1.6637906 -0.17592998 0
-0.73532099 1.6533109 -0.17461388 0
-0.64035553 1.6738762 -0.17491786 0
-0.54151845 1.6499821 -0.17439945 0
-0.44298697 1.6552753 -0.17294176 0
-0.35949999 1.6819999 -0.17200001 0
0.44800001 1.679 -0.169 0
0.54750079 1.6475742 -0.16916306 0
0.69170415 1.6648344 -0.17067401 0
0.77516866 1.6406846 -0.17114374 0
0.865807 1.6244934 -0.17215282 0
0.92046887 1.66386 -0.17349429 0
1.0373652 1.6518627 -0.1748347 0
1.1678872 1.6550021 -0.1761543 0
1.2538314 1.629073 -0.17590076 0
2.5555491 1.6319772 -0.19772558 0
2.8027759 1.6067842 -0.19930747 0
-3.8986068 1.7055372 -0.10337813 0
-3.3435981 1.7535558 -0.10251701 0
-3.2666986 1.7139168 -0.10938776 0
-3.1423941 1.7474616 -0.11382993 0
-3.033 1.785 -0.13 0
-2.8470457 1.7729031 -0.14490631 0
-2.7518649 1.7613049 -0.15094373 0
-2.6574204 1.7472857 -0.15657242 0
-2.536 1.705 -0.169 0
-2.4180567 1.783515 -0.16999371 0
-2.3434072 1.723176 -0.17193028 0
-2.2598534 1.7574661 -0.17253122 0
-1.3630018 1.7386956 -0.17471096 0
-1.2387737 1.7978394 -0.17323424 0
-1.1938303 1.7353796 -0.17392568 0
-1.0454073 1.7280862 -0.17589822 0
-0.94926769 1.7513794 -0.17571373 0
-0.8364588 1.7504673 -0.17536221 0
-0.75148267 1.7500616 -0.17492031 0
-0.64869463 1.7538383 -0.17404404 0
-0.54655254 1.7431892 -0.17395785 0
-0.46102971 1.7540841 -0.17273912 0
-0.34341455 1.7575766 -0.17149012 0
-0.24700001 1.7605 -0.171 0
0.359 1.7526666 -0.16899998 0
0.44961664 1.7661148 -0.17020272 0
0.557006 1.7396369 -0.17044324 0
0.62481779 1.7503796 -0.17144291 0
0.72455621 1.7387516 -0.172011 0
0.82986987 1.7508954 -0.17302999 0
0.96700478 1.75898 -0.174739 0
1.018 1.799 -0.176 0
1.1 1.748 -0.176 0
2.135 1.766 -0.19499999 0
2.6693556 1.701396 -0.19889368 0
2.7452269 1.7476752 -0.19967242 0
-3.1377602 1.8455031 -0.11431399 0
-3.0369999 1.888 -0.131 0
-2.960057 1.8413789 -0.13663289 0
-2.8439331 1.8674643 -0.14380518 0
-2.5385149 1.8490955 -0.16105199 0
-2.3690119 1.8428795 -0.17201874 0
-1.4281301 1.8554128 -0.17520511 0
-1.2539999 1.819 -0.17299999 0
-1.1012952 1.8447009 -0.17549109 0
-0.97647327 1.8299837 -0.17564075 0
-0.84069026 1.8397114 -0.17480613 0
-0.77873218 1.8464868 -0.17441252 0
-0.65440887 1.8434891 -0.17367472 0
-0.55001348 1.8336822 -0.1732832 0
-0.44403279 1.8462632 -0.1726498 0
-0.35136941 1.8692114 -0.17116824 0
-0.23775439 1.8501191 -0.1712455 0
-0.14766668 1.8346666 -0.171 0
0.26613176 1.8547738 -0.1691151 0
0.36184436 1.8650824 -0.17085671 0
0.43959835 1.8554544 -0.17154227 0
0.54396951 1.8511522 -0.17189942 0
0.635005 1.8329456 -0.17247841 0
0.77383435 1.8496275 -0.17401651 0
0.87666869 1.8451846 -0.17464374 0
0.97399998 1.8200001 -0.175 0
2.0669999 1.839 -0.193 0
2.1550817 1.8695117 -0.193094 0
2.2334137 1.8476217 -0.17990848 0
-3.1393168 1.9507196 -0.11481428 0
-3.0308151 1.9878811 -0.13101263 0
-2.9558406 1.9395715 -0.13614483 0
-2.7210255 1.9805923 -0.14966056 0
-2.6480212 1.9279935 -0.15421714 0
-1.503 1.951 -0.175 0
-1.166943 1.9505514 -0.17523666 0
-1.0368283 1.9372215 -0.17537129 0
-0.8499611 1.9602964 -0.17477113 0
-0.72390079 1.912838 -0.17305538 0
-0.6387316 1.9659075 -0.17316945 0
-0.56639993 1.9473916 -0.17290573 0
-0.46727508 1.9380313 -0.17265518 0
-0.36605412 1.9513171 -0.17100236 0
-0.25171328 1.9496882 -0.17172606 0
-0.14082985 1.9400762 -0.171 0
0.27001801 1.9390634 -0.16930687 0
0.32300001 1.927 -0.171 0
0.45373499 1.957823 -0.17248173 0
0.56080973 1.9626502 -0.1741789 0
0.64882648 1.9441062 -0.17392708 0
0.79799998 1.904 -0.175 0
1.9760001 1.9365001 -0.191 0
2.0606475 1.9710739 -0.18450278 0
2.1376233 1.9474671 -0.17597646 0
2.2527041 1.9512792 -0.19173497 0
2.3646319 1.9564507 -0.15978646 0
-3.1667879 2.0755572 -0.11022373 0
-3.0594468 2.0588894 -0.12530592 0
-2.8670337 2.0857897 -0.14054741 0
-2.7940297 2.033191 -0.14510399 0
-1.228 2.049 -0.175 0
-1.148 2.0774999 -0.175 0
-1.0971831 2.0444593 -0.17510186 0
-0.91723013 2.0435371 -0.175 0
-0.63049996 2.0240002 -0.17299999 0
-0.54283077 2.0482366 -0.17208821 0
-0.40248057 2.0204511 -0.17133173 0
-0.3298586 2.0566814 -0.17144215 0
-0.26180872 2.0525134 -0.171 0
-0.12839206 2.0515394 -0.171 0
0.43358964 2.0443859 -0.17397264 0
0.54472375 2.0198781 -0.17416966 0
0.62511581 2.064296 -0.17412405 0
0.72774887 2.0502939 -0.17571801 0
1.883 2.0810001 -0.19 0
1.9519466 2.059263 -0.19114631 0
2.0503807 2.0546103 -0.191 0
2.1576185 2.0626848 -0.17475694 0
2.2624543 2.0600896 -0.15461174 0
2.350327 2.0330467 -0.19037595 0
2.4392271 2.0628152 -0.16708246 0
2.5286546 2.0924869 -0.13463396 0
-3.1550081 2.1781316 -0.11086498 0
-3.0351367 2.1787634 -0.12846668 0
-2.940038 2.1383884 -0.13599084 0
-2.0050001 2.1470001 -0.18099999 0
-1.2482958 2.1365077 -0.17575815 0
-1.1111484 2.1839364 -0.17594597 0
-1.069 2.105 -0.175 0
-0.94275939 2.1278553 -0.17475 0
-0.79000002 2.1429999 -0.17399999 0
-0.52499998 2.1170001 -0.17200001 0
-0.42542535 2.1426568 -0.17108235 0
-0.33113217 2.1459844 -0.17203514 0
-0.27599999 2.1689999 -0.171 0
-0.169 2.1099999 -0.171 0
0.54436529 2.1556652 -0.17496659 0
0.649939 2.1493552 -0.17514886 0
0.77186227 2.1788287 -0.17755018 0
1.7920001 2.184 -0.189 0
1.9416811 2.1430385 -0.18883221 0
2.0357864 2.1560519 -0.19158527 0
2.1447616 2.1462207 -0.191 0
2.2545896 2.1542957 -0.16501111 0
2.3560777 2.1445568 -0.13858819 0
2.4804907 2.1420701 -0.18856393 0
2.5710881 2.157634 -0.14552432 0
-3.2225122 2.2241974 -0.10129748 0
-3.1530991 2.2917197 -0.11178623 0
-3.0865495 2.2438598 -0.12139311 0
-2.1260979 2.2766671 -0.17784289 0
-2.0655491 2.2118337 -0.17942144 0
-1.346398 2.2412453 -0.17693698 0
-1.2664646 2.2242348 -0.17648302 0
-1.1532968 2.2628725 -0.17689195 0
-1.0312984 2.2947226 -0.17668135 0
-0.96686792 2.2429342 -0.17569427 0
-0.8205018 2.228292 -0.17484726 0
-0.38749781 2.214046 -0.17000592 0
0.57528305 2.2815738 -0.17659384 0
0.67476213 2.2344143 -0.17617367 0
0.8012712 2.2645185 -0.17877164 0
1.415 2.2320001 -0.184 0
1.75 2.2390001 -0.18799999 0
1.8477677 2.249157 -0.18771961 0
2.0503619 2.2309237 -0.18867965 0
2.147573 2.2851038 -0.19217055 0
2.2391424 2.2378311 -0.191 0
2.3515606 2.2459064 -0.15526527 0
2.4357467 2.216434 -0.12495291 0
-3.2196486 2.3395793 -0.10217934 0
-2.1866469 2.3415008 -0.17626433 0
-1.4174368 2.3565927 -0.17809917 0
-1.3343132 2.3399107 -0.17759529 0
-1.1954452 2.3418088 -0.17783792 0
-1.0359511 2.3797626 -0.1773821 0
-0.86625445 2.3562298 -0.17611817 0
0.583 2.313 -0.177 0
0.65245092 2.3594813 -0.17704585 0
0.71899998 2.3859999 -0.178 0
0.83068007 2.3502083 -0.17999309 0
1.4636948 2.3051636 -0.18412113 0
1.5123898 2.3783269 -0.18424226 0
1.654 2.3410001 -0.186 0
1.8319434 2.3399303 -0.18660095 0
1.9314191 2.3468926 -0.18579906 0
2.1470652 2.3601735 -0.18474497 0
2.2034662 2.3496299 -0.19246317 0
2.3649836 2.3599782 -0.191 0
2.4485316 2.3375173 -0.14551942 0
2.5131791 2.3985913 -0.1390222 0
-2.3077447 2.4711678 -0.17310721 0
-2.2471957 2.4063344 -0.17468576 0
-1.813 2.4679999 -0.185 0
-1.4334788 2.4445388 -0.17879076 0
-1.2586677 2.4602132 -0.17925689 0
-1.1035969 2.4584448 -0.17836271 0
-1.0389395 2.4662554 -0.17832288 0
-0.91200709 2.4841678 -0.17738909 0
0.62763286 2.4859791 -0.17678645 0
0.76811802 2.4475994 -0.17450967 0
0.87269634 2.4726326 -0.18173818 0
1.5610846 2.4514904 -0.18436339 0
1.7292554 2.447114 -0.18560183 0
1.9138868 2.4408605 -0.18520193 0
2.0150704 2.4446282 -0.18387848 0
2.2472231 2.4336934 -0.18787456 0
2.306 2.4679999 -0.193 0
2.4631822 2.4552944 -0.191 0
2.5854132 2.4668326 -0.13176247 0
-3.0309999 2.559 -0.132 0
-2.8421316 2.5343547 -0.15016195 0
-2.3682938 2.5360014 -0.17152865 0
-1.8636769 2.5352533 -0.18421064 0
-1.5358348 2.5488379 -0.18003616 0
-1.4473939 2.5327044 -0.17944908 0
-1.3218904 2.5786176 -0.18067583 0
-1.1397462 2.5403061 -0.17920339 0
-1.0734243 2.5495691 -0.1794036 0
-0.94250882 2.5694599 -0.17823635 0
0.64994931 2.5724685 -0.17667967 0
0.76947212 2.5563974 -0.16203871 0
0.83488345 2.5526505 -0.1788561 0
0.93828577 2.5620613 -0.18285669 0
1.634127 2.5612357 -0.1845451 0
1.8045108 2.5532281 -0.18520366 0
1.9685158 2.5081472 -0.18426923 0
2.0469913 2.5426097 -0.18296733 0
2.1266057 2.5749424 -0.18131773 0
2.2850001 2.506 -0.182 0
-3.1558788 2.6644218 -0.1121892 0
-3.0506144 2.6439195 -0.12403312 0
-2.9415259 2.6194189 -0.13564777 0
-2.4591169 2.6332517 -0.16916081 0
-1.9396923 2.6361337 -0.18302661 0
-1.6068735 2.664185 -0.18119834 0
-1.5378585 2.686939 -0.1809321 0
-1.4926262 2.6098218 -0.18019059 0
-1.3640387 2.6575537 -0.18162182 0
-1.1419022 2.6275251 -0.1802642 0
-0.9730106 2.6547518 -0.17908363 0
0.67226571 2.658958 -0.17657289 0
0.79470825 2.6415963 -0.15405808 0
0.87776697 2.6813009 -0.17871219 0
0.96980023 2.6469111 -0.18252523 0
1.7071693 2.6709807 -0.18472679 0
1.854681 2.6239707 -0.18493819 0
1.9048512 2.6947136 -0.18467274 0
2.0777736 2.6427212 -0.18240386 0
2.1831865 2.6410496 -0.18001868 0
-3.218318 2.7171326 -0.10228381 0
-3.1403151 2.789547 -0.10661942 0
-3.0740521 2.7328377 -0.11629553 0
-2.5420001 2.7219999 -0.167 0
-2.0157075 2.7370138 -0.18184257 0
-1.6286163 2.7695417 -0.18198657 0
-1.5830908 2.7640564 -0.18167362 0
-1.4061872 2.73649 -0.18256779 0
-1.2301192 2.7449589 -0.1813051 0
-1.1596365 2.757854 -0.18210542 0
-1.0035124 2.7400439 -0.1799309 0
0.69458216 2.7454476 -0.17646611 0
0.81994432 2.726795 -0.14607744 0
0.93853527 2.7567177 -0.17987821 0
1.0319147 2.7171545 -0.18324737 0
1.7558643 2.7441442 -0.18484792 0
1.9550215 2.7654562 -0.18440729 0
2.1462011 2.7270041 -0.18123558 0
-2.2309999 2.885 -0.178 0
-2.1283538 2.886507 -0.18008797 0
-2.0461922 2.8441336 -0.18102661 0
-1.709296 2.8304906 -0.18287396 0
-1.4591677 2.8357131 -0.18375689 0
-1.2478534 2.8752875 -0.18314631 0
-1.0340141 2.825336 -0.18077818 0
0.71689856 2.8319371 -0.17635934 0
0.85779846 2.854593 -0.13410649 0
0.93494499 2.8528349 -0.17852032 0
1.0541625 2.8398438 -0.18207312 0
1.8107796 2.826654 -0.18498453 0
2.0185959 2.8550994 -0.18407091 0
-2.4820001 2.938 -0.11 0
-2.2836053 2.9515588 -0.16362774 0
-2.1864507 2.9645019 -0.16830647 0
-2.0780244 2.9577246 -0.17154102 0
-1.303 2.9100001 -0.183 0
-1.2489243 2.9735694 -0.18490362 0
-1.0797668 2.9532738 -0.18204907 0
0.73921502 2.9184265 -0.17625256 0
0.89565253 2.9823911 -0.12213552 0
0.96353394 2.938602 -0.17842439 0
1.0318576 2.9166129 -0.18056697 0
1.1292866 2.9708862 -0.18211842 0
-2.3625131 3.0513973 -0.14206934 0
-2.2389011 3.0350037 -0.15661295 0
-2.1300488 3.0314488 -0.16208203 0
-1.114 3.049 -0.183 0
-1.046 3.0869999 -0.182 0
0.7726897 3.048161 -0.17609239 0
0.95650578 3.0459795 -0.14624166 0
1.0777149 3.0442965 -0.18013705 0
1.161744 3.0554633 -0.1817421 0
-2.441421 3.1512358 -0.12051094 0
-2.3438025 3.176007 -0.13322589 0
-2.2627246 3.1422014 -0.14404175 0
-2.1820731 3.1051731 -0.15262306 0
-1.0725 3.1730316 -0.17117605 0
-0.94350004 3.145 -0.18149999 0
-0.824 3.145 -0.177 0
-0.74800003 3.154 -0.175 0
0.792 3.1229999 -0.176 0
0.89099997 3.1960001 -0.177 0
0.94956237 3.1643944 -0.10508712 0
1.0350064 3.1530194 -0.17818454 0
1.1588867 3.1560104 -0.18053646 0
-2.4940264 3.2177947 -0.10613867 0
-2.3536265 3.2612543 -0.12776618 0
-2.2861218 3.2526221 -0.13370509 0
-1.0540378 3.2395363 -0.16560006 0
-0.92687392 3.2416832 -0.17102577 0
-0.84809852 3.2309513 -0.16585442 0
-0.76998651 3.2403097 -0.1637511 0
-0.64849997 3.2414999 -0.17649999 0
-0.537 3.2780001 -0.175 0
0.91684574 3.2799988 -0.16265342 0
1.0778899 3.2816696 -0.17804064 0
1.1541436 3.257103 -0.17942053 0
1.2266586 3.2246177 -0.18098947 0
-2.4513516 3.3425055 -0.10991941 0
-2.3509212 3.3355842 -0.12391698 0
-1.1255001 3.3450952 -0.14952815 0
-1.0511889 3.3475237 -0.15412006 0
-0.94774783 3.3283665 -0.16105154 0
-0.87219709 3.3169029 -0.15470886 0
-0.73697954 3.3456249 -0.15899621 0
-0.62637401 3.3445945 -0.16630046 0
-0.55283564 3.3636079 -0.16154565 0
0.9426915 3.3639975 -0.14830682 0
1.09 3.3180001 -0.178 0
1.1918576 3.3621128 -0.17906696 0
1.2753446 3.3514836 -0.18042499 0
-2.4425581 3.4566348 -0.10708914 0
-2.3901706 3.4000707 -0.11478714 0
-1.1520001 3.4311268 -0.1387042 0
-1.0933024 3.4750376 -0.13739207 0
-0.94450796 3.4519277 -0.1417475 0
-0.84873372 3.4383409 -0.13827364 0
-0.73396569 3.485256 -0.14748642 0
-0.64074802 3.4311893 -0.15660092 0
-0.56867129 3.4492154 -0.14809132 0
0.96853727 3.4479964 -0.13396023 0
1.312 3.447 -0.18000001 0
2.159358 3.4467683 -0.10906576 0
-1.1499391 3.5386028 -0.12706017 0
-1.0103695 3.5884163 -0.13112885 0
-0.96699417 3.5382452 -0.13118762 0
-0.85793251 3.5855489 -0.11875547 0
-0.75028759 3.5720081 -0.13764857 0
-0.65512204 3.5177839 -0.1469014 0
-0.58450693 3.5348232 -0.13463697 0
0.99438304 3.5319951 -0.11961363 0
2.2323432 3.5573075 -0.1270263 0
-1.2182502 3.6462064 -0.11164431 0
-1.1494536 3.6450565 -0.11508811 0
-1.0312434 3.6750994 -0.12115461 0
-0.96859121 3.6607087 -0.11012657 0
-0.87991899 3.6718588 -0.10750656 0
-0.76660949 3.6587601 -0.1278107 0
-0.65123624 3.6385944 -0.12862892 0
1.0202289 3.6159937 -0.10526705 0
1.2997985 3.6978619 -0.11359675 0
2.2809999 3.631 -0.139 0
-2.447 3.72 -0.111 0
-1.1775292 3.7300658 -0.10393614 0
-1.0521173 3.7617826 -0.11118038 0
-0.78293139 3.745512 -0.11797285 0
-0.65721118 3.7418032 -0.11276554 0
1.331 3.7809999 -0.12899999 0
-1.0729913 3.8484659 -0.10120615 0
-0.75593567 3.8482132 -0.10811912 0
-2.3610001 -3.3429999 -0.003 0
-0.7512579 -2.9269211 -0.0208278 0
-1.649453 -2.8507786 -0.010676086 0
-1.5414865 -2.8081212 -0.0091433227 0
-1.4410976 -2.8545828 -0.026055684 0
-0.86400002 -2.8210001 -0.022 0
-0.72484815 -2.8289933 -0.024917528 0
-2.6524973 -2.7473664 -0.057298891 0
-1.5940623 -2.7603347 -0.024730437 0
-1.4566501 -2.7302239 -0.022745773 0
-1.3702946 -2.7552764 -0.037679866 0
-1.273 -2.7160001 -0.030000001 0
-0.84180075 -2.753118 -0.027412213 0
-0.70854902 -2.7459719 -0.042471625 0
-0.69606984 -2.7372386 -0.02171509 0
-2.5397451 -2.6337729 -0.07210812 0
-2.2079999 -2.6229999 -0.059 0
-1.5267968 -2.6505013 -0.041797824 0
-1.4552664 -2.6606019 -0.033204749 0
-1.3436575 -2.6443868 -0.050648265 0
-1.2622378 -2.631892 -0.02787279 0
-0.81432569 -2.6691034 -0.034110688 0
-0.67977077 -2.654217 -0.039269187 0
-0.059 -2.675 -0.043000005 0
-2.4444959 -2.5378132 -0.084618449 0
-2.1488729 -2.5528469 -0.068187967 0
-2.0531266 -2.5608485 -0.073518537 0
-1.949 -2.5380001 -0.061000004 0
-1.4359722 -2.5639744 -0.052014507 0
-1.3525069 -2.5444889 -0.051643375 0
-1.2551889 -2.5448117 -0.051556595 0
-1.1839914 -2.5291967 -0.059796847 0
-0.97691602 -2.5416563 -0.022289276 0
-0.77311301 -2.5430813 -0.044158395 0
-0.65723211 -2.566829 -0.046445016 0
-0.056164753 -2.5883069 -0.049870029 0
-2.3809965 -2.4738398 -0.092958674 0
-2.0627775 -2.4506977 -0.081566557 0
-1.9398339 -2.4722638 -0.078731939 0
-1.8669301 -2.4327576 -0.081034698 0
-1.4146875 -2.4674449 -0.070243478 0
-1.3267065 -2.4406407 -0.069081903 0
-1.2615054 -2.4681242 -0.069753297 0
-1.1804591 -2.4383883 -0.067971401 0
-0.93146557 -2.43625 -0.040662847 0
-0.73190039 -2.4170592 -0.054206103 0
-0.63469338 -2.4794407 -0.053620845 0
-0.051821359 -2.4554992 -0.060394399 0
0.4425106 -2.4623537 -0.059437945 0
0.63074243 -2.4364715 -0.05923814 0
0.79100001 -2.411 -0.068999998 0
0.80599999 -2.421 -0.050999999 0
-2.0053806 -2.3825979 -0.090485625 0
-1.9273885 -2.3460069 -0.098794945 0
-1.8153441 -2.366606 -0.093627758 0
-1.3477108 -2.3438056 -0.084405437 0
-1.2498584 -2.3575373 -0.080040962 0
-1.1321934 -2.3597383 -0.064976104 0
-1.0759978 -2.3025491 -0.095949218 0
-0.89909917 -2.3611875 -0.053747136 0
-0.70442528 -2.3330443 -0.060904577 0
-0.61215472 -2.3920527 -0.060796678 0
-0.58961606 -2.3046646 -0.067972504 0
-0.047477968 -2.3226917 -0.070918769 0
0.38996944 -2.3787951 -0.059908867 0
0.44534039 -2.3653033 -0.064399607 0
0.62301272 -2.3158193 -0.035947956 0
0.77932429 -2.3599439 -0.063227668 0
-1.3209984 -2.2516756 -0.084821917 0
-1.2643309 -2.2747879 -0.096359342 0
-1.176 -2.2720001 -0.090000004 0
-1.085 -2.243 -0.071999997 0
-0.85054958 -2.2485938 -0.073373571 0
-0.67695016 -2.2490296 -0.067603052 0
-0.5670774 -2.2172763 -0.075148344 0
-0.044582374 -2.2341533 -0.077935018 0
0.37069029 -2.2496247 -0.065499827 0
0.4301489 -2.2785459 -0.067485377 0
0.5808636 -2.2409573 -0.069107212 0
0.62015831 -2.2207329 -0.018232144 0
0.75072128 -2.2763882 -0.068136714 0
0.91995221 -2.2078784 -0.054674301 0
1.082 -2.217 -0.046 0
-0.93021476 -2.1711316 -0.095954224 0
-0.80199999 -2.1359999 -0.093000002 0
-0.6494751 -2.1650147 -0.074301526 0
-0.54453868 -2.1298881 -0.08232417 0
-0.041686781 -2.1456151 -0.084951259 0
0.37558854 -2.1127424 -0.072373852 0
0.4149574 -2.1917882 -0.070571147 0
0.57800913 -2.1458707 -0.0513914 0
0.67263597 -2.1247964 -0.069776639 0
0.72749877 -2.1571569 -0.06336195 0
0.87628812 -2.1532612 -0.057164792 0
0.94804293 -2.140213 -0.055829901 0
1.0423965 -2.1740119 -0.052163623 0
-0.62199998 -2.0810001 -0.081 0
-0.52199996 -2.0425 -0.089499995 0
-0.038791187 -2.0570767 -0.091967508 0
0.36156636 -2.0263069 -0.075780392 0
0.5555073 -2.0608966 -0.059113115 0
0.64862293 -2.0413325 -0.068410136 0
0.74097997 -2.0678439 -0.048890304 0
0.85298258 -2.0460656 -0.062926672 0
0.96309781 -2.0240734 -0.056454889 0
1.048363 -2.0745192 -0.052720264 0
1.1681211 -2.0312726 -0.036939405 0
1.235 -2.039 -0.032000005 0
1.367 -2.033 -0.035500001 0
-0.035895593 -1.9685383 -0.09898375 0
0.34754425 -1.9398712 -0.079186931 0
0.55374449 -1.9639357 -0.065769099 0
0.66392148 -1.9275417 -0.065273985 0
0.71238399 -1.990275 -0.054712243 0
0.82125276 -1.9665858 -0.067341335 0
0.95496958 -1.9411552 -0.06283582 0
1.0520042 -1.9481869 -0.051157832 0
1.1594965 -1.928429 -0.030480262 0
1.2418859 -1.9404891 -0.042250834 0
1.3278745 -1.9452358 -0.035082579 0
0.33352214 -1.8534356 -0.082593471 0
0.48271587 -1.8562393 -0.0885268 0
0.54893386 -1.8724428 -0.066417903 0
0.63544768 -1.8468611 -0.06984932 0
0.75851339 -1.8522048 -0.072602995 0
0.84411919 -1.8765779 -0.06894362 0
0.92507535 -1.8421793 -0.067980178 0
1.042275 -1.8520687 -0.05186671 0
1.1398206 -1.8395376 -0.048363905 0
1.245391 -1.8434204 -0.055253278 0
1.3003083 -1.8541926 -0.029267494 0
1.806 -1.819 -0.027000003 0
3.55 -1.821 -0.035999998 0
0.3195 -1.767 -0.086000003 0
0.4655 -1.721 -0.090000004 0
0.5395714 -1.7658088 -0.077522285 0
0.62659597 -1.7575687 -0.072178066 0
0.75226295 -1.74046 -0.077945068 0
0.85284531 -1.7615699 -0.068441242 0
0.95455724 -1.7367679 -0.064678676 0
1.0609399 -1.7488075 -0.063040942 0
1.1670092 -1.7572902 -0.058898032 0
1.2270159 -1.7548349 -0.042687245 0
1.6950285 -1.7064006 -0.044364717 0
1.7546344 -1.7668808 -0.035037659 0
3.3948388 -1.74102 -0.0058361273 0
3.4724195 -1.78101 -0.020918064 0
0.57850003 -1.6854999 -0.078999996 0
0.68000001 -1.6535001 -0.082499996 0
0.76950002 -1.6285 -0.079750001 0
0.86385083 -1.6491816 -0.080671757 0
0.96701276 -1.6426139 -0.07965415 0
1.0457796 -1.6439611 -0.065731481 0
1.14289 -1.6730129 -0.063107058 0
1.6354228 -1.6459205 -0.053691775 0
1.7640001 -1.636 -0.033 0
1.8687041 -1.6506484 -0.037952777 0
1.904 -1.6670001 -0.032000002 0
2.1559999 -1.603 -0.013999999 0
2.224 -1.608 -0.041000001 0
2.6550922 -1.6491169 -0.057509087 0
2.7274978 -1.6057787 -0.061845113 0
2.8572569 -1.6582052 -0.046962973 0
0.95999998 -1.554 -0.089000002 0
1.0629258 -1.5495085 -0.08190193 0
1.1048616 -1.5892385 -0.0650535 0
1.5460143 -1.5552003 -0.067682356 0
1.664947 -1.5384365 -0.05497041 0
1.742453 -1.5513728 -0.055622764 0
1.9398746 -1.5440226 -0.034266543 0
2.0772195 -1.5246267 -0.04731071 0
2.1588306 -1.5581545 -0.025176767 0
2.4635878 -1.5335151 -0.07523635 0
2.5561087 -1.5459622 -0.066447839 0
2.6733112 -1.5493281 -0.058740754 0
2.7450111 -1.5343374 -0.032653563 0
2.872 -1.505 -0.013999999 0
1.397 -1.404 -0.090999998 0
1.4566057 -1.4644802 -0.081672944 0
1.5680908 -1.4184427 -0.084271789 0
1.6300845 -1.4515607 -0.074980274 0
1.789 -1.413 -0.07 0
1.8638747 -1.4780226 -0.052266542 0
1.9605175 -1.4452883 -0.063948728 0
2.0437253 -1.4649898 -0.045896575 0
2.1589427 -1.4635714 -0.050681911 0
2.201 -1.4910001 -0.048 0
2.3483901 -1.4639761 -0.085899986 0
2.4578373 -1.4291986 -0.071552001 0
2.5458608 -1.4281424 -0.061127383 0
2.6371953 -1.4776089 -0.05524699 0
2.725513 -1.4277461 -0.027719952 0
2.8037293 -1.4689956 -0.020394232 0
3.0575595 -1.4367259 -0.069631457 0
1.498 -1.374 -0.092 0
1.53 -1.3515 -0.096500002 0
1.8512814 -1.3483324 -0.077423833 0
1.9564266 -1.3531599 -0.058541942 0
