# .PCD v0.7 - Point Cloud Data file format
VERSION 0.7
FIELDS x y z intensity
SIZE 4 4 4 4
TYPE F F F F
COUNT 1 1 1 1
WIDTH 514
HEIGHT 1
VIEWPOINT 0 0 0 1 0 0 0
POINTS 514
DATA ascii
-13.550056 -5.0647044 -0.11319536 3
-11.665033 -5.0692511 0.0082996562 3
-11.276745 -5.0694804 0.27869445 4
-11.374518 -5.0782056 0.75921732 5
-11.102981 -5.0439472 0.71315837 5
-11.093117 -5.085156 1.2101378 6
-11.013818 -5.0621371 1.8026264 7.5
-10.194775 -5.0357842 -0.020087013 3
-9.9138279 -5.0195413 0.18684246 4
-9.8316326 -5.0476098 0.70430726 5
-9.8087072 -5.0644956 1.1067932 6
-9.7552519 -5.0257401 1.5207958 7
-9.6452761 -5.0181007 1.6617686 8
-9.3643904 -5.0231619 0.17968746 4
-9.34132 -5.0199833 0.59068245 5
-9.248498 -5.0548887 1.0636405 6
-9.2438393 -5.029912 1.4526507 7
-9.325285 -5.0603638 1.6966597 8
-9.0904913 -5.0098348 -0.031383704 3
-8.4721069 -5.0004554 0.26394457 4
-8.4881067 -4.9958477 0.61945128 5
-8.5517693 -4.9834752 1.033475 6
-8.5689592 -4.9967494 1.3361406 7.3333335
-8.1919546 -5.6189814 0.33757451 4
-8.168273 -5.3307867 0.33070317 4
-8.2668228 1.543992 0.24593683 4
-8.268445 1.789138 0.28701288 4.5
-8.2595825 2.1142123 0.37610957 5
-8.1965714 -5.6642585 0.50605458 5
-8.1936111 -5.4265866 0.62083232 5
-8.2792959 1.4969611 0.67792523 5.5
-8.277235 1.742103 0.66566753 5.3333335
-8.2303066 2.1259165 0.66977239 5.3333335
-8.1978426 -5.3992524 1.0121797 6
-8.2776527 1.5706332 1.0379477 7
-8.2594528 1.8235152 0.92002136 6.4000001
-8.2519693 2.1424043 0.89478278 6.3333335
-8.181283 -5.4512939 1.3281505 7.5
-8.262002 1.5260674 1.3764302 8.5
-8.2613926 1.8149282 1.3907692 8.5
-8.2394009 2.2014537 1.4088806 8.5
-8.2460508 2.6740317 1.5632713 9
-8.2461042 2.977602 1.5863584 9
-8.2492914 3.3805351 1.3584728 8
-8.2382612 3.825171 1.3885925 8
-8.2398014 4.0558887 1.4066552 8
-8.2075119 -5.4362812 1.6001654 8
-8.2798109 1.4670594 1.8509163 9.666667
-8.2766619 1.7769251 1.8668114 9.8000002
-8.2814789 2.1517425 1.8098763 9.5
-8.2901201 2.5151834 1.8702362 10
-8.2877131 2.9467652 1.8918601 10
-8.2695103 3.3887148 1.77028 9.3999996
-8.2688856 3.9168684 1.8129582 9.333333
-8.2246542 4.0519528 1.8226504 9
-8.1425886 -5.4199986 2.1876543 9.5
-8.1918201 1.4500214 2.1758893 11
-8.2502985 1.7628378 2.2105002 11
-8.2155075 2.1750507 2.1169167 10.6
-8.2578306 2.5953629 2.1302514 10.5
-8.2524071 3.0402122 2.1859777 10.4
-8.2339678 3.3699169 2.2234657 10.5
-8.2357321 3.8399441 2.2760959 10.5
-8.2045889 4.0531673 2.0676458 10
-8.2409191 2.6807849 2.5142722 12
-8.2290268 2.9900537 2.5458579 12
-8.2223768 4.0387344 2.4246464 11
-8.2904282 3.7842164 3.4169278 14
-8.0655861 2.4608431 8.2104969 26.666666
-8.0644875 3.2353358 8.1853848 26
-7.6897388 -9.7799664 -0.003167639 3
-7.8961568 -2.5191982 -0.075625107 3
-7.8926215 -2.0634136 -0.15943967 3
-7.9115105 -1.6942912 -0.15828779 3
-7.679965 -8.715951 0.090378985 3
-7.6853328 -7.9394913 0.070776716 3
-7.9127049 -2.6018863 0.2425115 4
-7.8571482 -2.1062171 0.25720051 4
-7.9104724 -1.7376096 0.24069485 4
-7.9249625 -2.5962019 0.59285051 5.25
-7.9058614 -2.2340562 0.68438357 5.6666665
-7.8962946 -1.8332118 0.5183199 5
-7.8360777 6.1528921 0.75209075 5
-7.9013109 -2.5535257 0.99036205 6.6666665
-7.8563476 -2.1727705 0.99750668 7
-7.9034686 -1.7811116 0.98967606 7
-7.8938193 6.1199102 0.99009776 6
-7.9044976 -2.6574376 1.3353196 8
-7.8418479 -2.1495841 1.2790126 8
-7.8757348 -1.8248627 1.2883182 8
-7.8172579 6.0867863 1.3955692 7.5
-7.9009652 -2.5612459 1.835359 9.5
-7.8269501 -1.8668047 1.7179558 9.333333
-7.6332364 4.2231631 1.8470453 9.5
-7.888329 5.9913373 1.9890643 9
-7.8279443 6.1626778 1.8330911 9
-7.9093795 -2.5995414 2.2875118 11.666667
-7.8051128 -1.9656681 2.0620775 11
-7.8298554 6.0632253 2.3740668 10
-7.8954368 -2.583509 2.4463482 12
-7.8737378 -2.0150385 2.419575 12
-7.8107867 6.1666574 2.6640873 11
-7.9157772 -2.486897 3.469394 15
-7.9217424 -2.4850886 3.7263966 16
-7.8792381 -2.1947579 4.6690035 19
-7.9221659 3.3751409 8.3001375 26.5
-7.9893699 3.194175 8.557354 27
-7.259388 -1.0169085 -0.061691053 3
-7.2598143 -0.48479438 -0.10499249 3
-7.2542782 0.92639405 -0.12650777 3
-7.2668834 -1.2513038 0.21409646 4
-7.2560668 -0.9239431 0.21984369 4
-7.2603297 -0.57592362 0.2278491 4.25
-7.2532382 0.60175318 0.20705156 4.5
-7.2527385 0.93841314 0.26489568 4.4000001
-7.2580519 1.2229037 0.09758848 4
-7.2580547 -1.2561575 0.73471755 6
-7.2605171 -1.1647377 0.49575335 5
-7.2601156 -0.5904668 0.50646889 5
-7.2514086 0.62724471 0.55989283 5.25
-7.2552776 1.0366427 0.63165301 5.75
-7.2801528 -5.090209 1.138554 7
-7.2617893 -1.3341188 0.97968811 7.5
-7.2697358 -1.0565557 0.99409693 7.5999999
-7.2614217 -0.5252831 0.97525972 7.4000001
-7.2699275 0.39412686 0.98531932 7
-7.2361159 0.59195548 0.89137763 7
-7.2422037 1.0058661 1.0080982 7.5
-7.396215 -5.197896 1.3180374 8
-7.2651672 -1.3686094 1.3130087 8.333333
-7.2408814 -0.59448904 1.2329627 8
-7.594769 4.2238607 1.4625354 8.5
-7.209691 -5.0468221 1.8510535 9
-7.2916036 -1.3650333 1.8106837 10.5
-7.2881756 -1.0328611 1.8578104 11
-7.2583914 1.0961328 1.6912148 10
-7.5916495 4.2271681 2.1835356 10.5
-6.8324137 2.4336565 0.32185036 5
-7.0944748 -9.458828 0.47409964 4
-6.8309655 2.4579973 0.59519041 5.6666665
-7.0852618 4.1496096 1.3823856 8.5
-7.0772758 4.1841865 1.7928927 9.75
-7.111671 -5.0384049 2.1330283 10
-6.4868259 -5.4325089 0.22414497 4
-6.6680059 -5.1337547 0.013847338 3
-6.4700089 2.559474 0.30929631 5
-6.5163279 -5.3892965 0.60217553 5.5
-6.4719119 2.5558338 0.58904582 5.75
-6.5318289 -5.4370828 0.97665691 6.5
-6.5287147 2.5824959 0.83648431 7
-6.0213294 -5.1305199 -0.078352533 3
-6.0272789 1.4442174 -0.090643451 3
-6.242847 -5.6865659 0.37344155 5
-6.3124113 -5.5072017 0.27188632 4.3333335
-6.3725533 -5.7550511 0.92344904 6
-6.3822742 -5.8145876 1.4364227 8
-6.0503492 4.0357604 1.5370903 10
-6.011755 4.0844278 1.603093 10
-5.9836512 -5.5809641 -0.095589221 3
-5.9962969 4.2243109 0.74712497 6
-5.957972 4.2047191 1.0226099 7.5
-5.9687119 4.184382 1.4054408 9
-5.9534311 4.156826 1.8437632 10.666667
-5.3182774 1.833136 0.074300461 4
-5.0277796 1.4581757 -0.07888367 3
-4.4834833 4.0282416 1.0216839 8.5
-4.4347444 4.0218201 1.2991698 10
-4.3119316 -5.7597232 -0.0022343441 3
-4.2942414 1.4666313 -0.10656016 2.5
-4.2012715 4.0234752 0.56410968 6
-4.2494736 4.0398722 0.98595953 8.333333
-4.1212511 4.0346909 1.3495917 10
-4.2326288 2.1669772 4.5678787 26.5
-3.6252117 -0.23429708 -0.1498013 2
-3.6713753 0.4767912 -0.15253016 2
-3.7934253 1.4886342 -0.10217546 2.5
-3.8965447 4.0326314 0.251533 5
-3.8401515 4.0255604 0.55578339 6.1999998
-3.8505075 4.0326805 1.0367712 9
-3.8613026 4.0437403 1.5085267 11
-3.8301578 4.0411172 1.6525182 12
-3.8109245 4.0317121 2.1330106 14.5
-3.7118652 2.2084935 4.1832614 26.75
-3.5536525 -2.6834786 -0.13191909 2
-3.3603089 -1.3384392 -0.13583446 2
-3.2546916 0.6055119 -0.14958645 2
-3.225924 1.6685768 -0.10626028 2
-3.4537687 2.2278397 0.006953171 3
-3.4421945 4.0154872 0.35441124 5
-3.4695537 4.0223522 0.5830034 6.5
-3.4917099 4.0217152 1.0009257 8.833333
-3.3398809 4.0311437 1.418722 11
-3.2992022 4.0171909 1.8803748 14
-3.2991147 2.2477427 4.1242537 27
-3.0733647 -1.4885854 -0.12348504 2
-3.1360645 0.73376083 -0.14957169 2
-3.1237137 0.88449484 -0.15452503 2
-3.1542828 1.8220797 -0.10823365 2
-3.0009959 2.3657281 -0.1481216 2
-2.9992812 4.0133996 0.25092164 5
-3.0113099 4.0162868 0.60910046 7
-3.0556521 4.0150137 1.0073115 9
-3.1197505 4.0273333 1.410731 11.2
-3.0961967 4.02319 1.734074 13.5
-2.9656696 2.7667556 4.0949745 27
-2.4651937 -1.4390945 -0.14814241 2
-2.5926285 -0.6523906 -0.14657159 2
-2.7280874 -0.32017487 -0.15006073 2
-2.5154648 0.73200685 -0.16271989 1
-2.5459735 0.97664428 -0.16988307 1
-2.5224211 1.7214622 -0.16941537 2
-2.6546535 3.4865348 -0.075921178 3
-2.6557982 3.854008 -0.08083038 3
-2.4633088 4.0056272 -0.049842406 3
-2.710994 4.014523 0.24222293 5
-2.7015994 4.02073 0.67588872 7.3333335
-2.6710279 4.0122027 0.93671227 9
-2.4923401 4.0255218 1.4165032 12
-2.4570682 4.0162086 1.6951585 14
-2.7196965 3.3574402 4.1646252 26.5
-2.0555844 -2.0912607 -0.14611404 2
-2.1446562 -1.8977766 -0.14598048 2
-2.3475349 -1.595722 -0.14675727 2
-2.1183274 -0.23268566 -0.15517943 1
-2.1856358 2.8708594 -0.17919271 2
-2.1569376 3.9974346 -0.066921912 3
-2.1848199 4.0092397 0.26043522 5.1666665
-2.2877135 4.0174632 0.65011603 7.3333335
-2.1986647 -3.3898692 1.0350589 11
-2.2343094 4.0207334 0.87460333 9
-2.1744583 -3.3509769 1.2260553 12
-2.1870577 4.0255113 1.3725924 12
-2.1497357 4.021812 1.623999 13.5
-1.7941062 -2.2146268 -0.14701635 2
-1.9214959 -1.185961 -0.14468524 1
-1.6922894 -0.64458495 -0.15548436 1
-1.7627881 -0.28269741 -0.16196024 0.33333334
-1.8821924 1.1190673 -0.17274295 1
-1.7683049 1.3232342 -0.17420754 1
-1.8597914 2.4485452 -0.18437991 1
-1.8710599 2.8423865 -0.18177712 2
-1.9344665 4.0006366 -0.079476893 3
-1.7313716 -2.6606567 0.39048913 7
-1.775473 3.9982483 0.30964968 5
-1.8514137 4.0024481 0.23191963 5
-1.7040259 -2.6938715 0.54649264 8
-1.7859989 4.0129437 0.66661429 7.75
-1.8230425 4.0112028 0.85999799 9
-1.7847061 -2.6600707 1.3587664 15.166667
-1.7988459 4.0175099 1.4004698 12.571428
-1.7861872 4.028379 1.8529931 15
-1.7502909 4.0417438 3.905488 25
-1.6881596 4.0339332 4.0219693 26
-1.2366976 -3.4336023 -0.022445796 3
-1.2785473 -2.7099619 -0.029510168 3
-1.4394684 -2.3082626 -0.14329539 2
-1.4005167 -1.3426189 -0.15094738 1
-1.4995087 -1.135898 -0.15079911 1
-1.4476961 0.6233325 -0.16933589 0
-1.3778104 0.87719357 -0.17059822 0
-1.3677903 1.9823192 -0.17261682 1
-1.2687047 2.0366347 -0.17462522 1
-1.2224338 3.9942951 -0.066152468 3
-1.4531279 3.99754 0.25789002 5.1666665
-1.4709623 4.0012197 0.14265914 4.5
-1.4413886 4.0052466 0.65111136 8
-1.3997508 4.008616 0.96986037 10
-1.5436411 4.0143056 1.4392632 13
-1.4574808 -2.8235579 1.8765036 19
-1.5053426 -2.7811868 1.8895004 19
-1.4445094 4.0243363 1.8139082 15
-1.3394771 4.0442805 3.8780551 25.333334
-0.86946428 -2.8175268 -0.021516724 3
-1.0429599 -2.2222145 -0.10756009 2
-1.0070146 -1.6640404 -0.15360771 1
-0.97333014 -1.4313502 -0.15575804 0.60000002
-0.91211855 1.8101342 -0.17526293 0.5
-1.1604133 2.0740125 -0.17463996 1
-0.94449866 3.9957759 -0.15021753 2
-1.0381793 3.9950078 0.2236838 5
-0.9890179 -2.4718208 0.67925906 10.8
-0.99080259 3.9971769 0.64171016 8
-1.1701334 4.0031919 0.59308726 7.5
-1.028554 -2.4383044 0.81745791 12
-0.96498245 3.9988141 0.84378791 9
-0.91941655 4.0055418 1.1334455 11.666667
-0.97729808 -2.2754414 1.5479419 20
-0.95331079 4.0046439 1.3865726 13.285714
-0.80908793 4.0081935 1.7697541 16
-0.96026564 4.1280193 3.7998741 25.333334
-0.59964061 -2.0670686 -0.082347803 2
-0.76767272 -1.6006402 -0.1556225 1
-0.59852731 1.5342884 -0.17564794 0
-0.56953752 1.729171 -0.17335249 0.5
-0.5820477 2.0936491 -0.17200896 1
-0.54350919 3.9890592 -0.10506063 2.5
-0.5700351 -3.8542042 0.019557515 3
-0.76799512 -2.9821217 0.00049191457 3
-0.61564898 3.9926822 0.20972736 4.9375
-0.56556457 3.9953825 0.63360339 7.8888888
-0.68205172 -3.4567864 0.88627887 10.5
-0.57562888 3.994334 0.90929794 10
-0.54772782 4.0029769 1.0756935 11
-0.63618737 4.0042958 1.3048805 12.75
-0.75573379 4.0017157 1.8477404 16
-0.71354461 4.0120616 2.1757331 18
-0.47114539 4.0300565 3.7676835 26
-0.014643069 -6.6384492 -0.11221923 3
-0.22839025 -4.1616468 -0.0014390086 3
-0.21335833 -1.9409209 -0.098144785 2
-0.33577147 1.717626 -0.17139949 0
-0.13153061 2.1768024 -0.11482511 1.75
-0.20345089 3.4814889 -0.17350383 2
-0.29569581 3.9828818 -0.03911633 3
-0.027159855 -4.2293711 0.10355102 4
-0.36361235 -3.5940936 0.0085187173 3
-0.01103762 2.2050796 0.09715987 5
-0.26369035 3.9885671 0.18788858 4.75
-0.22602856 3.9915435 0.6446684 8.1428576
-0.31850162 4.0002613 0.6406427 8
-0.22555235 3.993871 0.93528801 10.166667
-0.37072745 4.0016499 1.1541543 12
-0.25505605 3.9969287 1.3284496 13
-0.39081603 4.0014243 1.3041586 13
-0.14598206 3.9942117 1.8539377 16.333334
-0.13429101 4.0025973 2.0786037 18
-0.082236417 -2.4188294 2.5096843 27.5
-0.065789282 -2.3834863 2.5438793 28
0.22825235 -5.1552305 -0.095380999 3
0.21963491 -1.7973323 -0.10446661 1.5
0.21672328 1.9804639 -0.14092851 1.3333334
0.11834581 2.0889199 -0.040913358 2.5999999
0.12705559 3.9813619 -0.052455083 3
0.17606707 1.9785832 0.19937849 6.2307692
0.061839249 2.1456785 0.10288399 4.6666665
0.12546454 1.9591607 0.53793794 11.142858
0.05697652 1.9190656 0.96033245 17.25
0.32493553 -2.7194908 2.9110343 28
0.27896944 4.0687575 3.7472019 25.666666
0.21299043 3.9956009 4.2195306 27.5
0.25856125 4.0149908 4.1745262 27.5
0.71091574 -2.1389172 -0.045248084 3
0.57424402 -1.6840323 -0.10409413 1.5
0.60238165 1.525218 -0.16873692 0
0.60604227 1.790808 -0.17202072 0.5
0.61973578 2.3554099 -0.17740704 1
0.64930809 3.0638063 -0.1437593 2
0.52790785 -2.173193 0.26778185 6.5
0.66133541 -1.9517642 0.30923599 8
0.48765448 2.9414809 0.12563254 4.5
0.64336383 -1.9330603 0.51490301 10.666667
0.75396645 3.9876091 1.3477597 12.666667
0.90189558 -2.2110817 -0.055766266 3
1.0930459 -1.6254801 -0.062873818 2
1.0018179 -1.5363957 -0.11175213 1.5
0.99162543 1.8031803 -0.17555812 1
0.84776449 2.4984229 -0.18190952 1
0.91571534 3.1841381 -0.10377634 2
1.1610944 3.3917923 -0.17877047 2
1.0594077 -1.6855727 0.23858441 7
0.96857142 2.8776 0.18883397 5
0.9099468 3.9811721 0.74639744 9
0.88648039 3.9811988 1.0201515 10.75
1.0095443 -2.379653 1.49474 19
0.9652921 3.983552 1.3530133 12.75
0.97158188 -2.3032758 1.6638355 21
1.2990044 -2.0408709 -0.028843995 3
1.3502936 -1.4186246 -0.10360791 1.6666666
1.5349085 -0.12302216 -0.18287019 0
1.5415913 0.047931056 -0.18478039 0
1.2256343 1.7056463 -0.17609468 1
1.3923267 3.0128431 -0.074379511 2.5
1.5789826 3.953604 -0.16971713 2
1.3140087 -1.649682 0.1780981 6
1.3310704 -1.5611006 0.31041586 8
1.3444266 2.8924665 0.16060266 4.8000002
1.2950137 -1.6392812 0.44109917 9
1.3640801 -1.5360072 0.48607421 10
1.3384105 3.0735717 0.59863907 8.666667
1.2108744 -1.7530235 0.92037761 15.5
1.4323822 -1.5652871 0.96940267 16
1.3553904 3.8079219 1.1912866 12
1.4600414 -1.5689145 1.2460662 19
1.3510413 3.7914743 1.3730339 13
1.4435802 -1.4401689 2.1355488 27.5
1.4949163 -1.9595107 2.5833681 27.5
1.8059269 -1.8198959 -0.026940553 3
1.7349472 -1.2817413 -0.10501021 2
1.9947449 -1.1848671 -0.10305128 2
1.7859156 1.0808164 -0.17685825 1
1.9350837 1.9749279 -0.19111021 1
1.8145187 2.1442907 -0.18957692 1
1.7766839 2.9400945 -0.11344104 2.3333333
1.8000418 3.9518561 -0.17374994 2
1.8030077 -1.6284782 0.090032533 4
1.7257249 2.9783356 0.12082164 4.5
1.6375402 -1.4981428 0.68553334 12.333333
1.9518803 3.9826517 1.4587348 12.5
1.9778723 3.9714921 1.6722291 14
1.8873782 -0.91329771 2.1959212 28
2.1559923 -1.6027099 -0.01400998 3
2.2924869 -1.0898302 -0.11209075 2
2.255677 -0.43448466 -0.1791634 1
2.3252132 -0.16846372 -0.18594 1
2.1108687 1.7730712 -0.1944793 1
2.2351868 2.6123819 -0.11114286 2.4000001
2.165468 2.9261715 -0.078985825 2.6666667
2.3749471 2.2685671 0.31339625 6.5
2.2394028 2.6141891 0.22118324 5.2857141
2.2053537 3.0852458 0.19116169 5
2.2088563 3.2486227 0.14056465 4.5
2.3988128 2.1829259 0.54688346 8
2.3043301 2.5333047 0.57293886 8
2.2022178 3.1013417 0.41003975 6
2.3320549 2.2850072 1.0309017 12.333333
2.2946367 2.2826707 1.2239041 14
2.5844986 -0.97869343 -0.16112661 1.6666666
2.7073731 -0.68527299 -0.17916578 1
2.4832501 2.2494593 -0.10211383 2.3333333
2.439522 2.5013568 -0.11074357 2.5
2.5488441 -2.298656 0.0070413896 3
2.4065578 2.2598495 0.16028167 4.6666665
2.452841 2.5294173 0.19305097 5
2.7928615 -1.4648476 0.62091345 9
2.4246876 2.1696358 0.65921336 9.333333
2.6279681 -0.68410093 2.711339 26.5
2.7403328 3.9657521 4.4741306 26
3.0868032 -1.447052 -0.068111919 3
3.1483152 -1.1287836 -0.075150222 3
3.1475468 -0.79152328 -0.11118225 2
2.9453206 0.74511081 -0.15024288 2
3.0361738 1.855196 -0.20319051 2
3.0567198 2.2794578 -0.20514931 2
3.1540372 2.5098436 -0.019629147 3
3.0994883 -1.2202412 0.056862578 4
3.1591072 -1.1057228 0.19426341 5
3.0692627 2.5138733 0.21762721 5
2.8284934 -1.4339944 0.62390685 9
3.1624763 2.5253284 0.56937212 7.5
3.2091384 -1.9322996 -0.03806632 3
3.291677 -1.3652574 -0.04913586 3
3.4282031 -0.69239593 -0.12120628 2
3.5843246 1.964137 -0.21120998 2
3.301686 2.2300906 -0.21216975 2
3.2879355 2.500767 -0.10363931 2.5
3.3039155 2.5103421 0.21165241 5
3.3474741 2.5199142 0.59485888 7
3.7937102 -0.55387771 -0.17123489 2
3.6641021 2.4916682 -0.011664679 3
3.7343502 2.4999201 0.27019849 5.1999998
3.7539754 2.5041509 0.56933111 7
4.1522112 -0.93593156 -0.026226941 3
4.182199 -0.41529337 -0.18926141 2
4.7192473 1.4374406 -0.18429345 2
5.0646267 -0.62997061 2.6039588 17.5
5.559217 0.57331604 -0.1763429 2
5.2110348 -0.69281715 2.3687046 16
5.9123745 -0.86952585 -0.04031923 3
5.8127718 3.9187601 2.2356024 12.5
5.6650481 3.9508352 2.5988665 14
5.7010589 3.9639091 3.1698656 16
5.7845111 3.9250495 3.3118553 17
5.7442031 3.9599717 3.6588619 18
5.6885352 3.7989981 6.4078465 26
6.154645 3.8437653 2.2609873 12
6.1272798 3.7537298 2.4838126 13
6.5822229 0.36618623 -0.20338295 2
6.5795474 0.026793357 0.17362139 4
6.5397048 3.8961601 0.32080132 4.5
6.6728392 3.9075539 0.61679411 6
6.5726008 3.9227719 0.84480202 7
6.6677098 3.9548161 3.5257993 16
6.7066131 3.9095068 3.8662925 17.5
6.685678 3.8986354 4.0882916 18
7.5486083 0.0092925457 0.0075816684 3
7.881289 0.3716177 -0.0024355841 3
7.9855518 0.56164914 -0.0084402105 3
7.8184156 0.34031019 0.22406715 4
7.838161 0.47162935 0.30031586 4.5
7.7338624 0.35662827 0.5520705 5.5
7.8697786 0.50809628 0.45856449 5
7.892406 0.48201245 0.98406357 6.5
7.8694353 3.9292161 3.9877234 16
7.8970814 3.9142179 4.2357192 17
7.8065886 3.9013789 4.5417247 18
8.4274054 0.85197258 -0.10645679 3
8.7131548 0.95089841 2.6125326 12
8.9579897 2.7968078 -0.14041592 3
9.1060953 2.6194718 0.71156776 5
9.0820408 2.6294258 0.90156943 6
9.2378922 2.6590586 -0.17843623 3
9.2827053 2.609956 0.24105924 4
9.3071442 1.817534 3.0292764 12.5
9.3214359 2.019562 3.3315322 13
17.338799 6.3753324 -0.080594152 3
17.293324 6.2808342 0.32940117 4
17.352282 6.1173983 0.52438605 4
17.537748 6.23628 0.94938523 5
17.409903 6.5530415 0.91241568 5
17.837643 8.4918604 -0.090440139 3
18.055052 4.6801467 -0.12673785 3
18.721972 3.9059057 1.0611951 5
18.597605 3.9858382 1.4782043 6
18.594305 4.0550542 1.8952074 6
18.575142 4.3049288 2.0422196 6
18.50386 4.367919 2.6532264 7
18.492947 4.2473993 3.0757208 8
18.412336 4.2732267 3.6472254 9
42.621994 20.166077 1.5571808 4
42.751289 17.628414 7.2869334 8
42.644005 17.672215 7.752943 8
42.778721 18.099911 8.7919741 9
42.628014 17.329885 8.9909124 9
42.604607 18.45056 9.0860167 9
