# .PCD v0.7 - Point Cloud Data file format
VERSION 0.7
FIELDS x y z intensity
SIZE 4 4 4 4
TYPE F F F F
COUNT 1 1 1 1
WIDTH 106
HEIGHT 1
VIEWPOINT 0 0 0 1 0 0 0
POINTS 106
DATA ascii
-44.763344 -20.479656 9.0721216 9
-43.936535 -21.607822 14.241312 12
-43.209118 -22.858906 16.077538 13
-42.124111 -24.052004 12.815732 11
-42.026901 -24.201929 14.23176 12
-29.787781 -6.0342312 2.5371695 6
-12.194068 -3.4081168 0.41243094 4
-12.121886 -3.6948168 0.63748217 5
-8.4562407 6.7352362 8.6019983 23
-6.0250163 -2.7293482 0.30137184 4.5
-5.8209429 -3.7176597 0.5650655 6
-5.9516788 -2.9261081 0.57690734 6
-5.5598965 7.0677843 8.2819986 26
-5.3939285 7.1661167 4.733006 18
-5.1584969 7.0431838 8.5920105 27
-4.6207132 7.2188582 4.3340359 17
-4.3455544 7.2230153 4.7670493 19
-3.8976591 7.2281098 7.9100742 26
-3.8283963 7.2151098 8.1110792 27
-3.2125778 1.4945296 0.17402802 5
-3.2440326 2.3943961 0.092995845 4
-3.2652631 2.3562808 0.20199695 5
-3.1112995 -2.1929181 -0.041436389 3
-3.1658928 1.6379817 0.089018635 4
-3.1500912 2.5348485 0.81199211 9
-2.6751006 -2.1189859 -0.16548216 2
-2.7817788 -2.1564677 0.13253312 4
-2.5931978 -2.1146026 0.018511159 3
-2.3241496 7.4366469 4.3752155 19
-2.1809723 -2.0676522 0.15847173 5
-2.0879459 -2.0821202 0.9494679 13
-2.1543078 7.7165051 4.3132496 18
-1.9444468 -2.0534947 0.11445118 4
-1.6633611 9.628047 1.5524241 8
-1.5418124 9.6097841 1.9934393 9
-1.3661687 -1.9532622 0.18138398 6
-1.3349379 1.8453144 0.34401116 8
-1.3242271 -1.9499465 0.59237969 11
-1.3340106 1.8323064 0.40301067 9
-1.0991588 -1.9085884 0.11135074 5
-1.0580117 1.9513195 0.35503486 8
-1.1118231 1.8933253 0.45502761 9
-1.0333136 -1.9000602 0.65534258 12
-1.043908 9.6807518 0.79551256 6
-1.0008022 8.7524195 4.758461 18
-1.1516284 7.5425816 7.9513631 27
-1.1386027 7.5305467 8.0513639 28
-0.95779675 -1.8680919 0.30532873 7.5
-0.80409813 7.9001694 0.34543458 5
-0.87898272 9.7073202 1.2575384 7
-0.70559984 -1.8837601 0.17030483 6
-0.7816633 2.3010681 0.14208315 5
-0.52287686 -1.8033104 -0.0077333003 3
-0.40855256 -1.7793375 -0.10975311 1
-0.56561702 -1.8136539 0.068274118 4
-0.56280798 -1.8238856 0.50294238 11
-0.46574956 9.7242022 1.4006021 8
-0.47685176 9.7251921 2.1126003 10
-0.39553231 -1.7892169 -0.091752939 2
-0.26452723 -1.8358108 0.88623762 17
-0.35917801 9.7358665 1.8466194 9
-0.05411965 -1.724893 -0.085818261 1.5
-0.0093684299 9.7497044 3.1636765 13
-0.030945793 7.6455221 7.0695391 26
0.012098326 -1.7271755 -0.021829322 3
0.052900765 -1.7240375 0.097829312 5
0.15287492 -1.7261649 0.50714439 12
0.297104 -1.7548906 0.18712166 6
0.21478373 -1.7338295 0.30213389 8.5
0.23293735 -1.7925184 0.85914278 17
0.23290487 7.7277131 5.5205898 22
0.58631647 1.7635339 0.15430139 6
0.4195784 -1.7543839 0.25609541 7
0.52056539 1.7604483 0.31753531 8.5
0.44744042 -1.7469718 0.52308756 12
0.44318452 -1.8039858 0.87410116 16
0.85107177 1.7215842 0.38636601 9
1.1256603 1.7565405 0.17543769 6
1.1377347 1.749401 0.44444057 10
1.1187605 7.7669744 8.2357521 28
1.3323541 7.8382211 5.6277986 22
1.3232778 7.8402367 5.9767966 23
1.3581785 7.7989035 8.0718002 27
2.534703 2.22963 0.25967094 6
2.5161314 2.2103534 0.42568696 7
2.5875621 1.9918666 0.69077605 9
2.5344412 2.1194909 0.76172769 10
2.5561538 2.6426783 0.77282357 9
2.5411203 2.6838951 0.81482095 10
2.7041969 1.8901567 0.33678979 6
2.7558215 7.8447614 6.323092 23
4.1204915 8.0341883 8.6764069 26
4.0672956 8.0625448 8.8983955 27
6.1553288 8.3460617 5.7008948 18.5
6.7714624 -8.6131077 0.54515201 5
8.2371397 -25.443073 17.675684 21
12.397668 -28.375807 20.616467 21
14.704097 -27.841562 9.3368254 12
17.342754 -24.936769 3.0384805 6
17.217083 -25.185612 3.6365747 7
17.769001 5.9270144 1.7465858 6
17.758268 5.4762888 2.1018062 7
17.600313 6.3654823 2.8264341 8
17.695183 5.8381433 3.3336546 9
18.180347 -24.688322 14.596202 17
26.604332 -22.264277 11.000127 12
