# .PCD v0.7 - Point Cloud Data file format
VERSION 0.7
FIELDS x y z intensity
SIZE 4 4 4 4
TYPE F F F F
COUNT 1 1 1 1
WIDTH 451
HEIGHT 1
VIEWPOINT 0 0 0 1 0 0 0
POINTS 451
DATA ascii
-44.574223 -20.721233 14.252161 12
-44.402134 -21.217154 14.586258 12
-44.391163 -20.793291 10.117167 9
-44.119045 -21.65629 16.89933 13
-43.664055 -22.142485 14.53141 12
-43.872116 -21.960463 16.167381 13
-43.320721 -22.488396 14.240464 12
-43.445267 -22.527645 16.765476 13
-42.969769 -23.076899 14.50257 12
-42.668903 -23.341677 14.231608 12
-42.534035 -23.743177 15.989691 13
-42.290253 -24.020294 14.479735 12
-42.15118 -24.285328 16.536781 13
-41.726376 -24.838549 15.229882 12
-41.865757 -24.633387 15.908843 13
-35.649799 -3.7311757 -0.2678324 3
-35.491451 -3.2166872 0.89606583 4
-35.36517 -3.0015056 0.81301922 4
-35.322659 -2.5406485 0.92993653 4
-35.299328 -2.3277862 0.88389838 4
-29.839146 -5.4885817 0.75307012 4
-29.850481 -5.3861833 1.5100517 5
-29.716181 -5.9437118 2.2341471 5
-12.333127 -3.653425 -0.10651135 3
-12.132184 -3.3898976 -0.0075769131 3
-12.175141 -3.5179324 0.29295108 4
-12.168251 -3.6036558 0.72446746 5
-12.173086 -3.3979952 0.63442755 5
-9.7016993 6.2793789 11.136045 26
-9.8074217 6.529716 10.879038 26
-9.5012922 6.3039241 11.172038 27
-9.4858513 6.5144496 10.90103 26
-9.1597166 6.2666574 11.50903 27
-8.7549582 6.7095432 9.5970039 25
-8.7451048 6.6354051 9.6710062 25
-8.6608629 6.658648 10.078005 26
-8.095356 -2.9253983 -0.096947551 3
-8.246891 1.3696626 -0.10164909 3
-8.0958118 1.3144453 0.18534726 4
-8.1361437 1.3717005 0.48200971 5.3333335
-7.0240302 -7.0444198 -0.40613231 2
-6.4396238 -4.3626018 -0.24975628 2
-6.0902019 -2.8093259 0.020892663 3
-6.0323682 -2.7679932 0.19688027 4
-6.0467691 -2.7800341 0.59338367 6
-6.010004 0.88478607 0.47025609 6
-5.7217493 -2.7108161 -0.30915239 2
-5.6107173 -2.1984839 -0.29526353 2
-5.812964 0.86026198 -0.12175451 3
-5.8584871 1.440999 -0.042817213 3
-5.6860118 1.682249 -0.042851999 3
-5.7717667 -3.7132614 0.17681147 4
-5.8157444 -3.3995705 0.1716643 3.8888888
-5.8920279 -3.0227232 0.21547915 4.3333335
-5.9912801 -2.7878923 0.33788159 5
-5.9009991 0.8359341 0.15325457 4
-5.8492799 1.4559189 0.2231807 4.6666665
-5.8087158 -3.6649888 0.55555356 5.5
-5.8579812 -3.4093406 0.53440237 5.5999999
-5.9123316 -3.0917916 0.52843928 5.5
-5.957993 0.86587763 0.4342548 5
-5.9215178 1.4348204 0.47518745 6
-5.2594266 7.1652575 4.7470098 18
-5.4151077 7.136055 5.0750046 19
-5.2893867 7.0735888 8.239007 26
-5.410799 7.0342441 8.633337 26.666666
-5.5846949 7.1618614 9.3360014 27
-5.0447793 -0.48984703 -0.25561774 2
-4.9835153 7.1915379 4.6735201 18
-5.1922016 7.1573124 5.0080123 19
-5.1211648 7.1002841 8.3460131 26
-5.0691881 7.0337553 8.7075138 27
-4.6431112 1.9369074 -0.11093203 3
-4.4166842 7.2710261 4.3090472 17
-4.6171169 7.2442098 4.5677037 18
-4.6689091 7.2223167 4.8665338 19
-4.5737066 7.175818 6.3510346 23
-4.6710076 7.1156669 8.2986975 26.333334
-4.5992713 7.1254725 8.4367847 27
-4.1286011 7.3687224 4.2880664 17
-4.3235641 7.1920037 4.5640492 18
-4.1790013 7.2706289 4.5530591 18.333334
-4.1171799 7.2140408 8.0840626 26.5
-3.9290993 -11.106244 -0.5164727 2
-3.8315835 -7.2936306 -0.42029026 2
-3.7891209 -1.7865756 -0.26947245 1
-3.7073417 -1.3290788 -0.26156765 1
-3.7839303 1.7707406 -0.17996256 2
-3.6694925 4.9924874 -0.061990146 3
-3.769079 2.0103719 2.395366e-05 3
-3.7966659 7.3551197 4.3425865 17.666666
-3.8523216 7.3119917 4.5543313 18.5
-3.9983234 7.1660419 8.1630659 27
-3.9147322 7.2301054 8.0760727 27
-3.5690355 1.8815547 -0.17497754 2
-3.3182325 2.1986675 -0.076163813 2.6666667
-3.5886321 5.3939543 -0.066975646 3
-3.3488438 -2.248971 0.026591605 3
-3.3433685 1.3628623 0.092042223 4
-3.2195337 1.8879169 0.18300976 5
-3.2402034 2.2491217 0.1875824 4.8333335
-3.256753 2.5328786 0.20474376 5
-3.3837917 7.3395929 4.3372812 18
-3.406831 7.3612642 4.5747809 19
-3.0058229 -9.9644136 -0.30579504 2
-3.0015452 -6.4050007 -0.36454457 2
-2.9854739 -3.6856942 -0.31812713 1
-3.0452611 -2.2186999 -0.042435568 3
-2.9533837 -1.9598464 -0.27149561 1
-3.1652472 1.2941455 -0.18996197 2
-3.1888206 1.9185495 -0.029992361 3
-2.8569114 2.0956168 -0.142005 2
-3.094178 5.1590366 -0.063959412 3
-3.1149218 5.7864771 -0.071935743 3
-3.0945625 -2.1999404 0.15096392 4.1999998
-3.1742489 1.5532676 0.22218992 5.5
-3.1784871 1.766741 0.16634692 4.6666665
-3.1666636 1.9356546 0.74300635 9
-3.141397 2.4547236 0.83899319 9
-2.9770322 7.4442482 4.2938199 18
-2.94996 7.4046302 4.4876533 19
-2.6412988 -6.3786707 -0.35858008 2
-2.6998463 -3.630132 -0.14215948 2
-2.5869119 -2.6093373 -0.049385156 3
-2.6180525 -2.2019472 -0.091218784 2.5
-2.7686338 -1.1633759 -0.2406674 1
-2.7836716 2.3021183 -0.15400842 2
-2.6606183 2.4135063 -0.16100913 2
-2.5678525 3.1325586 -0.13299917 2
-2.6402197 -2.1487 0.15580729 4.4285712
-2.6059945 7.470047 4.343688 18.5
-2.2914851 -4.2603459 -0.32105649 1
-2.380456 -2.9086983 -0.11233647 2
-2.0410473 1.0764151 -0.1729977 1
-2.2774963 2.2658758 -0.15100728 2
-2.3241761 2.5792015 -0.1090038 2
-2.1616414 -2.072561 0.20947134 5
-2.0921533 -2.0722985 0.91663277 12.5
-2.0766306 7.4988666 4.3637447 19
-2.2400348 7.6820951 4.2994046 18
-1.7633194 -2.2547646 -0.01252099 3
-1.9061753 1.1267961 -0.16500309 1
-1.8006486 2.5721259 -0.13648559 2
-1.8855896 -2.0456738 0.15269499 4.75
-1.6497016 -1.986885 0.21066445 5.5
-1.6442549 -1.9978353 0.41941628 8
-1.6311185 9.6330366 0.50142884 5
-1.6030872 9.6139345 1.4334315 8
-1.9772446 7.7532716 4.3102717 18
-1.3673841 -2.9077499 -0.064418957 3
-1.4129241 1.1346649 -0.16350847 1
-1.255383 1.2529613 -0.16000465 1
-1.2502582 2.3765523 -0.13395905 2
-1.5083085 2.5466819 -0.12896994 2
-1.3410735 -1.9352255 0.19050314 5.5
-1.2544904 1.8686723 0.35918346 8
-1.4224194 2.1254334 0.10051836 4
-1.4319907 5.6923819 0.032212049 3
-1.2833321 -1.949358 0.6310426 11
-1.2474279 1.8696718 0.44135058 9
-1.3848721 9.6624031 0.62121373 5.5
-1.4058932 9.6575594 0.9684605 6
-1.2918364 9.6542816 1.485476 8
-1.3515025 9.6413965 1.7194669 8.6000004
-1.4663796 9.6236238 2.0674503 9.666667
-1.2008953 8.7468863 4.7674313 18
-1.2332385 9.0069723 4.5584435 17
-1.3880426 7.5070815 7.8008285 27
-1.0988921 -3.670037 -0.28828833 1
-0.90904915 -2.1853535 -0.018612022 3
-0.98145682 1.0790265 -0.16400051 0
-1.1469691 1.3215809 -0.155999 1
-0.93031198 1.8647134 -0.14345835 1
-1.1987489 2.0284097 -0.14197227 1
-0.99208379 2.4893641 -0.10767858 2
-0.9801324 5.1275439 -0.065765686 3
-0.98583847 -1.8906171 0.19233599 5.8000002
-1.1264143 1.9045131 0.37238422 8.5
-0.99914634 2.2837942 0.09556026 4
-1.0685354 7.5967989 0.14637749 4
-0.95030117 7.8841915 0.31241244 4.6666665
-1.0758911 -1.9098176 0.58597374 11
-1.1227347 1.9060313 0.47952744 9.5
-0.86335325 9.7113104 0.71104091 5.5
-1.0720164 9.696805 0.96000981 6
-0.99419177 9.6785946 1.4467698 8
-0.89666539 9.6893301 1.7905346 8.666667
-1.1465958 9.6589231 2.0964968 10
-1.0944417 8.7086411 4.7534442 18
-1.0159789 9.0394688 4.5764771 17
-0.94644523 7.5542254 7.9043918 27.5
-0.99025351 7.5362034 8.0118847 28
-0.74383891 -2.2061007 -0.01362582 3
-0.45439655 -1.8001288 -0.063742861 2.2
-0.54565018 1.6756507 -0.14317665 1
-0.48903552 2.2654827 -0.1203805 2
-0.76718754 2.591058 -0.11489698 2
-0.58123499 4.9106169 -0.063722894 3
-0.63814276 -1.841149 0.18195847 6
-0.76127064 2.3445354 0.1325883 5
-0.69960946 7.5409131 0.12642711 4
-0.79707783 7.8921571 0.25043505 4
-0.47544906 -1.816501 0.51999533 11.25
-0.59231031 9.747591 0.79858387 6
-0.73413074 9.7289639 0.95256126 6
-0.57355261 9.7295017 1.3590859 7.5
-0.56096709 9.7187719 1.8389204 8.666667
-0.66960657 9.7023916 2.0522363 9.333333
-0.60141343 7.5842128 7.8914447 27
-0.42936346 7.6107183 7.9334731 27
-0.62709147 7.5767736 8.0264416 28
-0.45451668 7.6087871 8.02847 28
-0.17711119 -1.7620938 -0.075358629 2
-0.092055395 1.5112832 -0.1343648 1
-0.27044177 1.6174417 -0.13738984 1
-0.33413985 2.3550477 -0.11485079 2
-0.1380783 2.465879 -0.10731019 2
-0.21592636 4.5295863 -0.05969042 3
-0.23544905 -1.7881609 0.14563397 5.5714288
-0.36697215 -1.7958339 0.56874442 12
-0.16943932 -1.8233784 0.86743259 16.666666
-0.0074785938 9.7146873 3.3796744 13
-0.18989615 7.6270404 7.0021791 26
-0.30969188 7.611352 8.0594912 28
0.14535882 -3.2919679 -0.20852864 1
0.028118556 -1.7377571 -0.040580001 2.5
0.22313951 1.522734 -0.1321293 1
0.25477245 2.3637133 -0.013741487 3
0.1307811 2.4553068 -0.09276095 2
0.36719161 3.3683383 -0.085658617 2
0.31130549 -3.2921834 0.025443617 3
0.13554415 -1.7373391 0.17268425 6.25
0.17855445 -1.734445 0.55540466 12.5
0.16986194 -1.7898015 0.84715408 16.666666
0.22493431 9.7699299 3.1577168 13
0.16862309 9.768115 3.2467074 13
0.37275997 7.7507048 5.5391145 22
0.2851387 7.7145066 5.8145971 23
0.031480201 7.6713095 7.1205506 26
0.26780641 7.6894231 7.9895926 27
0.24174821 7.6666689 8.1415882 28
0.63069904 1.4777565 -0.12369825 1
0.70840007 1.9212065 -0.11066187 2
0.49468681 2.0758362 -0.11220521 2
0.70209533 3.4737296 -0.072583944 3
0.42036256 -1.757625 0.26134592 7.5
0.62664968 1.7686245 0.24202307 7.3076925
0.61443424 2.1248579 0.052825153 4
0.42936599 -1.7546927 0.56759334 12.5
0.68647593 1.7395397 0.40907523 10
0.46425438 -1.8172271 0.89847445 16.5
0.55786151 7.7705011 5.5646491 22
0.46122807 7.7458558 5.787631 23
0.53386557 7.7104244 7.9881411 27
0.62687087 7.7100415 8.1626587 28
0.85474986 -8.6293793 -0.40153784 2
1.0669342 -2.5710058 -0.22786711 1
1.1343757 -2.2762733 -0.21745378 1
1.1788363 -1.9977582 -0.20703468 1
1.1895653 0.71790832 -0.13610263 0
0.97225451 0.99488717 -0.1281312 0.5
0.92030036 1.7821969 -0.11061423 2
0.98766166 3.1269853 -0.075540051 3
1.043044 3.3852668 -0.069513805 3
1.0550451 1.7483381 0.30403039 7.8333335
1.0679269 1.744773 0.43425578 9.666667
0.9958055 7.754426 8.119812 27.5
1.5799279 -6.177073 -0.33417833 2
1.2899716 -4.1854858 -0.27455258 1
1.3948394 -3.8790207 -0.26164305 1
1.32937 -0.54273981 -0.17053925 0
1.4552933 -0.26752061 -0.16270131 0
1.5674423 0.28623691 -0.14500502 1
1.401158 1.3139917 -0.11123501 1.5
1.4091129 3.3365021 -0.061433051 3
1.2817003 7.8294349 5.8294554 22.333334
1.8976781 -6.2094302 -0.33523399 2
1.6948314 -2.5545893 -0.22503205 1
1.924476 -2.3138845 -0.21316145 1
1.9488426 -0.94241339 -0.17810613 1
1.8989829 -0.58631605 -0.16897722 1
1.8712808 -0.35359246 -0.16181469 1
1.6701247 0.63604349 -0.13271882 1
1.8307651 0.94532043 -0.12143292 1.5
1.6852472 3.5078321 -0.053360578 3
2.3185539 -8.9106951 -0.03973338 3
2.2301698 -6.1134338 -0.32532406 2
2.3399942 -5.5867157 -0.31446639 2
2.1591716 -4.5550547 -0.27266234 2
2.0418522 -2.1302516 -0.21374886 1
2.1319096 -1.824577 -0.20686889 1
2.0192168 -1.3717709 -0.18772836 1
2.3641999 -0.32191679 -0.15700687 1
2.2989011 0.28211677 -0.13726142 2
2.0162079 1.1649894 -0.11160817 2
2.210952 1.7737851 -0.084321156 2
2.1045027 2.0543578 -0.085098311 2
2.0589423 3.7355099 -0.046262249 3
2.2389338 7.9332113 5.9069872 22
2.2579865 7.9255838 6.1894898 23
2.4251366 1.5766783 -0.090956464 2
2.7501879 1.7582279 -0.078157835 3
2.5812614 2.5252883 -0.050173197 3
2.6318796 2.8386121 -0.050152179 3
2.647567 1.9371192 0.32145104 6
2.5229881 2.278213 0.15864971 4.6666665
2.4877279 2.4259582 0.24158527 5.5
2.6129262 1.887795 0.40782121 7
2.5032012 2.2025249 0.61261189 8.666667
2.5446608 2.6971519 0.76557225 9.5
2.6523907 2.4994609 1.1638439 13
2.5667639 2.5176511 1.2561811 13
2.718549 7.9906015 5.7910914 21.5
2.6498482 7.9347534 6.2590737 22.666666
2.8959832 -9.2522802 -0.18277204 3
3.0133359 -4.4416757 -0.25990465 2
3.122376 -4.175746 -0.25100249 2
3.1990516 -3.1435206 -0.22530749 2
3.1193931 -2.6624231 -0.21342543 2
3.0391679 -1.3065205 -0.17735337 2
3.0707889 -0.98469841 -0.17648748 2
2.9562244 0.069941327 -0.15239599 2
2.9244311 1.6845806 -0.073178418 3
3.0810652 2.5744243 -0.066686243 3
3.1553047 8.0265703 5.7571893 21
3.0713615 7.8318939 6.3161607 23
3.1265831 8.0106916 6.1786804 22
3.3086791 -3.8134511 -0.24165229 2
3.3785186 -2.3526649 -0.20760661 2
3.3248227 -0.71012038 -0.16668902 2
3.3777587 1.3118849 -0.092144214 2
3.2886469 2.3584332 -0.070644513 3
3.9705002 -9.4936609 -0.19394334 3
3.6416585 -2.1631045 -0.19975682 2
3.8002412 1.2539546 -0.093761556 2.5
3.9213612 -10.824043 0.067363195 3
4.2009773 1.0480722 -0.0863012 3
4.1874838 2.6812522 0.12289006 4
4.2998509 8.0590296 8.568449 26
4.1807833 8.0547867 8.8874207 27
4.4184055 0.28996772 -0.10802057 3
4.9752522 -8.0986433 -0.33150494 2
4.9731617 0.093433127 -0.12113023 3
5.1340871 8.2163277 9.7406502 27
5.3407006 -9.7578077 -0.31719714 2
5.253067 4.0669012 0.12482946 4
5.3276815 8.3276281 9.4331989 26
5.3293195 8.2024136 9.7761936 27
5.6847 8.386632 9.5267849 26
6.3852067 1.0508547 -0.035074815 3
6.2788606 -10.191081 0.046676513 3
6.11937 -8.9956169 0.052423298 3
6.3245344 8.3593817 5.2049351 17
6.2146516 8.3340807 5.8592424 19
6.5214343 -8.6071043 0.13734329 3.75
6.5342298 -8.7175035 0.54624331 5
7.787147 -9.3196011 -0.23894328 3
7.994144 -25.528948 17.465748 21
8.5911045 -25.327961 17.529589 21
8.845067 -8.6243296 0.22156256 4
9.0419836 8.9931993 9.291069 22
9.3283062 -10.166832 -0.27615187 3
9.289937 -8.2160969 0.10331189 3
10.144425 -8.1887264 0.11304052 3
10.314389 -28.695948 20.276974 21
10.59076 -28.595177 20.145895 21
11.199619 -28.542418 20.237761 21
11.494475 -6.6897631 -0.03386623 3
11.466821 -28.580202 20.474714 21
11.849673 -7.6835842 -0.3186599 3
11.896956 -8.5412197 0.0035950404 3
11.90696 -28.457853 20.398594 21
12.346681 -12.05234 -0.39850995 3
12.143909 -28.374901 20.565521 21
12.617386 -28.387169 20.512424 21
12.835071 -5.9012609 -0.074586444 3
13.036603 -5.2489872 -0.092887677 3
12.922812 4.2250423 0.54210609 4
13.330803 3.5745699 0.20027362 4
14.387985 -27.919611 9.3109169 12
14.3486 -27.453524 9.9498186 13
14.683298 -27.524477 21.845757 22
14.819465 -27.853167 9.1638031 12
15.13381 -27.795082 9.4107151 12
15.137267 -28.034338 21.394772 21
15.283923 -5.3094778 -0.12664646 3
15.379789 9.6079845 8.867609 17
15.268598 -27.715113 10.155665 13
15.520603 -27.973503 21.018665 21
15.352804 -28.032623 21.309717 21
15.831779 9.695261 6.4114099 13
16.874168 9.8137455 6.7339935 13
17.155239 -25.432085 14.176651 16
17.132076 -25.612513 14.605703 17
17.589516 6.5066476 2.3093693 7
17.592886 6.7064629 2.4042716 7
17.355469 -25.092674 3.581516 7
17.473898 -25.143717 13.272497 16
17.224613 -25.343985 14.451612 16
17.500643 -25.177074 14.561501 17
17.371038 -25.234753 15.036548 17
17.883093 4.584631 1.7471862 6
17.810869 4.9333854 1.7435461 6
17.755407 5.3772435 1.7448542 6
17.70603 5.7574344 1.7576894 6
17.843044 4.6805573 2.1911547 7
17.788857 5.1113958 2.1914694 7
17.69552 5.9029412 2.0926237 7
17.659571 6.2030478 2.1919913 7
17.813021 4.6652474 2.7581732 8
17.789423 5.092545 2.7779787 8
17.709955 5.5069237 2.789809 8
17.665131 5.9388752 2.8086171 8
17.647863 -24.864502 3.5343843 7
17.834248 4.6075292 3.2691927 9
17.740648 5.4252658 3.3108366 9
17.989056 -24.804842 3.6392801 7
17.784676 5.1581135 3.8669486 9
17.775272 5.6267614 3.8907285 9
17.634506 6.5440536 3.9203358 9
18.228455 -24.908949 3.0542426 6
18.090242 -24.79768 14.633252 17
18.772512 -24.680397 14.395042 16
18.567244 -24.541893 14.630061 16.5
18.630501 11.287784 15.80616 22
19.001045 -24.426342 14.690916 17
19.207321 -5.4950976 0.079047002 3
19.617708 -24.615814 14.596799 16
20.217167 -4.819325 0.10242926 3
20.547468 4.5511751 0.41225737 4
21.48278 -24.150425 14.798161 16
21.650494 -24.765097 15.219278 16
21.644979 -24.599709 15.861236 17
21.718252 -24.218994 15.894114 17
24.999918 -4.6817141 0.12667462 3
24.933598 -22.465157 16.31069 17
25.222761 -22.353867 15.981573 17
26.949615 -22.144875 7.9659848 10
27.107817 -22.260357 17.080969 17
26.956125 -22.300558 17.367029 17
27.363642 -22.125761 10.182853 12
27.556229 -22.034971 11.239766 13
28.43066 -22.234705 8.212553 10
28.538774 -22.328505 11.347548 12
28.845577 -22.301285 10.353445 12
29.086344 -22.214201 11.713344 13
31.914497 -21.644432 12.17127 12
32.108521 -21.545315 8.6961775 10
32.116463 -21.537233 12.015172 12
32.389095 -21.462872 12.609059 13
32.489239 -21.310186 11.867982 12
