# .PCD v0.7 - Point Cloud Data file format
VERSION 0.7
FIELDS x y z intensity
SIZE 4 4 4 4
TYPE F F F F
COUNT 1 1 1 1
WIDTH 87
HEIGHT 1
VIEWPOINT 0 0 0 1 0 0 0
POINTS 87
DATA ascii
-10.908332 6.0882077 3.9409521 12
-7.8749051 -3.8081875 0.11988433 4
-7.9754105 6.865386 9.1329451 25
-7.1651206 6.8800116 9.365962 26
-6.9792824 -0.68272716 0.19234897 4
-6.483705 7.0234432 9.6199865 27
-5.8457279 1.6868889 0.073051162 4
-5.7888517 0.91906542 0.14611205 4
-5.796813 0.94219303 0.4321101 5
-5.6333547 7.4014425 8.9860401 26
-5.1665454 7.2681952 4.2010603 16
-5.0617204 7.5172129 9.007081 27
-4.9404345 7.3685241 9.4590816 28
-3.4162104 2.4481049 -0.02501761 3
-2.9104123 9.7798738 3.1834493 12
-2.9533765 7.777492 5.2412896 20
-2.8002143 7.8022666 5.5053091 21
-2.6149118 9.8283882 0.51349312 5
-2.4065456 9.8893642 0.98852742 6
-2.296092 9.895256 1.2005439 7
-2.3409164 9.8776789 1.5445359 8
-2.0663655 1.6783642 0.12399665 5
-2.0382855 9.9306393 0.460585 5
-1.9999409 -1.9467533 0.11634298 4
-1.9479755 1.6989058 0.42800036 8
-1.7537524 10.006431 1.736635 8
-1.4159389 1.7595249 0.10202847 5
-1.4297303 1.7531493 0.31302726 7.5
-1.5852302 -29.903662 9.8640385 13
-1.3965592 1.7673326 0.20103024 6
-1.2587941 8.1495247 4.9905562 20
-1.2976499 8.1259794 5.3495488 21
-1.0959119 1.8851537 0.28706366 7
-0.69882041 4.4884944 0.97933513 10
-0.71198279 4.4177175 1.1413269 11
-0.39452878 -29.016815 10.388772 14
0.15894626 2.0170305 0.27361882 7
0.35010299 1.8102988 0.4638148 10.5
0.2658726 -29.360207 16.163757 18
0.45814535 1.7953856 0.50834137 11.5
0.52981049 -29.37191 9.5457335 13
0.91950226 8.6140594 6.9530067 24
1.3920958 8.8942652 8.9191332 27
1.4037867 2.9634387 0.047908757 4
1.4411649 2.9025693 0.23292592 5
1.8371736 8.6435595 6.082212 21
1.9884796 8.8673878 9.5662661 28
2.1856923 9.0786552 9.1523285 27
2.2422326 3.350538 0.47248003 7
2.4014049 9.0761385 9.1823788 26
3.2442069 -25.309895 9.5007267 14
3.406111 -8.7259436 0.56982344 5
3.991437 -25.022623 13.576578 18
4.030951 -25.100214 10.034589 15
4.2557349 8.8449945 9.0148201 26
4.3671336 8.7106533 9.9208403 27
4.4600525 9.3186073 8.6339054 24
4.7162914 -24.898178 8.5134573 13
4.9622478 -13.394835 3.2053995 10
5.0537972 -24.747356 20.290384 24
5.22438 -24.787533 14.564367 19
5.460546 -24.815626 9.7623358 14
6.0788364 -24.672337 10.387218 15
6.5687876 -21.890261 2.8906531 7
6.4216232 10.253298 11.998027 27
8.3436661 11.086578 6.0690546 16
9.2635212 -13.007359 3.9834371 11
10.73325 -5.5414791 1.2211777 6
10.835909 -5.9964104 0.87428164 5
10.834647 -6.0124435 1.6842866 7
11.214423 14.084746 16.845797 26
11.854542 -26.459721 17.237551 19
12.782623 -26.320614 11.747344 15
12.925238 -26.216698 10.904297 14
13.455909 -5.1430993 1.4102088 6
13.948457 9.0708017 2.34727 7
13.800515 -26.002089 17.528078 19
14.157323 -25.357552 23.151878 23
14.387173 7.557889 2.3578219 8
14.387933 -25.408012 12.05384 15
15.483459 5.6357102 0.69833535 5
15.560529 4.5539284 1.1037844 5
15.490047 4.9138255 1.2666503 6
25.431717 -19.051313 8.3776321 11
31.333832 18.580608 23.870543 21
31.938438 16.9245 22.213102 20
32.095764 16.260458 21.453354 19
