# .PCD v0.7 - Point Cloud Data file format
VERSION 0.7
FIELDS x y z intensity
SIZE 4 4 4 4
TYPE F F F F
COUNT 1 1 1 1
WIDTH 610
HEIGHT 1
VIEWPOINT 0 0 0 1 0 0 0
POINTS 610
DATA ascii
-37.610989 -4.7636251 1.109202 4
-37.754219 -4.331811 0.83914417 4
-37.397335 -7.8105416 -0.33833718 3
-37.334606 -5.5777755 1.0493133 4
-37.463917 -5.1641092 0.81925601 4
-36.421749 -5.6729646 -0.49170908 3
-18.06262 4.7259102 3.858222 9
-14.543045 -16.618456 -0.38853687 3
-14.031067 -5.1549559 0.037336882 3
-14.155048 -4.6352057 0.26325327 4
-14.090006 -4.7235694 0.48426577 4
-14.035275 -5.0459933 0.90331841 5
-14.260828 -4.7487931 0.90127629 5
-13.982615 -4.9297166 0.2532967 4
-11.872303 5.7736225 3.9609783 12
-11.978931 5.7147889 4.3969836 13
-11.931687 5.735117 4.5609813 13
-11.201466 5.9109974 3.9999623 12
-11.272861 5.884562 4.3789639 13
-11.404262 5.8861179 5.1839666 15
-10.613328 6.0116277 4.074451 13
-10.501885 6.0894961 4.5499477 14
-10.569233 6.0751905 4.9319491 15
-10.579405 6.0560312 5.3199501 16
-10.411557 6.0897737 5.6149464 16
-10.180133 6.1649494 4.819943 15
-10.110892 6.1611176 5.3404422 16
-8.8436213 -4.2370224 -0.10200651 3
-8.8169355 -3.7322471 -0.28209549 2
-8.9415112 6.4407277 5.1359348 16
-8.315855 -10.462738 -0.21287891 3
-7.9044499 -3.793287 0.23421611 3.6666667
-7.9022131 -3.8219373 0.55388767 5
-7.8686361 -3.9007056 0.81990033 6
-7.9299445 6.8845248 9.0769453 25
-7.2209368 -0.53191292 -0.031661335 3
-7.0513368 -9.7625818 -0.20005146 3
-6.8719788 -0.64737201 -0.13566032 2.5
-7.053164 -0.59697968 0.17684039 4
-6.9593773 6.8962383 4.3019676 16
-6.863574 6.9092832 4.6254711 16.5
-6.939786 7.0145574 9.3223057 26
-6.5049982 -9.9441242 -0.20703861 3
-6.4463329 7.190135 3.9539928 15
-6.4627309 6.98947 4.1819868 16
-6.7136698 6.940371 4.9584765 17.5
-6.6244936 7.1359096 9.2519846 26
-6.3162856 7.0189543 4.5702429 16.75
-6.1998439 7.0664988 4.9780002 18
-6.1110787 7.1735897 9.3705082 27
-6.364049 7.0012851 9.9099922 28
-5.7852607 -2.0821643 -0.2244873 2
-5.8547935 1.7351604 -0.08820188 3
-5.7233143 1.0534769 0.17970856 4.3333335
-5.7238073 1.3489707 0.18768369 4.3333335
-5.8177934 1.6580641 0.22430235 4.5
-5.7114997 1.0653919 0.42309582 5
-5.7231011 1.3172454 0.48332503 5.5
-5.7767549 1.6489192 0.54205167 6
-5.971282 7.3138213 8.9130192 26
-5.944787 7.168355 9.4640141 27
-5.7386003 7.3050551 9.3445311 27
-5.9139471 7.1332054 9.7180157 28
-5.7033095 7.2070627 9.6460285 28
-5.5018616 2.5793495 -0.25400636 2
-5.5003462 4.546597 -0.072034486 3
-5.3653607 7.2473969 4.2327981 16.5
-5.4166675 7.4635758 9.1345558 27
-5.3594594 7.3566828 9.382555 27.5
-5.5377831 6.8799038 9.8500233 28
-5.436976 7.2491107 9.7090454 28
-4.8332386 -2.9523876 -0.064373009 3
-5.1826763 7.2692404 4.2800598 17
-4.9192424 7.5267615 9.1540918 27
-4.9564381 7.3993597 9.4355822 28
-4.242579 -2.8655958 -0.060409274 3
-3.8127346 -0.66391003 -0.19428679 2
-3.8993559 -0.31032643 -0.1973305 2
-3.9030838 3.2082474 -0.21401989 2
-3.9546683 1.859687 0.016994884 3
-3.2804673 -5.0098696 -0.20205903 2
-3.4397795 -1.8013079 -0.19062415 2
-3.3330789 0.99303961 -0.18997785 2
-3.3497488 2.2676601 -0.1130168 2
-3.4064016 2.5152664 -0.082517408 2.5
-3.2388973 -2.1713593 0.15643172 4
-3.4706457 2.5092592 0.22773197 5
-3.0320981 9.7609549 2.5854323 11
-3.0480576 9.7553883 2.9674296 11.666667
-2.9175117 7.7736855 5.5357943 21
-2.5638258 -1.7997512 -0.17815888 2
-2.6673582 -1.3478925 -0.18373068 1
-2.6435695 -1.0267266 -0.18228307 1
-2.7852731 -2.0390968 0.29539126 6
-2.4149899 9.8594894 0.37952384 4
-2.511266 9.8559046 0.60400987 5
-2.6374004 9.8155651 0.98148894 6
-2.5901487 9.8430967 1.3898313 7.3333335
-2.4575558 9.8658133 1.721518 8
-2.558856 9.865757 2.145504 9
-2.7775936 7.8271055 5.2283144 20
-2.1931732 -6.9660058 -0.170276 3
-2.0268698 -4.4435425 -0.19122054 2
-2.066072 -3.466316 -0.14338845 2
-2.0866003 -2.8127763 -0.17650193 2
-2.292078 -2.6785371 -0.17601632 2
-2.1664417 -1.8610961 -0.09622021 2.3333333
-2.1074016 -0.405487 -0.17989632 1
-2.124403 -0.30571288 -0.18190812 1
-2.3167274 -3.5395784 0.061636627 4
-2.3755429 -2.6322377 0.14847907 4
-2.0925417 -1.8897245 0.098803818 4
-2.0501127 1.6860524 0.1897472 5.5
-2.1753497 9.9060831 0.37256247 4
-2.2906742 9.8789892 0.5065434 5
-2.1649845 9.9279308 0.99256581 6
-2.1742318 9.9299774 1.4140648 7.25
-2.1914911 9.9196568 1.6845609 8
-2.3130999 9.9173613 2.1545432 9
-2.0557611 9.9641657 2.6805856 11
-2.3103118 -30.071928 9.9831333 13
-2.0609293 -29.532122 10.77802 14
-2.1604474 -29.469297 10.923018 14
-1.6653395 -9.1023588 -0.0034515082 3
-1.8493751 -7.721159 -0.18767107 3
-1.7731564 -3.3939593 -0.13641664 2
-1.8050206 -1.3648711 -0.17201474 1
-1.9625956 -1.1780519 -0.17278847 1
-1.6238271 1.0839518 -0.17600334 1
-1.7084306 2.1020331 -0.028972957 3
-1.7952806 2.7309 -0.18894446 2
-1.9262686 3.4444036 -0.19641057 2
-1.7611115 3.7638502 -0.19487207 2
-1.9672487 4.8922887 -0.20781206 2
-1.9727573 1.6955123 0.19599952 5.5
-1.9073269 8.1193056 0.11345379 4
-1.7227128 10.007182 0.33614013 4
-1.8528144 9.9761248 0.49811712 5
-1.6664876 10.008527 0.54264903 5
-1.9302461 9.9844398 0.99960583 6
-1.8557928 9.9870892 1.4626176 7.5
-1.92749 9.9673624 1.6426047 8
-1.968857 9.9847574 2.3856001 10
-1.7808453 10.029691 2.2861331 10
-1.8271873 10.013681 2.6816247 11
-1.9809064 -29.499416 10.226007 13
-1.2468934 -3.0893798 -0.17550123 2
-1.57116 1.1614643 -0.17600127 1
-1.4974438 1.2228625 -0.17399791 1
-1.3779984 2.2836239 -0.10343609 2
-1.4175156 5.9512897 -0.082654044 3
-1.4737573 7.8025403 -0.10950724 3
-1.3756778 1.7821245 0.24394724 6.5714288
-1.3565108 8.1187115 5.1445389 20
-1.318035 8.1182241 5.4315448 21
-1.3101575 -29.772301 10.279989 13
-1.342409 -29.341856 10.74092 14
-0.86108196 -3.5448687 -0.17845391 2
-1.0168912 -3.1310153 -0.17601094 2
-0.89026904 -2.4668543 -0.16863194 1
-1.0425781 -2.3517725 -0.16864 1
-0.97065282 -1.6778584 -0.1697576 1
-1.0615976 -1.5624291 -0.16977064 1
-0.81442332 1.6717367 -0.16192125 1
-1.1307276 2.1769798 -0.099418588 2
-0.89427119 2.5824533 -0.11085768 2
-1.123063 1.8820964 0.21893553 6.3333335
-0.88996851 2.0670507 0.021601044 3.5
-0.87971473 -29.71945 9.7529373 13
-1.0614487 -29.294428 10.502885 14
-0.83166653 -29.30205 10.855864 14
-0.65323418 -3.3466997 -0.17450537 2
-0.6077919 1.8114997 -0.16338073 1
-0.76968384 2.6165311 -0.11383684 2
-0.61319667 2.921068 -0.16428597 2
-0.42045695 3.2099693 -0.17272767 2
-0.49088249 5.681994 -0.12752521 3
-0.65154719 4.4557981 1.0653403 10
-0.63716489 4.4130869 1.2768393 11.5
-0.62035578 -29.650314 10.2029 13
-0.20179035 -3.2715666 -0.16506448 2
-0.17457725 -2.5973423 -0.16368005 1
-0.35859624 1.5583462 -0.15986273 0
-0.1697669 1.7094797 -0.15571262 0.60000002
-0.080903672 2.4237342 -0.048731703 3
-0.24786128 3.0339108 -0.1707112 2
-0.19961759 6.768332 -0.20637701 2
-0.17723186 -29.534924 9.6468363 13
-0.17484166 -29.496649 10.930828 14
0.19220558 -8.3694372 -0.17875473 3
0.074732445 -2.9187255 -0.16932425 1.6666666
0.24717724 -2.5423419 -0.16999607 1
0.24294153 1.8853767 -0.1560386 1
0.039979734 2.3526797 -0.011462439 3
0.11506937 2.4046426 -0.066691637 2
0.29772916 1.9685105 0.24368934 6.75
0.094327927 2.2007735 0.15768664 5.5999999
0.3625254 2.4719477 0.063370608 4
0.37670261 1.8051606 0.49218217 11
0.062458817 -29.489122 10.121803 13
0.27080026 -29.444036 10.530771 14
0.068779819 -29.493847 10.880804 14
0.21324667 -29.433123 12.333776 15
0.58463317 -8.3577604 -0.17580374 3
0.4660449 -3.372381 -0.16863567 2
0.64295846 -3.0390713 -0.16672158 2
0.48127919 -2.3150051 -0.17082304 1
0.77473187 1.581808 -0.15326214 1
0.57100838 1.7821419 -0.15075417 1
0.66772503 3.0111907 -0.1585132 2
0.47824177 3.2808111 -0.16653615 2
0.69232947 5.9913988 0.011737295 3
0.53875428 8.1092482 0.0048849625 3
0.50744045 1.7971755 0.49679872 11
0.77447766 -29.358713 10.885704 14
0.4303031 -29.549978 11.950776 15
0.96196193 -8.2210054 -0.17087549 3
0.96456224 -3.5158832 -0.16669109 2
1.1421231 -2.9842744 -0.16682224 2
1.0871742 -2.164638 -0.16297208 1
0.98994839 -1.4665017 -0.16609845 1
1.1187223 -1.0380352 -0.16023995 0
0.91167426 1.4869891 -0.15292183 1
1.1712396 2.2275679 -0.13967997 2
0.97350305 5.9217019 0.019793602 3
1.0413089 8.6288414 7.0230341 24
0.92542005 -29.287054 10.472675 14
1.1295413 -29.191921 10.844637 14
1.087496 -29.244812 11.847651 15
1.303521 -2.9699337 -0.16685751 2
1.3480837 -2.5153062 -0.15945822 2
1.4242611 -2.2419901 -0.15703332 2
1.2712562 -1.6051942 -0.16213891 1
1.4250823 -1.3366686 -0.15958257 1
1.4871045 -0.072142377 -0.15869084 0
1.4867508 0.10175034 -0.16076462 0
1.4489777 0.67324907 -0.15301438 0.66666669
1.377954 0.92451757 -0.15061399 1
1.5965996 1.2174181 -0.15031964 1
1.5712608 1.9677368 -0.14367235 2
1.3837106 2.1683466 -0.14421345 2
1.4043649 3.002739 -0.024109622 3
1.4010745 4.5953884 -0.16271138 2
1.4725004 -8.6323738 0.24212423 4
1.4239453 2.9498465 0.081575744 4
1.5536001 8.7353182 5.9161558 21
1.4568733 8.7001486 6.054131 21
1.4896978 8.9204159 8.9431581 27
1.5765529 8.7825518 9.4701653 28
1.5089744 -29.147219 12.218585 15
1.9799402 -2.806469 -0.15804395 2
1.6371213 -1.0657765 -0.15363853 1
1.6331034 -0.63810873 -0.14752457 1
1.6165117 -0.24651919 -0.14766416 1
1.6130785 0.071120717 -0.15145925 1
1.8712645 1.5484186 -0.14655903 1
1.8846627 4.2855659 -0.15111133 2
1.738495 4.5252743 -0.15913205 2
1.8166184 8.7761831 5.5592194 20
1.7211587 8.7625446 5.8556967 20.5
1.6470765 8.6754045 6.0681715 21
1.6890798 8.9552202 9.0062046 27
1.7669213 8.8118095 9.4872103 28
1.7522575 -29.261192 11.878576 15
2.1446505 -2.4300034 -0.15817215 2
2.2669165 -2.2143016 -0.1542584 2
2.3498063 -1.8586323 -0.15537526 2
2.2851958 -1.3014504 -0.15151678 2
2.2201943 0.97647172 -0.14239368 2
2.2868073 1.7710927 -0.14328796 2
2.0270979 -9.1172733 0.022126077 3
2.2040694 3.3155406 0.19517431 5
2.1443202 3.6816359 0.027854897 3
2.1624799 6.5526528 0.0021245359 3
2.1765139 3.373544 0.48048875 7
2.1925652 9.0614786 9.1423283 27
2.251334 8.9059896 9.6268301 28
2.4484003 -14.000395 -0.0070921858 3
2.7855606 -3.5001757 -0.14708747 2
2.4053323 -1.6171999 -0.16145927 2
2.5789921 -0.6371932 -0.14533332 2
2.5688667 -0.27027142 -0.14496781 2
2.6933131 0.56933361 -0.14635873 2
2.5096364 1.6673129 -0.14380552 2
2.4103603 3.1967826 0.11250223 4
2.6462719 3.8465934 0.023128459 3
2.7128472 -15.279895 3.4380898 10
2.4074097 9.071991 9.3143797 27
3.1486557 -6.2434912 -0.13759764 3
2.9181473 -1.2963661 -0.15321629 2
3.1171479 -0.10736209 -0.15721214 2
3.1377215 -8.6417542 0.33285683 4
3.0761995 3.6090665 0.067111634 4
3.1446209 4.1046977 0.020859551 3
3.1785932 -8.7436094 0.57286805 5
3.0691898 -15.139963 3.4210143 10
2.9293728 -15.206052 3.6540465 10
3.1466351 -15.121606 3.8420002 11
3.0998974 -25.362772 9.6427555 14
2.8788769 -25.376616 10.028786 14
3.0209391 -25.392723 10.689771 15
3.3822293 -7.5612674 -0.16339037 3
3.3955276 -6.0123911 -0.13669564 3
3.5089216 -4.9248877 -0.13994811 3
3.2084715 -11.778958 0.065407671 3
3.2954524 -8.6174297 0.21332377 4
3.4919484 4.0929823 0.001761375 3
3.2787063 -15.111747 3.6629789 10
3.2513623 -25.305548 10.377726 15
3.5771067 -25.226637 10.645669 15
3.6336997 -9.3340979 -0.021105804 3
3.8859537 1.9868244 -0.10737482 3
3.7231116 2.1327024 -0.10739197 2
3.7879584 -25.132017 9.468626 14
3.6907036 -25.207697 9.6576519 14
3.8175585 -25.179079 10.36763 15
4.2063227 -5.3555942 -0.14102177 3
4.2400966 1.8648456 -0.10542912 3
4.1569343 2.955595 -0.1239066 3
4.2367125 -25.046646 9.0225515 13
4.0531645 8.9011421 8.9657726 26
4.3383002 -25.02072 9.4655313 14
4.0906372 8.7110615 9.3832684 26.5
4.2104583 8.7155581 9.9348011 27
4.3821263 -25.028345 10.356527 15
4.7375956 -4.8687234 -0.14226973 3
4.6452141 -4.3427849 -0.13537382 3
4.5940623 -3.8328815 -0.13148963 3
4.6756706 -3.5464299 -0.12258872 3
4.7887025 -2.5697749 -0.13090084 3
4.7177353 -2.2504172 -0.12997697 3
4.6967034 -1.0193734 -0.11688397 3
4.7710934 0.78694183 -0.11412218 3
4.6825027 1.0020736 -0.113186 3
4.4932251 1.7286813 -0.10344688 3
4.5672789 -13.883468 3.5250571 10
4.6174746 -13.855792 3.7232103 11
4.4765882 9.3423347 8.2409115 23
4.5353556 9.3539028 8.4659271 24
4.6090226 -24.964987 10.050484 15
4.6335011 -24.934475 14.526475 19
4.4021163 -24.978951 14.848516 19
5.1316843 -3.5372801 -0.12272356 3
4.8091154 -0.69317311 -0.11654022 3
5.0177574 -8.8381214 0.28252387 4
5.0242591 -13.582304 2.9344234 9
5.023242 -13.368222 3.5258842 10.5
5.0045285 -13.427445 3.6773989 11
4.8857064 -24.873192 9.4514294 14
5.1068048 10.272176 9.5374241 24
5.1578169 10.217428 9.9514341 25
5.0666561 -24.888414 10.222907 15
5.0408196 -24.761894 19.422386 23
4.811152 -24.786266 20.481424 24
5.4276047 -7.6601501 0.19218883 4
5.3017926 -24.781393 8.4853544 13
5.4233255 -24.740679 9.4513292 14
5.2528663 10.283016 9.5143738 24
5.4425478 10.509907 9.2242117 23
5.5282354 -24.851595 10.397332 15
5.2400579 -24.844852 10.584374 15
5.5427127 -24.697199 14.883304 19
5.5680423 -24.659607 19.452291 23
5.2957006 -24.720438 20.039341 23
5.3569541 -24.656525 20.473322 24
5.776597 -11.408304 0.38487214 4
5.7705588 -24.758507 10.121279 15
5.680541 -24.635288 14.027272 18
5.8046894 -24.623547 14.600251 19
5.6132708 -24.598068 20.308271 24
6.2780547 -7.9677329 0.12005305 4
6.2743688 10.230459 11.911584 27
6.5646677 -2.7492025 -0.11439607 3
6.4125819 -21.894794 4.1546788 9
6.4675398 10.369888 11.43896 26
6.6611419 10.402836 11.444885 26
6.9139314 -0.68212235 -0.10123195 3
7.5584416 -7.7434711 0.39967835 4
7.4243999 -24.160366 20.499414 24
7.7123876 -7.2081614 0.4175078 4
7.6302748 -24.054064 19.491861 23
7.6146226 -24.110483 20.341875 24
8.0588884 -9.2507458 0.07090158 3
8.1099434 -6.9157748 0.44932607 4
8.6729469 11.167119 5.8109174 15
8.5584097 11.021616 6.096519 16
9.0220575 -6.9271297 0.37307385 4
8.9297886 -13.039863 3.5335205 10
8.9062014 -13.138115 3.9335468 11
9.0758209 -13.07257 4.0194941 11
9.1081333 -12.794868 4.5844278 12
8.9379902 -12.516558 5.3154082 13
9.5027313 -13.225735 3.6364276 10
9.540576 -12.730519 4.6243129 12
9.6392422 -5.3254542 0.20644552 4
9.9900646 6.1629763 0.083823934 3
9.981164 -13.075301 3.2262828 9
9.7943316 -13.011818 3.6323137 10
9.8109722 -12.949755 4.1302958 11
10.708306 -7.3296337 0.24869817 4
10.767118 -5.6411338 1.5146971 7
10.779513 -5.5142365 1.3071555 6
10.92234 -5.7197771 0.86317331 5
10.848782 -5.9391232 1.391261 6.5
10.938361 13.944812 17.630949 27
11.544638 14.201226 16.939646 26
11.83006 -26.418644 16.103546 18
11.751078 14.201043 16.131582 25
11.655876 -26.551451 17.399601 19
11.83268 14.175866 17.260567 26
12.061761 -3.719465 0.022181433 3
12.314045 9.1992817 0.08471439 3
12.208896 -5.1622019 0.50660533 4
12.339903 -26.418615 11.88045 15
12.0171 14.089293 17.115551 26
12.055161 -26.404928 17.3965 19
12.277684 -26.339373 17.445444 19
12.727169 -26.267166 17.529345 19
13.17802 -3.3775282 0.44370699 4
13.022403 -26.15239 10.190266 13
12.897669 -26.275566 12.076311 15
13.034037 -26.166077 17.491762 19
13.435117 -4.9445138 1.5061508 6
13.428933 -5.1127615 1.7582074 7
13.595885 -5.2746906 2.2287076 8
13.428937 -26.088135 11.830172 15
13.269135 -26.153692 12.086214 15
13.578274 -25.991617 17.620121 19
13.364003 -25.887558 22.624146 23
13.505138 -25.507475 23.045044 23
13.600246 -5.2573495 2.0342007 7
13.626445 -4.9960237 2.2561078 8
13.869198 9.1785917 2.1082454 7
13.812647 9.2238579 2.5142419 8
13.924422 -25.963821 12.150046 15
13.951337 -25.683847 22.708988 23
14.348701 7.7524133 1.8557457 7
14.001825 8.934391 1.8973157 7
14.324491 7.7955313 2.2347341 7.5
14.065234 8.6915054 2.3484077 7
14.328339 7.8013768 2.5727303 8
14.019238 8.9141121 2.5403197 8
14.189599 -25.731464 12.080946 15
14.000487 -25.375937 23.576916 24
14.75232 7.0420904 0.27093977 4
14.436692 7.437583 2.5878608 8
14.426315 7.7357883 3.0037291 9
14.63975 -25.363363 10.914782 14
14.77933 -25.285994 12.052734 15
14.501334 -25.403917 22.740816 23
14.76798 -25.127548 23.198709 23
15.05427 -25.228174 12.135664 15
15.072315 -25.161112 22.811649 23
15.564468 5.576148 0.33433586 4
15.579039 4.7076039 0.76571161 5
15.495442 4.8399043 0.71568084 5
15.580203 5.3819246 0.74691617 5
15.51315 5.7069454 1.0572946 5
15.591148 4.5643682 1.2617702 6
15.393299 6.8564925 1.3288217 6
15.489254 6.8890805 2.129777 7
15.595503 6.8541417 2.5207589 8
15.334953 -25.160091 12.10359 15
15.670712 5.1308932 0.77849752 5
15.699267 5.3703237 1.2973835 6
15.726445 5.7746215 1.313197 6
15.610145 6.7454891 2.7878029 8
15.661784 6.6788812 3.100816 9
15.689531 -24.981884 12.191478 15
16.668932 -3.4557626 0.53560835 4
17.405178 -2.7530127 0.533117 4
17.968513 -22.389566 10.643408 14
17.993078 -22.469803 11.938419 15
18.158579 7.6038413 0.32561475 4
18.229805 -22.318241 11.760329 15
18.379177 -22.190451 14.159264 17
18.718626 13.879016 9.283597 15
18.473467 13.970699 9.6596289 15
18.57902 13.7665 10.675693 16
18.632271 13.597325 11.420753 17
19.076912 -21.677845 7.4009752 11
18.849829 -21.648031 8.2240248 12
19.29472 -21.396173 6.3748555 10
19.463015 -21.546495 7.4163485 11
19.580765 -21.423092 8.2857914 12
19.220562 -21.688133 9.101943 12
19.698137 -21.378559 7.4727502 11
20.35087 -2.1096914 0.3499203 4
21.810284 -20.767258 13.66506 16
21.867559 -20.866518 14.688067 17
21.854347 -20.759075 28.921047 26
22.028955 -21.102697 11.223083 14
22.383509 -20.742191 12.365901 15
22.133028 -20.958355 12.683019 15
22.176352 -20.581358 28.893917 26
22.430637 -20.39003 29.062803 26
24.980354 -20.588387 13.490155 15
25.065083 -20.588816 14.592134 16
24.911787 -20.631935 15.613187 17
25.471231 -19.156185 5.9926476 9
25.400002 -18.836124 6.8595824 10
25.530924 -19.573835 7.8987412 10
25.392757 -18.541712 7.7035065 10
25.532476 -19.379086 8.1976881 11
25.545544 -18.472958 8.0674448 11
25.303431 -18.638857 8.7135582 11
25.298164 -18.6217 9.6155548 12
25.266851 -18.572325 10.490552 13
25.274954 -18.565729 11.421548 14
25.399727 -18.56144 12.674511 15
25.522743 -20.544773 13.227996 15
25.368834 -19.018396 13.226641 15
25.311893 -18.709938 13.757576 16
25.282993 -20.515779 14.127054 16
25.291893 -18.779236 14.093599 16
25.674419 -19.92824 7.0657921 10
25.633226 -19.873976 9.0257902 11
25.622494 -19.805624 9.9407768 12
26.680927 -18.237064 6.0360551 9
26.473852 -18.383192 7.8841553 10
26.678362 -18.367785 8.2930918 11
26.874323 -18.146288 6.9919748 10
26.866373 -18.270334 8.6180124 11
27.133636 -18.059431 9.9168768 12
27.185127 -17.936646 16.653826 17
27.403938 -18.085276 8.0168066 10
27.554474 -18.045786 8.4377489 11
27.574654 -17.844397 15.680689 17
27.601229 -17.95159 6.1237092 9
27.783489 -17.893515 7.1066403 10
27.72963 -17.956863 8.7846756 11
27.897808 -17.735994 9.0645628 11
27.932642 -17.832787 11.988583 14
27.662355 -17.908936 13.76268 15
27.845322 -17.808455 14.6056 16
28.744753 -18.004618 8.2653894 10
28.932604 -17.894495 6.3023028 9
29.159492 -17.887045 7.3322339 10
28.88229 -17.967619 8.718339 11
28.869736 -17.295382 14.540153 15
29.399843 -17.782858 9.4691353 11
29.362644 -17.729393 11.358132 13
29.227785 -17.774004 12.347182 14
29.989599 -17.602062 6.4119067 9
29.912878 -17.766232 8.4629784 10
29.716934 -17.682096 9.4560127 11
29.647825 -17.776546 10.454061 12
30.139816 -17.582561 7.4548569 10
30.311243 -17.424557 9.6807613 11
30.214285 -17.131693 17.657707 17
30.721533 -17.268703 8.5595932 10
30.773346 -17.035816 14.71051 15
30.780079 -16.975468 16.67149 17
30.80402 -17.057556 7.4915066 10
30.83028 -17.243929 9.0665531 11
30.937042 -17.155636 9.4844971 11
30.855499 -16.986498 12.656471 14
30.878078 -16.941381 15.725452 16
31.028696 19.590652 21.871178 19
31.071426 19.569592 22.973175 20
31.085085 19.413879 23.955244 21
31.564863 18.341904 15.226577 15
31.322346 19.211882 15.323258 15
31.483332 18.446857 15.947555 16
31.486551 18.804647 15.715392 15
31.254364 19.306253 16.031235 16
31.436558 18.828192 16.866396 16
31.52342 18.362024 17.200583 17
31.387384 18.011871 17.86178 17
31.203056 18.808601 17.995478 17
31.36377 -16.859272 18.063284 17
31.251474 19.265394 21.085258 19
31.330618 18.759682 21.770462 19
31.468826 18.580809 22.483503 20
31.205929 19.416548 22.624203 20
31.310886 18.722826 22.850485 20
31.525333 17.991373 23.880751 21
31.323751 18.811691 24.047438 21
31.951162 17.039562 10.812045 12
31.987165 17.068539 14.36102 15
31.785233 17.961796 14.472681 15
31.988707 16.596649 15.040234 15
31.749775 17.452072 15.113922 15
31.940712 16.754662 15.813178 16
31.716251 17.600523 15.872867 16
31.713676 17.655216 16.563841 16
31.67452 18.022602 16.764688 16
31.957098 16.719376 17.14419 17
31.755674 17.547018 17.175879 17
31.753283 17.523827 20.791891 19
31.810186 17.070543 21.521078 19
31.984621 16.22481 22.547403 20
31.746273 17.033831 22.625114 20
31.690775 16.397921 33.006413 26
32.227516 16.123426 9.203371 11
32.070713 16.504341 9.802249 11
32.257454 16.037098 10.349401 12
32.043129 16.868374 10.361094 12
32.262798 16.365015 10.550252 12
32.237976 16.250042 11.560311 13
32.013378 17.026276 11.629033 13
32.137482 -16.832298 15.17804 15
32.167553 16.282734 15.418319 15
32.173759 -16.731552 16.244999 16
32.114761 16.420431 16.568275 16
32.009182 -16.688583 17.084038 17
32.077713 16.703382 20.719158 19
32.618256 -16.464153 14.608784 15
32.410316 -16.538054 15.807869 16
32.51387 -16.416553 16.004799 16
