# .PCD v0.7 - Point Cloud Data file format
VERSION 0.7
FIELDS x y z intensity
SIZE 4 4 4 4
TYPE F F F F
COUNT 1 1 1 1
WIDTH 1316
HEIGHT 1
VIEWPOINT 0 0 0 1 0 0 0
POINTS 1316
DATA ascii
-0.73699999 -5.4089999 -0.30500001 0
-0.73064989 -5.3485832 -0.30363926 0
-0.72155702 -5.2620711 -0.30169079 0
-2.4475086 -4.37079 -0.30806473 0
-2.4062543 -4.2913947 -0.32003236 0
-2.365 -4.2119999 -0.33199999 0
-2.825495 -6.5570269 -0.28844979 0
-2.7729802 -6.4341078 -0.26579919 0
-2.7379704 -6.3521614 -0.25069878 0
-2.7029605 -6.2702155 -0.23559837 0
-2.6504457 -6.147296 -0.21294776 0
-0.71246421 -5.1755595 -0.29974234 0
-0.33899999 -5.1160002 -0.29100001 0
-2.7832713 -5.0169754 -0.21066183 0
-0.70337135 -5.0890474 -0.29779387 0
-0.69427854 -5.0025358 -0.29584539 0
-0.33790612 -5.0584345 -0.28922248 0
-2.7362885 -4.9265552 -0.22429129 0
-0.68518567 -4.9160237 -0.29389691 0
-0.33560407 -4.9372902 -0.28548163 0
-0.213 -4.9310002 -0.28200001 0
-2.6950343 -4.8471603 -0.23625892 0
-0.67609286 -4.8295121 -0.29194847 0
-0.33406937 -4.8565269 -0.28298774 0
-0.2053172 -4.8735328 -0.28046346 0
-0.1966586 -4.8087664 -0.27873173 0
-2.65378 -4.767765 -0.24822655 0
-0.667 -4.743 -0.28999999 0
-0.3325347 -4.7757635 -0.28049389 0
-0.18799999 -4.744 -0.27700001 0
-0.023 -4.7399998 -0.264 0
-2.6125257 -4.6883702 -0.26019418 0
-2.5712714 -4.6089749 -0.27216181 0
-0.331 -4.6950002 -0.278 0
-0.13171962 -4.657424 -0.26676911 0
-0.045684054 -4.6404276 -0.2628589 0
-2.5300171 -4.5295801 -0.28412947 0
-0.12869938 -4.5650396 -0.26428184 0
-0.064646192 -4.5353141 -0.26166794 0
-2.4887629 -4.4501848 -0.2960971 0
-0.1259595 -4.4812317 -0.26202548 0
-0.049499072 -4.4368219 -0.25855806 0
-0.12184969 -4.3555198 -0.25864089 0
-0.046459287 -4.3586617 -0.25664335 0
0.09465187 -4.3409638 -0.2487753 0
-0.11773988 -4.2298079 -0.25525635 0
-0.020459287 -4.2716618 -0.25214335 0
0.081825934 -4.245482 -0.24663766 0
0.19409376 -4.2576532 -0.24257809 0
0.28999999 -4.2550001 -0.23999999 0
-0.115 -4.1459999 -0.25299999 0
-0.02 -4.1869998 -0.25 0
0.1944896 -4.1464229 -0.2407968 0
0.28893757 -4.1533628 -0.23787518 0
0.47836977 -4.1604142 -0.23276711 0
0.56999999 -4.1220002 -0.229 0
0.19479167 -4.0615382 -0.23943745 0
0.28777504 -4.0421453 -0.23555008 0
0.46932408 -4.0517364 -0.23147486 0
0.56588614 -4.0810442 -0.22836007 0
0.19509377 -3.9766536 -0.23807809 0
0.287 -3.9679999 -0.234 0
0.46190858 -3.9626443 -0.23041551 0
0.55362022 -3.958931 -0.22645205 0
0.73317045 -3.9443398 -0.21879876 0
0.19554688 -3.8493266 -0.23603904 0
0.45449305 -3.8735523 -0.22935615 0
0.54135442 -3.8368177 -0.22454403 0
0.71587276 -3.8309438 -0.21807803 0
0.83499998 -3.8269999 -0.22400001 0
0.98793137 -3.8244629 -0.2108597 0
0.19599999 -3.7219999 -0.234 0
0.44707754 -3.7844603 -0.22829679 0
0.5331772 -3.7554088 -0.22327201 0
0.70340455 -3.7492077 -0.21755852 0
0.82371926 -3.774931 -0.22322203 0
0.96431088 -3.7226505 -0.2100452 0
0.43595427 -3.6508222 -0.22670776 0
0.52499998 -3.674 -0.222 0
0.69093639 -3.6674719 -0.21703902 0
0.80454737 -3.6864378 -0.22189982 0
0.94475907 -3.6383753 -0.209371 0
0.42483103 -3.517184 -0.22511873 0
0.67223406 -3.544868 -0.21625975 0
0.7757895 -3.5536981 -0.21991652 0
0.92520726 -3.5541003 -0.2086968 0
0.4174155 -3.428092 -0.22405936 0
0.74703157 -3.4209585 -0.21793321 0
0.90565544 -3.4698253 -0.20802259 0
0.41 -3.339 -0.223 0
0.72785962 -3.3324654 -0.21661101 0
0.87632775 -3.3434126 -0.20701131 0
0.70868772 -3.2439723 -0.2152888 0
0.847 -3.217 -0.206 0
-2.6469002 -3.1725483 -0.20085031 0
-2.5907502 -3.102457 -0.21104193 0
0.68951583 -3.1554794 -0.21396661 0
-2.5346 -3.0323656 -0.22123355 0
-2.4590316 -3.0587816 -0.20999989 0
0.67034388 -3.0669863 -0.2126444 0
-2.4784501 -2.9622743 -0.23142515 0
-2.3745897 -2.9590182 -0.23228565 0
0.65117198 -2.9784932 -0.2113222 0
-2.4223001 -2.8921828 -0.24161677 0
-2.3422222 -2.8573003 -0.2494756 0
-2.2620001 -2.826 -0.26199999 0
0.63200003 -2.8900001 -0.20999999 0
-2.3099999 -2.7520001 -0.26199999 0
-3.352 -2.6070001 -0.215 0
-3.4070001 -2.5209999 -0.21799999 0
-3.3294466 -2.5895615 -0.21671641 0
-3.2589524 -2.5350547 -0.22208124 0
-3.3492818 -2.4787493 -0.22158194 0
-3.2769172 -2.4257772 -0.22607283 0
-3.1532114 -2.4532943 -0.23012851 0
-3.2045527 -2.3728051 -0.23056373 0
-3.1321878 -2.3198328 -0.23505463 0
-3.0474703 -2.3715341 -0.23817578 0
-2.9769762 -2.3170273 -0.24354061 0
-1.5765804 -2.3515809 -0.2560527 0
-3.0598233 -2.2668607 -0.23954552 0
-2.9469705 -2.2382045 -0.24647094 0
-2.835988 -2.2080135 -0.25427032 0
-2.9150939 -2.1609166 -0.2485273 0
-2.8427293 -2.1079443 -0.2530182 0
-2.7654941 -2.1535068 -0.25963515 0
-2.7703645 -2.0549722 -0.25750911 0
-2.6964998 -2.0504999 -0.26349998 0
-2.562 -1.809 -0.24600001 0
-2.4606018 -1.7401986 -0.2443826 0
-2.3479278 -1.6637461 -0.24258536 0
-2.2728119 -1.6127778 -0.24138719 0
-3.648 -1.541 -0.20100001 0
-3.5891101 -1.5169058 -0.20401999 0
-2.1601377 -1.5363255 -0.23958993 0
-3.5052991 -1.4826152 -0.208318 0
-3.421488 -1.4483246 -0.212616 0
-3.337677 -1.414034 -0.216914 0
-2.0474639 -1.4598731 -0.23779267 0
-1.972348 -1.4089048 -0.2365945 0
-3.2538662 -1.3797435 -0.221212 0
-3.1700552 -1.3454529 -0.22551 0
-3.0862441 -1.3111624 -0.22980799 0
-1.859674 -1.3324525 -0.23479725 0
-3.0024331 -1.2768717 -0.23410599 0
-2.918622 -1.2425811 -0.23840399 0
-2.834811 -1.2082906 -0.24270199 0
-1.747 -1.256 -0.233 0
-2.7509999 -1.174 -0.24699999 0
-2.7095954 -1.0074849 -0.24097846 0
-2.6587806 -1.0621432 -0.24038413 0
-2.5391052 -1.0150578 -0.23829146 0
-2.71 -0.93699998 -0.23999999 0
-2.6325688 -0.94476825 -0.23923917 0
-2.5391526 -0.94497585 -0.23836555 0
-2.4546413 -0.94790399 -0.23694223 0
-2.370193 -0.94860047 -0.23533779 0
-2.2857368 -0.91537184 -0.23386097 0
-2.555619 -0.88420731 -0.23733538 0
-2.4697723 -0.85485095 -0.23585367 0
-2.3770204 -0.85423827 -0.23507306 0
-2.2293174 -0.85170531 -0.23334844 0
-2.1168246 -0.84891456 -0.23090731 0
-2.0323684 -0.81568593 -0.22943048 0
-2.255156 -0.78146005 -0.23214941 0
-2.1214716 -0.76370823 -0.23090696 0
-2.036289 -0.73353153 -0.22951826 0
-1.9477158 -0.75522715 -0.22862467 0
-1.8634561 -0.74922866 -0.22647682 0
-1.779 -0.71600002 -0.22499999 0
-2.727 -0.66299999 -0.23999999 0
-2.6655209 -0.64798915 -0.2388905 0
-2.5774689 -0.62649024 -0.23730145 0
-2.4894166 -0.60499132 -0.23571241 0
-1.9546931 -0.67871273 -0.22696343 0
-1.8659233 -0.6731782 -0.22674087 0
-1.783 -0.62 -0.22400001 0
-2.7119999 -0.59200001 -0.23800001 0
-2.6466103 -0.57740176 -0.23782724 0
-2.560159 -0.55810153 -0.23759884 0
-2.4375362 -0.56114686 -0.23574689 0
-2.3337915 -0.52723181 -0.23552997 0
-2.2252605 -0.54049456 -0.23094526 0
-2.1372085 -0.5189957 -0.2293562 0
-2.2143538 -0.48090068 -0.23668522 0
-2.1279025 -0.46160045 -0.23645681 0
-2.0453038 -0.46989849 -0.23199779 0
-1.9580522 -0.44949892 -0.23108906 0
-1.8730521 -0.45449892 -0.22458905 0
-1.785 -0.433 -0.223 0
-5.0477328 -0.27675971 -0.26799351 0
-4.9535251 -0.27246171 -0.26787734 0
-4.8645844 -0.26840398 -0.26776767 0
-4.7756438 -0.26434627 -0.267658 0
-4.6867032 -0.26028857 -0.26754835 0
-4.5532923 -0.25420198 -0.26738384 0
-4.4198813 -0.24811542 -0.26721933 0
-4.3309407 -0.24405771 -0.26710966 0
-4.2420001 -0.23999999 -0.26699999 0
-4.4142556 0.3611733 -0.20425102 0
-4.3246279 0.35708663 -0.21762551 0
-4.2350001 0.35299999 -0.23100001 0
-1.9740894 0.3914336 -0.21277195 0
-1.8853929 0.37528908 -0.2121813 0
-1.7523482 0.35107225 -0.21129532 0
-2.5062683 0.4883008 -0.21631588 0
-2.4175718 0.47215629 -0.21572523 0
-2.3288753 0.45601174 -0.21513458 0
-2.2401788 0.4398672 -0.21454391 0
-2.1514823 0.42372268 -0.21395326 0
-2.0627859 0.40757814 -0.2133626 0
-2.609 0.50700003 -0.21699999 0
-2.5949647 0.50444531 -0.21690653 0
-2.2413435 0.59086227 -0.2057513 0
-2.1500001 0.565 -0.20299999 0
-4.2663283 0.65788215 -0.23972329 0
-4.1644926 0.65307325 -0.24283494 0
-4.0472465 0.64753664 -0.24641746 0
-3.9300001 0.64200002 -0.25 0
-2.316 0.61199999 -0.208 0
-2.2390337 0.66744214 -0.20507552 0
-2.1476836 0.63872105 -0.20203777 0
-2.2509999 0.70999998 -0.206 0
-2.1422639 0.78941154 -0.20064704 0
-2.418 -6.3909998 -0.169 0
-2.3928733 -6.3144865 -0.15936498 0
-2.3677468 -6.2379732 -0.14972995 0
-2.3426201 -6.1614599 -0.14009494 0
-2.5979309 -6.0243769 -0.19029716 0
-2.3174934 -6.0849462 -0.1304599 0
-2.292367 -6.0084329 -0.12082489 0
-2.5629213 -5.9424305 -0.17519675 0
-2.2850001 -5.9860001 -0.118 0
-2.5279114 -5.8604846 -0.16009635 0
-2.4859509 -5.762269 -0.14199796 0
-2.8410001 -3.8610001 -0.155 0
-2.7701471 -3.7561917 -0.14028612 0
-2.6992941 -3.6513836 -0.12557223 0
-2.6284409 -3.5465755 -0.11085834 0
1.461 -3.5469999 -0.19599999 0
-2.88275 -3.4669569 -0.15804192 0
1.1431397 -3.4569092 -0.1324206 0
1.327 -3.425 -0.14399999 0
1.4215266 -3.4455681 -0.19537541 0
1.5917685 -3.4069512 -0.19081323 0
1.6059999 -3.4389999 -0.191 0
-2.8153503 -3.3828225 -0.17027548 0
-2.7395194 -3.356601 -0.15253656 0
1.1200662 -3.3740153 -0.14370102 0
1.3405423 -3.3472385 -0.17126408 0
1.5550916 -3.3243561 -0.19033191 0
1.6640716 -3.3606887 -0.18985453 0
-2.7352703 -3.2451532 -0.14469093 0
-2.6560633 -3.2915635 -0.15799977 0
-2.5997686 -3.2250545 -0.17285694 0
1.0867462 -3.2543106 -0.1599907 0
1.2634945 -3.2523098 -0.15736955 0
1.3401952 -3.2365775 -0.19408853 0
1.5184147 -3.241761 -0.18985058 0
1.613529 -3.2534394 -0.18923816 0
-2.6895223 -3.157639 -0.1028282 0
-2.543474 -3.1585453 -0.18771413 0
1.0534264 -3.1346061 -0.17628041 0
1.2186325 -3.1303163 -0.16681422 0
1.3076627 -3.1529813 -0.19357377 0
1.481738 -3.1591659 -0.18936926 0
1.5749147 -3.1715016 -0.18876725 0
1.687 -3.155 -0.182 0
2.5625615 -3.1494203 -0.10594603 0
1.0312132 -3.0548029 -0.1871402 0
1.1887243 -3.0489872 -0.17311066 0
1.2751302 -3.0693851 -0.19305901 0
1.4713736 -3.0420985 -0.1883567 0
1.5363003 -3.0895641 -0.18829635 0
1.6268773 -3.0439715 -0.181291 0
2.4598451 -3.0397599 -0.1212917 0
2.5380859 -3.069612 -0.115241 0
1.0089999 -2.9749999 -0.198 0
1.1588162 -2.967658 -0.17940712 0
1.2263312 -2.9439907 -0.19228688 0
1.3717074 -2.9113805 -0.18792529 0
1.433728 -2.9598322 -0.18788058 0
1.5626637 -2.9253883 -0.18053377 0
1.6737102 -2.9607625 -0.17789727 0
2.3664412 -2.9529769 -0.13506337 0
2.4260573 -2.9370747 -0.13216066 0
2.5154266 -2.9031515 -0.11045188 0
4.437851 -2.9528737 -0.1241179 0
1.099 -2.8050001 -0.192 0
1.1532203 -2.8524628 -0.18860915 0
1.3350306 -2.8287854 -0.18744397 0
1.4204574 -2.843751 -0.18688363 0
1.5198545 -2.8463328 -0.18002895 0
1.6091179 -2.8485844 -0.17757022 0
2.2567208 -2.8129885 -0.15503168 0
2.34238 -2.8457932 -0.13909985 0
2.4439127 -2.8657646 -0.11488766 0
4.2837687 -2.8494701 -0.12707227 0
4.3577356 -2.8991086 -0.12565404 0
1.145 -2.7349999 -0.191 0
1.2983537 -2.7461903 -0.18696265 0
1.381843 -2.7618132 -0.18641272 0
1.4770455 -2.7672775 -0.17952412 0
1.5648153 -2.7716439 -0.1773459 0
1.725 -2.7409999 -0.17399999 0
2.2299373 -2.7406316 -0.16127799 0
2.3340106 -2.7373726 -0.13823453 0
2.4040561 -2.778291 -0.13147113 0
4.0618677 -2.7005544 -0.13132702 0
4.1358347 -2.7501929 -0.12990877 0
4.2098017 -2.7998316 -0.12849052 0
1.2616769 -2.6635952 -0.18648133 0
1.3673279 -2.6445208 -0.18222815 0
1.4552233 -2.6529922 -0.17795828 0
1.5205127 -2.6947031 -0.17712158 0
1.6618538 -2.6428673 -0.17365867 0
2.1470001 -2.6730001 -0.175 0
2.2428341 -2.6613288 -0.15649466 0
3.9509172 -2.6260967 -0.13345438 0
1.2455001 -2.5485001 -0.1855 0
1.3266163 -2.5640244 -0.18174028 0
1.4319077 -2.5408218 -0.17667295 0
1.5910413 -2.5328209 -0.1732759 0
2.1570001 -2.5610001 -0.17299999 0
2.237 -2.5910001 -0.163 0
2.4546876 -2.5327644 -0.12014474 0
3.766 -2.5020001 -0.13699999 0
3.839967 -2.5516386 -0.13558175 0
1.3467071 -2.4574685 -0.17697673 0
1.5438331 -2.4594567 -0.17302072 0
1.7159582 -2.4603925 -0.16704014 0
2.3635359 -2.4390082 -0.14236842 0
1.281 -2.3410001 -0.17649999 0
1.3433026 -2.3869405 -0.17622432 0
1.4730207 -2.3494105 -0.17263794 0
1.6555184 -2.3377798 -0.16730116 0
1.7309999 -2.362 -0.16599999 0
2.2420001 -2.3139999 -0.17200001 0
2.302768 -2.3765039 -0.15718421 0
1.4022083 -2.2393641 -0.17225519 0
1.5649582 -2.2508924 -0.16854015 0
1.6395444 -2.2417297 -0.16662641 0
1.7488413 -2.2721014 -0.16504084 0
2.2509999 -2.217 -0.17 0
1.355 -2.1659999 -0.17200001 0
1.4669861 -2.114964 -0.16951339 0
1.5482174 -2.1561966 -0.16776991 0
1.6681798 -2.1637897 -0.16656634 0
2.1657004 -2.1334038 -0.16829644 0
2.247 -2.112 -0.168 0
1.453568 -2.0454662 -0.16882831 0
1.5896766 -2.0583768 -0.16805103 0
2.0684843 -2.0381296 -0.16635489 0
2.1576819 -2.0284357 -0.16629994 0
2.2329717 -2.0341046 -0.1663816 0
1.462003 -1.9479131 -0.16901532 0
1.5373414 -1.9881014 -0.16904083 0
1.9388633 -1.9110972 -0.16376618 0
2.0403812 -1.9487801 -0.16463125 0
2.1669855 -1.9403926 -0.16351566 0
2.2679999 -1.9400001 -0.16599999 0
1.2798365 -1.8164639 -0.17577946 0
1.302 -1.848 -0.176 0
1.4326706 -1.8475507 -0.1710204 0
1.8740528 -1.8475809 -0.16247182 0
1.9597878 -1.8432906 -0.1625333 0
2.0384181 -1.8208518 -0.15936832 0
2.1230984 -1.8574151 -0.16251671 0
2.2119319 -1.892359 -0.16491535 0
1.2351274 -1.7528479 -0.1753346 0
1.3310974 -1.7451761 -0.17357567 0
1.7444316 -1.7205486 -0.15988308 0
1.8436413 -1.7618335 -0.1608258 0
1.9419928 -1.7311963 -0.15625784 0
2.0602264 -1.735321 -0.15840369 0
2.408 -1.719 -0.134 0
1.1680636 -1.657424 -0.1746673 0
1.2472248 -1.6556505 -0.1735879 0
1.3295437 -1.6541497 -0.17229451 0
1.6796211 -1.6570324 -0.15858872 0
1.761894 -1.6581453 -0.15876664 0
1.8576574 -1.6215724 -0.15572152 0
1.9381845 -1.659755 -0.15961963 0
2.0594282 -1.6539726 -0.15140295 0
2.2962286 -1.6375666 -0.13632253 0
2.3693652 -1.6908517 -0.1348028 0
1.1417999 -1.5404707 -0.17298579 0
1.2626089 -1.5450259 -0.17105091 0
1.3475 -1.5350001 -0.16949999 0
1.55 -1.53 -0.156 0
1.6469015 -1.5748872 -0.15702033 0
1.7491418 -1.5518851 -0.15003684 0
1.840853 -1.5395216 -0.15471032 0
1.9513483 -1.5559223 -0.15129189 0
2.0456395 -1.5414435 -0.14879392 0
2.1499555 -1.5309961 -0.13936196 0
2.2230921 -1.5842813 -0.13784225 0
2.378 -1.536 -0.12899999 0
1.1617481 -1.4556904 -0.17074737 0
1.2387929 -1.4217917 -0.16893721 0
1.3367189 -1.4395529 -0.16811292 0
1.564 -1.473 -0.155 0
1.6644368 -1.427151 -0.15432392 0
1.7395358 -1.4562986 -0.15418614 0
1.84026 -1.4563308 -0.15118946 0
1.935807 -1.4355018 -0.14894089 0
2.0402508 -1.4510684 -0.14164156 0
2.2411554 -1.445452 -0.13234673 0
2.3525472 -1.4521022 -0.13089648 0
2.4545174 -1.4649876 -0.13319582 0
1.1495 -1.373 -0.16949999 0
1.2524704 -1.3275276 -0.16721103 0
1.3682362 -1.3620452 -0.166603 0
1.596 -1.369 -0.153 0
1.6585798 -1.3351231 -0.15223892 0
1.7588198 -1.3375552 -0.15039694 0
1.8454738 -1.3389283 -0.14753404 0
1.930546 -1.3711407 -0.14392112 0
2.0913665 -1.346339 -0.13601005 0
2.1722882 -1.3462502 -0.13692641 0
2.251972 -1.34878 -0.13402791 0
2.3484337 -1.3521776 -0.1305199 0
2.4362547 -1.3548203 -0.13059698 0
1.1763334 -1.2473334 -0.16666667 0
1.2679865 -1.2514818 -0.16568033 0
1.3572342 -1.247696 -0.16541851 0
1.401 -1.228 -0.16500001 0
1.6477264 -1.2431113 -0.15084746 0
1.7327735 -1.2447852 -0.1474815 0
1.9415777 -1.247226 -0.13967337 0
2.0482519 -1.2685609 -0.14030975 0
2.1423054 -1.2554303 -0.13404587 0
2.2486556 -1.2362597 -0.13150981 0
2.3586833 -1.2524033 -0.12907727 0
2.4465721 -1.2633623 -0.12853566 0
1.191 -1.148 -0.164 0
1.2414151 -1.1412191 -0.16416505 0
1.3532909 -1.144001 -0.1631479 0
1.409 -1.1210001 -0.162 0
1.5684888 -1.1397753 -0.15048937 0
1.6377933 -1.1747651 -0.14949363 0
1.7538943 -1.1390564 -0.14366834 0
1.8732605 -1.1487184 -0.14061318 0
1.9531095 -1.1694692 -0.13824654 0
2.0584636 -1.1503751 -0.13605252 0
2.1516976 -1.1650546 -0.13324457 0
2.2546678 -1.1257854 -0.1301111 0
2.3578238 -1.1454144 -0.12702736 0
2.456517 -1.1526047 -0.12700121 0
1.2404373 -1.0356737 -0.16196752 0
1.3544875 -1.0777273 -0.16143802 0
1.4648422 -1.0621426 -0.15274256 0
1.5867717 -1.0420605 -0.14748541 0
1.6513315 -1.0362681 -0.14664562 0
1.7440909 -1.0409915 -0.14318025 0
1.854627 -1.0605757 -0.14080887 0
1.958792 -1.0539659 -0.13789435 0
2.0427892 -1.0426813 -0.13512431 0
2.1475997 -1.0554024 -0.1324902 0
2.2435877 -1.050867 -0.12936738 0
2.358474 -1.0412242 -0.125653 0
2.4549656 -1.0622033 -0.12601276 0
1.2535489 -0.9498775 -0.15824893 0
1.3611956 -0.98451006 -0.15499575 0
1.4656183 -0.92885631 -0.15313198 0
1.5493063 -0.95825982 -0.14901422 0
1.6475465 -0.94197083 -0.14579219 0
1.7352248 -0.93879616 -0.1421454 0
1.8569876 -0.96099979 -0.13934025 0
1.9553461 -0.92606765 -0.13479984 0
2.0542145 -0.94511718 -0.1336939 0
2.1454325 -0.95649832 -0.13203642 0
2.2506127 -0.94970608 -0.12640844 0
2.345253 -0.96716183 -0.12404212 0
2.4619999 -0.912 -0.122 0
1.2285 -0.84149998 -0.1575 0
1.3478284 -0.84966248 -0.1527916 0
1.4461349 -0.84537667 -0.15298885 0
1.5274937 -0.86815429 -0.14842477 0
1.6417539 -0.83327723 -0.14375591 0
1.7462667 -0.85562259 -0.14041503 0
1.8462127 -0.84299111 -0.13655652 0
1.9464817 -0.8406924 -0.13370988 0
2.0318091 -0.85821742 -0.13105601 0
2.1330247 -0.83801723 -0.12643829 0
2.2154939 -0.8545503 -0.12525555 0
2.3430154 -0.85413021 -0.12208249 0
2.4549999 -0.84600002 -0.121 0
1.2544556 -0.73423779 -0.15227088 0
1.4496051 -0.75374317 -0.15279886 0
1.5704985 -0.74155384 -0.14500877 0
1.6519936 -0.74444002 -0.14055783 0
1.7487762 -0.75466216 -0.13731346 0
1.8586712 -0.75063634 -0.13348961 0
1.9661394 -0.75888586 -0.13028888 0
2.0524144 -0.7456243 -0.12783182 0
2.1486363 -0.75029314 -0.125085 0
2.238538 -0.76506299 -0.12238351 0
2.3381321 -0.75283879 -0.1205365 0
2.431 -0.71600002 -0.119 0
1.388 -0.64099997 -0.15000001 0
1.4378211 -0.65333867 -0.15015996 0
1.5473511 -0.64388281 -0.14223064 0
1.6356001 -0.63599998 -0.13700001 0
1.742329 -0.64872158 -0.13435523 0
1.8529567 -0.65963113 -0.1311138 0
1.9585282 -0.66962475 -0.12831201 0
2.0378439 -0.62657493 -0.1251073 0
2.1417587 -0.64092249 -0.12202199 0
2.2599177 -0.65474015 -0.11850468 0
2.3075984 -0.68759358 -0.11927103 0
1.3789999 -0.53900003 -0.148 0
1.4438676 -0.54469842 -0.14449982 0
1.544347 -0.53991032 -0.13933915 0
1.6417843 -0.54234755 -0.13476147 0
1.7529331 -0.55087817 -0.13178632 0
1.8693722 -0.54283386 -0.12837115 0
1.9541627 -0.56755632 -0.12638374 0
2.0504761 -0.52470917 -0.12386769 0
2.1483824 -0.54727304 -0.12048315 0
2.2772059 -0.54339701 -0.11701228 0
2.3594573 -0.54969978 -0.11776111 0
2.402 -0.56 -0.1165 0
1.3646666 -0.44066668 -0.14566667 0
1.4544235 -0.44342065 -0.14156415 0
1.5393025 -0.44607091 -0.13784015 0
1.6424465 -0.45114577 -0.13395414 0
1.7737532 -0.43906832 -0.13047464 0
1.8571386 -0.43609676 -0.1283877 0
1.9398956 -0.4594202 -0.127514 0
2.0378036 -0.44579038 -0.12276211 0
2.1538954 -0.47075927 -0.11860244 0
2.2350488 -0.47209311 -0.11704448 0
2.3784781 -0.41231686 -0.11518832 0
1.365 -0.352 -0.145 0
1.4391084 -0.35285643 -0.14208813 0
1.566126 -0.33864921 -0.13450024 0
1.6422118 -0.37306306 -0.13273607 0
1.7574003 -0.33900112 -0.12774324 0
1.8389534 -0.33752331 -0.12516427 0
1.9431192 -0.34135798 -0.12223491 0
2.0488427 -0.34797847 -0.11947423 0
2.1610539 -0.36526608 -0.1175934 0
2.2597275 -0.37937295 -0.11470419 0
1.36 -0.26466668 -0.14433332 0
1.4561228 -0.2507214 -0.13800913 0
1.5679235 -0.25657886 -0.131258 0
1.6622705 -0.2483788 -0.12988523 0
1.746451 -0.23283382 -0.12811227 0
1.8407568 -0.24099985 -0.12658784 0
1.9547135 -0.24912295 -0.12061276 0
2.0853987 -0.2416041 -0.11748183 0
2.1725485 -0.25228813 -0.1152288 0
2.2454062 -0.26095825 -0.11338721 0
2.3399999 -0.242 -0.113 0
1.3460001 -0.16166668 -0.14266668 0
1.4390568 -0.1530726 -0.13811439 0
1.5549301 -0.16693689 -0.13277429 0
1.6408184 -0.14820319 -0.1283004 0
1.7281368 -0.1569064 -0.12610078 0
1.8421837 -0.16096215 -0.12277278 0
1.9459788 -0.17839618 -0.12051608 0
2.0684614 -0.16800092 -0.11577392 0
2.1548717 -0.17616774 -0.11340292 0
2.2060001 -0.18099999 -0.112 0
1.3713646 -0.044246893 -0.13879706 0
1.4685936 -0.038740687 -0.13489115 0
1.5432388 -0.037061386 -0.12996559 0
1.6616282 -0.0085737882 -0.1281693 0
1.7467637 -0.010363452 -0.12600026 0
1.8252659 -0.010768744 -0.12522081 0
1.9405648 -0.01842434 -0.11727262 0
2.0274777 -0.020509206 -0.11492714 0
2.1436954 -0.023297038 -0.11179084 0
1.3307626 0.050754845 -0.1381056 0
1.4641252 0.075909689 -0.12961121 0
1.5393758 0.05328406 -0.12659264 0
1.6525244 0.065692008 -0.12325314 0
1.7392864 0.067538008 -0.1208797 0
1.8260486 0.069384009 -0.11850627 0
1.9561919 0.072153017 -0.11494613 0
2.0863352 0.074922025 -0.11138597 0
2.1370001 0.075999998 -0.11 0
1.258 0.153 -0.13600001 0
1.3567402 0.16012558 -0.13141927 0
1.452 0.167 -0.127 0
1.6601039 0.1032875 -0.1220275 0
1.7515484 0.166457 -0.12204904 0
1.8322077 0.11157501 -0.117055 0
1.9182596 0.11571876 -0.11456874 0
2.0473375 0.12193438 -0.11083937 0
2.1110001 0.125 -0.109 0
1.259944 0.24519497 -0.13341023 0
1.3557758 0.25927985 -0.12864095 0
1.421 0.234 -0.126 0
1.5492471 0.2586033 -0.12270664 0
1.6722472 0.27560329 -0.12120664 0
1.7542032 0.28871834 -0.11854059 0
1.847903 0.24626762 -0.11746932 0
1.9263546 0.2541514 -0.11420397 0
2.0569782 0.21887943 -0.11021174 0
-5.0416493 0.38977987 -0.11062953 0
-4.9520216 0.38569322 -0.12400403 0
-4.8623939 0.38160658 -0.13737853 0
-4.7727661 0.37751991 -0.15075302 0
-4.6831384 0.37343326 -0.16412753 0
-4.548697 0.36730325 -0.18418926 0
1.3796667 0.33066666 -0.12533332 0
1.4814529 0.31992564 -0.12362476 0
1.5659058 0.33985126 -0.12124953 0
1.6427748 0.36772758 -0.12063934 0
1.7255056 0.37027091 -0.11872682 0
1.8404379 0.37345898 -0.11622972 0
1.9573221 0.31986237 -0.11164017 0
2.0481622 0.34160516 -0.10921033 0
-1.4501287 0.47757933 -0.19047815 0
1.1562402 0.44835961 -0.12944935 0
1.2612824 0.44912171 -0.12537469 0
1.3150001 0.454 -0.123 0
1.413759 0.45028454 -0.1213342 0
1.5571337 0.45160785 -0.11909208 0
1.6601973 0.4784359 -0.11612046 0
1.7422146 0.44564635 -0.114803 0
1.8402214 0.42240044 -0.11204922 0
1.9539295 0.43278489 -0.1101345 0
2.0509982 0.44359839 -0.11038646 0
2.1521957 0.45503616 -0.11072751 0
2.2393951 0.47387552 -0.1086821 0
2.3265944 0.49271485 -0.10663667 0
2.47 0.461 -0.105 0
2.5584009 0.47944885 -0.1010604 0
-1.8382875 0.59979343 -0.19478145 0
-1.7520299 0.5726347 -0.19382517 0
-1.6657724 0.54547602 -0.19286887 0
-1.556355 0.55242932 -0.19043657 0
-1.4485974 0.55527067 -0.18798028 0
-1.349 0.55649996 -0.18650001 0
1.2662884 0.52803153 -0.12293924 0
1.3652352 0.54544598 -0.12072837 0
1.4675646 0.546166 -0.11906811 0
1.5441666 0.56514496 -0.11918719 0
1.655941 0.58364022 -0.11471352 0
1.7779114 0.50993115 -0.11156801 0
1.8573885 0.53191996 -0.1087056 0
1.9321203 0.55858433 -0.10652891 0
2.4235981 0.53385139 -0.10419708 0
2.5058444 0.59489059 -0.10033591 0
-2.0652876 0.66379344 -0.1981148 0
-1.924545 0.62695211 -0.19573775 0
-1.7446885 0.66471803 -0.19141123 0
-1.6177924 0.61781204 -0.18994083 0
-1.5813122 0.69382524 -0.18756925 0
-1.4576561 0.64141262 -0.18678463 0
-1.342154 0.67040145 -0.18516213 0
1.197 0.69400001 -0.122 0
1.2314999 0.61800003 -0.122 0
1.3368251 0.65069193 -0.11931913 0
1.4517771 0.64136285 -0.11839112 0
1.5533924 0.64819676 -0.11744971 0
1.656373 0.6588816 -0.11438733 0
1.7379485 0.63814193 -0.11336415 0
1.8265988 0.6528281 -0.10881159 0
1.9527849 0.67603254 -0.10809849 0
2.3859999 0.62699997 -0.103 0
-2.309 0.74800003 -0.2 0
-2.2695751 0.73558682 -0.19956292 0
-2.1833174 0.70842814 -0.19860663 0
-2.0458479 0.75985891 -0.19682974 0
-1.9720912 0.76294732 -0.19493094 0
-1.8501047 0.75513721 -0.19101006 0
-1.7461871 0.76370871 -0.1886154 0
-1.6637497 0.72876698 -0.18809232 0
-1.5429235 0.76740849 -0.18597277 0
-1.4495316 0.76955467 -0.18777131 0
-1.3489896 0.75741738 -0.185 0
-1.255 0.74650002 -0.18450001 0
1.165 0.7525 -0.1215 0
1.2614915 0.75303996 -0.11932328 0
1.359522 0.75658071 -0.1183378 0
1.4611907 0.74899101 -0.11611241 0
1.5489149 0.75732404 -0.11269685 0
1.6441648 0.74810219 -0.11291831 0
1.7501222 0.75745708 -0.11040515 0
1.8530996 0.74101573 -0.10918727 0
1.9488906 0.75726622 -0.10867093 0
2.0480809 0.75981617 -0.10656893 0
2.15446 0.76501447 -0.1033771 0
-2.2184873 0.83985341 -0.19690135 0
-2.1191885 0.82071805 -0.19741122 0
-2.0683422 0.84611058 -0.19810835 0
-1.9548651 0.8523156 -0.19263887 0
-1.743693 0.86441553 -0.1867834 0
-1.6319126 0.84277308 -0.18880358 0
-1.5513301 0.85482603 -0.18695779 0
-1.4539411 0.86875319 -0.18930548 0
-1.3579848 0.85260487 -0.18616456 0
-1.2402059 0.865327 -0.1841989 0
-1.1619999 0.89700001 -0.182 0
1.1354876 0.87080961 -0.12109243 0
1.2655816 0.85316086 -0.11780449 0
1.3596846 0.85504085 -0.11554857 0
1.4494487 0.85464287 -0.11465707 0
1.5286381 0.81720185 -0.11585471 0
1.6265997 0.85723257 -0.10951847 0
1.7542963 0.83103728 -0.10788077 0
1.8275417 0.852359 -0.10893762 0
1.9272213 0.84595168 -0.10657647 0
2.0503535 0.83821964 -0.10493183 0
2.17312 0.86042511 -0.10428103 0
2.2557602 0.89435327 -0.10194116 0
-2.122 0.92299998 -0.191 0
-2.0472848 0.91266561 -0.19468836 0
-1.9467846 0.97715098 -0.19046004 0
-1.869236 0.94201976 -0.18964428 0
-1.7479063 0.95116967 -0.18964346 0
-1.6609482 0.92708695 -0.185 0
-1.5550972 0.94477504 -0.18769056 0
-1.4448235 0.95870924 -0.1862129 0
-1.3279116 0.95215398 -0.18589781 0
-1.2298105 0.95051312 -0.1824085 0
-1.12 0.954 -0.18099999 0
1.0580001 0.94750005 -0.1215 0
1.1494523 0.95731783 -0.1189908 0
1.2356415 0.95162117 -0.11827278 0
1.3328203 0.96138734 -0.11470494 0
1.4543769 0.94798958 -0.11137974 0
1.552101 0.93031842 -0.11017775 0
1.6480049 0.96272486 -0.10773121 0
1.7427976 0.92500228 -0.10681839 0
1.8531857 0.94485247 -0.10728976 0
1.9639444 0.94555598 -0.10507116 0
2.003 0.90700001 -0.104 0
2.289 0.90799999 -0.101 0
-2.0348852 1.0051126 -0.18795915 0
-1.9549999 1.046 -0.19066668 0
-1.8548279 1.0506538 -0.18930955 0
-1.7445685 1.0485886 -0.18850915 0
-1.6502588 1.0371227 -0.18624219 0
-1.554589 1.0638628 -0.18699452 0
-1.4646289 1.0528755 -0.18629563 0
-1.3592745 1.0513115 -0.18496126 0
-1.2595497 1.0490292 -0.18377592 0
-1.1588981 1.0373406 -0.18014497 0
-1.0455 1.03 -0.178 0
-0.96200001 1.096 -0.17399999 0
0.977 1.087 -0.122 0
1.0485139 1.0576973 -0.12110597 0
1.148627 1.0496258 -0.11915743 0
1.2443029 1.0433885 -0.11651653 0
1.354306 1.0485587 -0.11314829 0
1.4752791 1.0373242 -0.10948212 0
1.54984 1.0625858 -0.10686917 0
1.6576149 1.0431136 -0.10530307 0
1.7773864 1.0670559 -0.10630042 0
1.882 1.015 -0.106 0
-1.903 1.183 -0.183 0
-1.8353906 1.1377062 -0.1876962 0
-1.7706438 1.1437898 -0.18705924 0
-1.6718506 1.1559759 -0.18705715 0
-1.5283971 1.1470126 -0.18601418 0
-1.4355587 1.144897 -0.1829751 0
-1.3467612 1.1501584 -0.18150169 0
-1.2716326 1.1660736 -0.18145689 0
-1.164777 1.1487356 -0.17943107 0
-1.0482905 1.1371059 -0.17557788 0
-0.90799999 1.14 -0.17200001 0
-0.852 1.182 -0.169 0
0.95350003 1.14 -0.123 0
1.040109 1.1558923 -0.12021241 0
1.1469398 1.1433579 -0.11759397 0
1.2501838 1.1541144 -0.11532414 0
1.3496417 1.1460607 -0.11259533 0
1.4432437 1.1421475 -0.10939395 0
1.5459572 1.1626635 -0.10553893 0
1.619 1.108 -0.104 0
-1.719 1.2405 -0.18700001 0
-1.6356589 1.2668918 -0.18403772 0
-1.5483725 1.2588905 -0.18269137 0
-1.4293368 1.2474729 -0.1810694 0
-1.3501841 1.2484007 -0.18042247 0
-1.2497708 1.2533792 -0.17952919 0
-1.1474059 1.2451689 -0.17721081 0
-1.0431492 1.2467972 -0.17397857 0
-0.97065055 1.250476 -0.17240605 0
-0.8697691 1.2672231 -0.16769759 0
-0.764 1.2390001 -0.1655 0
-0.676 1.295 -0.162 0
0.71100003 1.249 -0.127 0
0.87099999 1.2414999 -0.1225 0
0.96695644 1.2431668 -0.1195689 0
1.0728565 1.2494472 -0.11732635 0
1.1631441 1.2594297 -0.11441662 0
1.2788222 1.2368932 -0.1128345 0
1.3591713 1.2502152 -0.10982496 0
1.4547911 1.2661377 -0.10756998 0
1.5454621 1.2308546 -0.107544 0
-1.719 1.382 -0.177 0
-1.6442603 1.3319831 -0.1809748 0
-1.5576075 1.3580996 -0.17968509 0
-1.4610081 1.3368871 -0.17938784 0
-1.3451811 1.3484869 -0.17845701 0
-1.2397 1.3451016 -0.17743978 0
-1.146746 1.3678327 -0.17342485 0
-1.0606322 1.3301036 -0.17293072 0
-0.95424104 1.3436308 -0.16900718 0
-0.84999931 1.3721256 -0.16488071 0
-0.74453568 1.3446363 -0.16279921 0
-0.611 1.321 -0.15800001 0
-0.551 1.358 -0.156 0
-0.491 1.397 -0.154 0
0.77754217 1.3615062 -0.12315364 0
0.89936399 1.3464849 -0.12055119 0
0.99399114 1.3407972 -0.11715336 0
1.1430678 1.3501793 -0.11395543 0
1.2499661 1.3518946 -0.11037493 0
1.360689 1.3243058 -0.11188083 0
1.4283761 1.331785 -0.10835971 0
-3.845 1.49 -0.19599999 0
-1.6252291 1.4417195 -0.1754221 0
-1.4466667 1.4273334 -0.17833333 0
-1.3521566 1.4436563 -0.17650121 0
-1.2550498 1.4492283 -0.17423783 0
-1.1584971 1.462225 -0.17122562 0
-1.0409631 1.4395496 -0.16968341 0
-0.95512944 1.4370474 -0.16696614 0
-0.85721731 1.4577743 -0.16336946 0
-0.73566556 1.4500145 -0.16130859 0
-0.6673274 1.4399133 -0.15615925 0
-0.55064261 1.4594165 -0.15422851 0
-0.43599558 1.451654 -0.15086672 0
-0.361 1.456 -0.15000001 0
-0.29499999 1.487 -0.147 0
0.162 1.471 -0.138 0
0.22934878 1.4531283 -0.13613263 0
0.454 1.441 -0.13049999 0
0.63 1.495 -0.126 0
0.73906428 1.4561961 -0.1226881 0
0.84408432 1.4740125 -0.11930726 0
0.97191 1.4507124 -0.11687798 0
1.0574896 1.4482635 -0.11501225 0
1.1546695 1.4077401 -0.1122445 0
1.2284546 1.4608135 -0.10946813 0
1.3511441 1.4596797 -0.10566662 0
-4.0506792 1.5679698 -0.15862826 0
-3.9272716 1.5211879 -0.1810513 0
-3.7820001 1.5700001 -0.19400001 0
-1.321 1.502 -0.175 0
-1.0698715 1.5366758 -0.16787136 0
-0.93000001 1.576 -0.163 0
-0.86464262 1.5520451 -0.16219682 0
-0.75693756 1.5366186 -0.15856083 0
-0.63727701 1.5415968 -0.15608895 0
-0.54659426 1.5600786 -0.15344383 0
-0.47198233 1.5556157 -0.15046686 0
-0.35832015 1.550882 -0.149 0
-0.23177022 1.5509782 -0.14582333 0
-0.13950001 1.5550001 -0.14300001 0
-0.048666667 1.5883332 -0.14066666 0
0.025 1.563 -0.139 0
0.16906726 1.5369611 -0.13699038 0
0.24539508 1.5585136 -0.13353053 0
0.39399999 1.541 -0.13 0
0.45005214 1.5497262 -0.12862132 0
0.54060698 1.5397043 -0.12654395 0
0.66504169 1.5724212 -0.12330449 0
0.76275235 1.5769281 -0.12058414 0
0.86622286 1.5500083 -0.11887151 0
0.94598025 1.5323414 -0.11892229 0
1.0396012 1.5468178 -0.11463314 0
1.1331508 1.5614984 -0.11082369 0
1.2787521 1.555805 -0.10668337 0
1.3141934 1.5246712 -0.10557839 0
-4.3386297 1.6771275 -0.10630783 0
-4.2563581 1.6459396 -0.12125652 0
-4.1740866 1.6147517 -0.13620521 0
-4.0312762 1.6705099 -0.15602326 0
-3.948184 1.6370066 -0.16868217 0
-3.865092 1.6035033 -0.1813411 0
-1.105 1.605 -0.169 0
-0.8736639 1.6580362 -0.16102147 0
-0.74561077 1.6261966 -0.15609671 0
-0.64849585 1.6461761 -0.15379159 0
-0.54114228 1.6589285 -0.15108752 0
-0.45048675 1.6314617 -0.15010014 0
-0.32567093 1.6493756 -0.147 0
-0.26854044 1.6624564 -0.14564665 0
-0.1419652 1.6543239 -0.14224574 0
-0.051596615 1.6768302 -0.13837594 0
0.042511381 1.6538302 -0.13755679 0
0.1676269 1.6403844 -0.13519616 0
0.25641853 1.6667541 -0.13115916 0
0.37599999 1.691 -0.12899999 0
0.44787326 1.6433249 -0.12707071 0
0.56573302 1.6405474 -0.1239615 0
0.65044415 1.6612231 -0.12183885 0
0.7529152 1.6511701 -0.11950892 0
0.86015368 1.6274962 -0.11758533 0
0.94260627 1.6658922 -0.11429247 0
1.0547199 1.6463826 -0.11208823 0
1.1754732 1.6584518 -0.1076033 0
1.2309999 1.651 -0.106 0
-4.2805519 1.7710198 -0.11804652 0
-4.1559143 1.7207649 -0.13703489 0
-2.5250001 1.788 -0.19400001 0
-0.84414625 1.7608503 -0.15506823 0
-0.7546134 1.7432266 -0.1521602 0
-0.60056555 1.7234719 -0.15066297 0
-0.55950576 1.7338641 -0.15053067 0
-0.32187492 1.7545301 -0.14395949 0
-0.23700543 1.7415739 -0.143254 0
-0.17150676 1.7406175 -0.14106311 0
-0.054835726 1.7607285 -0.13709711 0
0.049109004 1.7327583 -0.13576803 0
0.16265705 1.7438838 -0.1326268 0
0.26483557 1.7559117 -0.1294477 0
0.36039236 1.7541775 -0.1277153 0
0.45459652 1.7325413 -0.12534736 0
0.5280149 1.7199879 -0.12329719 0
0.63094771 1.7618697 -0.11946683 0
0.7502709 1.7371576 -0.11807175 0
0.85620391 1.7573522 -0.11454854 0
0.94260192 1.766102 -0.11375178 0
1.0575289 1.7542992 -0.11110459 0
1.1399142 1.7480153 -0.10641686 0
-4.3636441 1.8045231 -0.10538761 0
-2.6465316 1.8857535 -0.19400001 0
-2.5857658 1.8368767 -0.19400001 0
-0.90380645 1.8629262 -0.15569124 0
-0.87386107 1.8759291 -0.14940977 0
-0.74236268 1.8512905 -0.15174749 0
-0.64307922 1.8626314 -0.14972115 0
-0.58275867 1.809796 -0.149296 0
-0.3406665 1.8547468 -0.14122534 0
-0.23496968 1.8709767 -0.13867885 0
-0.15872833 1.848927 -0.13701449 0
-0.040972598 1.8602324 -0.13446778 0
0.05220307 1.8217499 -0.13358808 0
0.16060287 1.8436493 -0.13048327 0
0.25624594 1.8489883 -0.1278526 0
0.34042212 1.8703346 -0.12624268 0
0.45897213 1.8458098 -0.12330499 0
0.55407208 1.8313767 -0.1203509 0
0.64294463 1.8562331 -0.11730716 0
0.76697433 1.8387842 -0.1156582 0
0.84514326 1.8651909 -0.11301766 0
0.94554502 1.8656474 -0.11067076 0
1.057 1.834 -0.107 0
-2.7376802 1.9590688 -0.19400001 0
-1.482 1.937 -0.17 0
-1.0021784 1.9836686 -0.15603408 0
-0.92927611 1.9474232 -0.15116242 0
-0.74460828 1.942219 -0.15049602 0
-0.66214788 1.9676653 -0.14763205 0
-0.36676288 1.9542105 -0.13809355 0
-0.24605688 1.95629 -0.13616154 0
-0.15313314 1.9503428 -0.1338339 0
-0.043666352 1.9473424 -0.1324843 0
0.050831273 1.9421614 -0.13051498 0
0.16515829 1.9487463 -0.12829658 0
0.25228596 1.956292 -0.12598272 0
0.33852184 1.9481474 -0.12402037 0
0.46150565 1.9601862 -0.12136529 0
0.55039954 1.9452348 -0.11849759 0
0.66290581 1.9588928 -0.11466435 0
0.7208904 1.9336483 -0.11326306 0
0.84025031 1.9595275 -0.1098269 0
0.95343208 1.9251574 -0.10707048 0
-2.8010001 2.01 -0.19400001 0
-1.5634105 2.0401573 -0.16944239 0
-1.3661888 2.0634327 -0.163 0
-1.0443568 2.0623372 -0.15506817 0
-0.96433812 2.0348277 -0.15064913 0
-0.83390808 2.0426145 -0.15028679 0
-0.73073304 2.0437624 -0.14702004 0
-0.65069234 2.0257156 -0.14508422 0
-0.41719031 2.080102 -0.13307521 0
-0.34040752 2.0375998 -0.13591224 0
-0.23171228 2.0475585 -0.13366966 0
-0.12550913 2.036046 -0.13076937 0
-0.02774906 2.0278692 -0.12985152 0
0.052207299 2.0680192 -0.12774058 0
0.14487599 2.0374308 -0.12674214 0
0.22834189 2.0435321 -0.12457818 0
0.32215258 2.0424662 -0.12243698 0
0.42585424 2.0385652 -0.12129185 0
0.53951716 2.0478244 -0.11720619 0
0.63186598 2.0510354 -0.11400066 0
0.75226372 2.0601597 -0.10962244 0
0.86400002 2.0120001 -0.108 0
-1.6448212 2.1433146 -0.16888478 0
-1.4357547 2.1637306 -0.163 0
-1.0419564 2.1314719 -0.15265206 0
-0.94893754 2.14361 -0.14833459 0
-0.83084273 2.1559925 -0.14586306 0
-0.7400164 2.1384213 -0.14379317 0
-0.6753847 2.1004312 -0.14316842 0
-0.43482834 2.1627223 -0.13029025 0
-0.35417607 2.1230831 -0.13355698 0
-0.24597223 2.1452382 -0.131623 0
-0.1428567 2.1419778 -0.12760277 0
-0.024510482 2.1338215 -0.12769948 0
0.050088484 2.1779017 -0.12512162 0
0.15047535 2.1542683 -0.12380549 0
0.23793213 2.1330092 -0.1224654 0
0.33791763 2.147969 -0.11913869 0
0.44344282 2.1243312 -0.11936481 0
0.55879039 2.1564412 -0.11466043 0
0.67155248 2.147198 -0.11111768 0
0.74000001 2.1270001 -0.109 0
-1.7533685 2.2808576 -0.16814131 0
-1.6990948 2.212086 -0.16851304 0
-1.5285093 2.297461 -0.163 0
-1.482132 2.2305958 -0.163 0
-1.285 2.25 -0.156 0
-1.1355033 2.2698061 -0.15189534 0
-1.0462608 2.2361708 -0.14843448 0
-0.92985284 2.2559099 -0.14602548 0
-0.86174524 2.2315865 -0.14379618 0
-0.76219678 2.2468281 -0.14075711 0
-0.44299999 2.201 -0.12899999 0
-0.36816674 2.2231398 -0.12972102 0
-0.26210043 2.2515502 -0.1278474 0
-0.13779595 2.2526112 -0.12402672 0
-0.039770491 2.2394791 -0.125609 0
0.059657633 2.2647958 -0.12197836 0
0.16205519 2.2774918 -0.12096014 0
0.24768054 2.2407339 -0.11926357 0
0.35509542 2.2488034 -0.11730359 0
0.46103138 2.2100976 -0.11743778 0
0.52773476 2.2604766 -0.11424164 0
0.62504476 2.2407541 -0.1107634 0
-1.8076422 2.3496289 -0.16776957 0
-1.5834433 2.3766632 -0.163 0
-1.498 2.365 -0.162 0
-1.3495698 2.3617959 -0.15558207 0
-1.2130704 2.3770118 -0.1512045 0
-1.1438563 2.3666022 -0.14956895 0
-1.0523438 2.3792746 -0.14658648 0
-0.96247047 2.3312132 -0.14453396 0
-0.85892028 2.3508646 -0.13923992 0
-0.74199998 2.302 -0.138 0
-0.40905303 2.3944342 -0.13271904 0
-0.39429641 2.3048799 -0.13437916 0
-0.25293934 2.3339283 -0.12687628 0
-0.14089704 2.3405256 -0.12319632 0
-0.03680829 2.3350041 -0.12091804 0
0.062274005 2.3541708 -0.11961752 0
0.15269463 2.3640492 -0.12037785 0
0.24520722 2.3499684 -0.11692151 0
0.35201442 2.3525596 -0.11569934 0
0.44342378 2.3615439 -0.11541187 0
0.54400003 2.3340001 -0.1125 0
-1.9180949 2.4895859 -0.16701305 0
-1.8619159 2.4184005 -0.16739783 0
-1.5446818 2.4377367 -0.1614572 0
-1.4141397 2.4735916 -0.15516415 0
-1.2552488 2.4556804 -0.15023857 0
-1.1495458 2.4436779 -0.14757094 0
-1.0553421 2.4701061 -0.14562425 0
-0.96399999 2.405 -0.14 0
-0.42380965 2.4839883 -0.13105892 0
-0.25954974 2.4353464 -0.12662052 0
-0.024 2.4349999 -0.116 0
0.056917779 2.4524093 -0.11669251 0
0.15882418 2.4539483 -0.11836357 0
0.23886347 2.4530342 -0.11387467 0
0.3546021 2.4655433 -0.11330029 0
0.44749999 2.4345002 -0.114 0
-1.6380452 2.58321 -0.16037157 0
-1.5913634 2.5104733 -0.16091438 0
-1.4571863 2.5481222 -0.15488553 0
-1.2566333 2.5478523 -0.14811958 0
-1.1589153 2.542156 -0.14605691 0
-1.08 2.5239999 -0.145 0
-0.43856627 2.5735426 -0.12939879 0
-0.30700001 2.5090001 -0.126 0
0.083733022 2.5250492 -0.11585921 0
0.17630248 2.5565646 -0.11589953 0
0.24933155 2.5597966 -0.11109704 0
0.35499859 2.5390646 -0.11022174 0
-1.684727 2.6559467 -0.15982877 0
-1.5217562 2.6599178 -0.1544676 0
-1.3463027 2.6255088 -0.14815336 0
-1.261 2.605 -0.147 0
-0.45100001 2.6489999 -0.12800001 0
0.078481145 2.6522212 -0.11639912 0
0.139 2.6259999 -0.115 0
0.41 2.645 -0.103 0
-1.7314087 2.7286832 -0.15928595 0
-1.590163 2.778357 -0.15402484 0
-1.8247721 2.8741565 -0.15820032 0
-1.7780905 2.80142 -0.15874314 0
-1.842 2.901 -0.15800001 0
-0.89999998 3.6589999 -0.12899999 0
-0.92230248 3.7470217 -0.12580086 0
-0.94460499 3.8350434 -0.12260173 0
-0.9669075 3.9230652 -0.1194026 0
-1.0115125 4.0991087 -0.11300435 0
-0.98921001 4.0110869 -0.11620348 0
-1.033815 4.1871309 -0.10980522 0
-1.0561175 4.2751527 -0.10660609 0
-1.07842 4.3631744 -0.10340696 0
-1.1007226 4.4511962 -0.10020783 0
1.707 -4.1420002 -0.024 0
1.9069999 -4.1040001 -0.018999999 0
1.67366 -4.0633554 -0.010018723 0
1.8716923 -4.0270953 -0.0054201307 0
-2.5575881 -3.4417675 -0.096144453 0
-2.5280001 -3.398 -0.090000004 0
2.6548715 -3.3209739 -0.082571283 0
2.5858827 -3.2329535 -0.095126726 0
2.6389999 -3.1889999 -0.1 0
-2.6331415 -3.0767293 -0.085621148 0
2.5452588 -3.0333652 -0.081069678 0
2.482301 -2.9567692 -0.095976591 0
2.5815558 -2.9772911 -0.097971126 0
2.7475715 -2.8340166 -0.048736844 0
2.6673751 -2.7515287 -0.068289474 0
2.5458395 -2.6265206 -0.097921051 0
2.6066074 -2.6890247 -0.083105266 0
-5.1656384 0.39543328 -0.092127517 0
-4.975153 0.45407453 -0.0045526903 0
-4.895 0.45199999 -0.017000001 0
2.6468015 0.49789768 -0.097120799 0
2.7352023 0.51634657 -0.0931812 0
2.8236032 0.5347954 -0.089241609 0
2.9120038 0.55324423 -0.08530201 0
3.0446048 0.58091754 -0.079392612 0
2.4741979 0.6485005 -0.099431828 0
2.578042 0.64339113 -0.09626773 0
2.6660633 0.66508675 -0.092651606 0
2.7693772 0.66056246 -0.089343622 0
2.8572216 0.6824531 -0.085679531 0
3.177206 0.60859078 -0.073483214 0
3.2656069 0.62703967 -0.069543615 0
3.3720038 0.64924425 -0.064802006 0
2.7387915 0.71300209 -0.08872731 0
2.8269894 0.73450261 -0.085159138 0
2.9301267 0.73017341 -0.081803203 0
3.0426261 0.76758069 -0.076942913 0
3.1207542 0.7481249 -0.07468725 0
3.2525208 0.7809608 -0.069191106 0
3.179781 0.82050472 -0.070886448 0
3.2679789 0.84200525 -0.067318283 0
3.3515 0.83399999 -0.064500004 0
2.1800001 1.186 -0.097999997 0
2.2576411 1.2285367 -0.095484383 0
2.3352821 1.2710735 -0.092968769 0
2.099 1.347 -0.096000001 0
2.1752386 1.3959906 -0.093107224 0
2.4517436 1.3348787 -0.089195348 0
2.5682051 1.3986838 -0.08542192 0
2.04 1.451 -0.094999999 0
2.2514772 1.4449811 -0.090214446 0
2.3277159 1.4939717 -0.087321669 0
2.6458461 1.4412205 -0.082906306 0
2.7234871 1.4837573 -0.080390692 0
2.0479689 1.5317843 -0.092563294 0
2.1500366 1.5291049 -0.090652511 0
2.4420738 1.5674574 -0.08298251 0
2.8300641 1.5421469 -0.076937541 0
1.948 1.6109999 -0.092 0
2.0160859 1.6661582 -0.08867573 0
2.1558757 1.612137 -0.088253185 0
2.2439432 1.6364577 -0.085842393 0
2.3334308 1.6592799 -0.083406679 0
2.5564318 1.6409433 -0.078643344 0
2.6326704 1.6899339 -0.075750567 0
-4.6100001 1.78 -0.056999996 0
-4.5443087 1.7550974 -0.06893611 0
-4.4209013 1.7083154 -0.091359138 0
1.893 1.725 -0.090999998 0
1.9579406 1.7821585 -0.087511458 0
2.0841718 1.7213163 -0.085351467 0
2.1522577 1.7764746 -0.082027197 0
2.299751 1.7192739 -0.082506374 0
2.3716888 1.7728424 -0.079632968 0
2.4434674 1.7373849 -0.079059184 0
2.7470284 1.7634197 -0.071411401 0
-4.5298281 1.8715297 -0.08006978 0
-4.4467359 1.8380264 -0.092728697 0
2.0553513 1.8678961 -0.082278639 0
2.2543864 1.8592119 -0.077040806 0
2.4436266 1.8264109 -0.076759562 0
2.5345342 1.8477347 -0.074298926 0
2.6268616 1.8675599 -0.071813367 0
2.8613863 1.8369056 -0.067072235 0
2.9159999 1.872 -0.064999998 0
-4.6339598 1.9135165 -0.064205438 0
2.1527624 1.9536338 -0.077045828 0
2.3565154 1.9419491 -0.072054401 0
2.4246013 1.9971074 -0.068730131 0
2.587502 1.9335479 -0.071012758 0
2.6594398 1.9871163 -0.068139352 0
2.7492654 1.9544433 -0.066977248 0
1.744 2.02 -0.088 0
1.8000069 2.0837266 -0.086032189 0
2.2501731 2.0393715 -0.071813017 0
2.4926872 2.0522656 -0.065405868 0
2.5009999 2.059 -0.064999998 0
2.7130001 2.027 -0.066 0
1.8560137 2.1474533 -0.084064387 0
2.3622921 2.1380544 -0.065790102 0
1.9400239 2.2430434 -0.081112675 0
2.0240343 2.3386335 -0.078160964 0
2.0800412 2.4023602 -0.076193154 0
2.1140001 2.441 -0.075000003 0
0.477 2.668 -0.1 0
0.49314004 2.7571454 -0.09802942 0
0.62199998 2.737 -0.096000001 0
1.781 2.7490001 -0.082000002 0
1.8112013 2.7911861 -0.07768552 0
0.50928009 2.8462911 -0.096058831 0
0.64206868 2.8235948 -0.094004214 0
0.79500002 2.8699999 -0.093000002 0
1.8427013 2.835186 -0.073185518 0
0.52542007 2.9354365 -0.094088249 0
0.67217171 2.9534869 -0.091010541 0
0.85320032 2.9464879 -0.091322616 0
1.357 2.9890001 -0.082000002 0
0.54156011 3.0245821 -0.09211766 0
0.7022748 3.0833793 -0.088016868 0
0.84180117 3.033951 -0.088290453 0
0.92529261 3.0589185 -0.088060632 0
1.0880001 3.079 -0.088 0
1.188 3.099 -0.090999998 0
1.253 3.0550001 -0.090000004 0
1.3845651 3.0596054 -0.080065608 0
0.57485008 3.1093638 -0.089073539 0
0.60939157 3.1923926 -0.085934751 0
0.7416718 3.1734872 -0.086010545 0
0.87690198 3.1569145 -0.084758289 0
0.96258527 3.1768367 -0.084121272 0
1.0470001 3.1659999 -0.093000002 0
1.1144873 3.1472249 -0.085056968 0
1.2451048 3.140728 -0.086240426 0
1.3039397 3.182035 -0.081824489 0
1.4121302 3.1302106 -0.078131214 0
0.58191013 3.2474458 -0.087191194 0
0.62678313 3.2797854 -0.083869502 0
0.76203763 3.2572012 -0.083772868 0
0.94972491 3.2676635 -0.081360579 0
1.0499978 3.2283034 -0.085097179 0
1.131107 3.2500846 -0.080918401 0
1.2473489 3.2588465 -0.079921536 0
1.3317049 3.251276 -0.077368364 0
1.4593185 3.2510793 -0.074819751 0
0.62514746 3.374171 -0.083019793 0
0.76248097 3.3431637 -0.082029514 0
0.80232596 3.3386672 -0.081040889 0
0.93540341 3.3618536 -0.078871354 0
1.0469725 3.3575063 -0.077505589 0
1.187 3.3340001 -0.077 0
1.263 3.3010001 -0.077 0
0.64191329 3.46244 -0.08100187 0
0.78254968 3.4297585 -0.080033734 0
0.82298893 3.4195008 -0.078561328 0
0.954 3.427 -0.077 0
0.65867907 3.5507092 -0.078983955 0
0.82839632 3.5289638 -0.076430485 0
0.67267466 3.623678 -0.077304259 0
0.88548893 3.6640007 -0.071061328 0
0.71374094 3.7167485 -0.073543258 0
0.73982829 3.8478374 -0.070445389 0
0.75199997 3.9089999 -0.068999998 0
-1.1230251 4.5392179 -0.097008698 0
-1.1440001 4.6220002 -0.093999997 0
1.6236501 -3.9453883 0.010953194 0
1.8363847 -3.9501901 0.008159738 0
1.5736401 -3.8274212 0.031925108 0
1.801077 -3.8732853 0.021739608 0
1.5403001 -3.7487767 0.045906384 0
1.7481155 -3.7579279 0.042109411 0
1.5069602 -3.6701319 0.059887666 0
1.695154 -3.6425703 0.062479213 0
1.46631 -3.5742435 0.076934472 0
1.66 -3.566 0.075999998 0
-3.6559999 -1.403 0.033 0
-3.574388 -1.3705616 0.044233087 0
-3.4519706 -1.3219039 0.061082717 0
-3.3295527 -1.2732464 0.077932343 0
-3.247941 -1.240808 0.089165434 0
-3.5220001 -0.81999999 0.017999999 0
-3.4403286 -0.79865074 0.032614909 0
-3.3586569 -0.77730155 0.047229819 0
-3.2769854 -0.7559523 0.061844733 0
-3.1544781 -0.72392845 0.083767101 0
-3.9260001 -0.26800001 0.003 0
-3.8407271 -0.26067594 0.018171286 0
-3.7554538 -0.25335187 0.03334257 0
-3.6701808 -0.2460278 0.048513852 0
-3.5849078 -0.23870373 0.063685142 0
-3.4569979 -0.22771762 0.086442068 0
-5.3200002 0.463 0.048999999 0
-5.2556896 0.46133548 0.039012901 0
-5.1354594 0.45822364 0.020341929 0
-5.0553064 0.4561491 0.0078946203 0
-4.316514 1.5774894 0.060204975 0
-4.2456856 1.5579859 0.049939964 0
-4.1476712 1.5309964 0.035734989 0
-7.902 14.265 0.097000003 0
-3.1663291 -1.2083696 0.10039852 0
-3.0439115 -1.1597121 0.11724815 0
-2.944 -1.12 0.131 0
-3.0319705 -0.6919046 0.10568946 0
-2.9519999 -0.671 0.12 0
-3.3290882 -0.21673152 0.109199 0
-3.2739999 -0.212 0.119 0
-7.7028503 13.769146 0.18935938 0
-7.736042 13.851789 0.17396614 0
-7.7692332 13.934431 0.15857291 0
-7.8190207 14.058393 0.13548307 0
-7.8688083 14.182358 0.11239323 0
-7.5635419 13.422288 0.25396615 0
-7.6032753 13.521218 0.23553906 0
-7.6530628 13.645182 0.21244922 0
