# .PCD v0.7 - Point Cloud Data file format
VERSION 0.7
FIELDS x y z intensity
SIZE 4 4 4 4
TYPE F F F F
COUNT 1 1 1 1
WIDTH 348
HEIGHT 1
VIEWPOINT 0 0 0 1 0 0 0
POINTS 348
DATA ascii
-17.407085 4.453279 2.6039712 7.5
-17.577284 4.2477803 2.8605604 8
-17.35989 4.29144 3.422502 9
-17.183073 3.9537954 2.7335491 8
-17.179232 3.9169059 3.0635579 8
-16.003286 9.2366848 2.2430947 7
-16.091761 9.1254358 2.5341346 7
-16.241827 9.079546 3.2431734 8
-15.974423 9.1817245 2.9971001 8
-15.990886 9.0700655 3.4411261 9
-13.43547 11.344796 2.1362262 7
-13.572268 11.596374 2.490207 7
-13.429974 11.43379 2.8432105 8
-13.465901 11.427087 3.3472173 9
-12.458033 6.6812997 -0.29708037 3
-12.41409 8.2719698 -0.16040421 3
-12.749003 11.771435 2.1030381 7
-12.691625 11.970998 2.6034958 7.5
-12.734837 11.785458 2.8150342 8
-12.665695 11.809121 3.2920182 9
-12.374471 11.95015 2.0839479 7
-12.009966 12.125953 2.0648608 7
-12.32628 11.97497 2.7949359 8
-12.241229 12.171945 2.5628908 7.6666665
-12.247263 11.971608 3.2619233 9
-11.627219 -4.9645967 0.7819773 5
-11.65452 -4.9043698 1.3159631 6.5
-11.628492 12.321598 1.5597702 6
-11.653941 -4.9641657 1.7899832 7
-11.639551 12.285767 2.0437775 7
-11.753953 12.398376 2.5257783 8
-11.882665 12.172397 3.2458332 9
-11.449641 12.375325 -0.029265305 3
-11.46213 -5.3672223 0.37707835 4
-11.450068 -5.364265 0.54207474 5
-11.332057 12.513192 0.6991958 4.5
-11.445894 -5.3581824 1.0120718 6
-11.569666 12.306211 1.0737636 5
-11.204167 12.492071 1.0716795 5
-11.455327 -5.3407416 1.2867347 6.3333335
-11.266997 12.505477 1.5516869 6
-11.536592 -5.2455368 1.7970531 7
-11.280128 12.450665 2.0256972 7
-11.398672 -5.5887904 2.5191407 9
-11.528281 12.342223 2.763752 8
-11.473976 12.522739 2.5077159 7.6666665
-10.815758 -1.8017327 6.0317612 18
-10.594507 -0.34706628 -0.14073242 3
-10.437035 -2.8477311 4.9130125 16
-10.496256 -2.7684088 5.1729999 17
-10.433862 -2.8376825 5.2670088 17
-10.598836 -2.5010948 5.500936 17
-10.712763 -2.2548189 5.2612157 17
-10.439967 -2.8605177 5.6360178 18
-10.585104 -2.5380704 5.7319455 18
-10.730023 -2.1797342 5.6678624 18
-10.132225 -1.4292032 -0.0075072772 3
-10.020588 13.709833 -0.039663497 3
-10.03279 -3.806916 4.9072404 16
-10.147027 -3.5115755 5.0151677 16.5
-10.001655 -3.8010275 5.3227315 17
-10.137178 -3.5345459 5.2591734 17
-10.31343 -3.1264939 5.349577 17
-10.081701 -3.6076367 5.9351859 19
-10.137008 -3.5254712 5.6231704 18
-10.335964 -3.0828481 5.6270676 18
-10.036065 -3.7576911 6.0172248 19
-10.374846 -2.9686773 6.0260372 19
-9.7152786 -2.3584452 -0.080305859 3
-9.7478294 9.8670168 -0.31214404 3
-9.8262854 -4.2816 4.9213557 16
-9.8416033 -4.2184987 5.2733374 17
-9.9524784 -3.9960785 5.2732863 17
-9.8141937 -4.1816444 5.632319 18
-9.9311228 -3.9656754 5.6382723 18
-9.8480082 -4.1753287 6.0293236 19
-9.947052 -3.9699669 6.0252757 19
-9.4801216 -4.4189925 -0.029673748 3
-9.2260647 -0.41177318 -0.16001928 3
-9.3556414 14.130247 -0.043806136 3
-9.030673 -0.85727894 -0.0039291019 3
-8.4909458 -6.999464 5.438508 17
-8.4737492 -7.0364599 5.7710171 18
-8.1112518 -5.3073487 -0.13366351 3
-8.1766691 -1.5387766 -0.0079089161 3
-8.0099859 -8.0200615 5.5322642 17
-8.1233101 -7.773437 5.4792013 17
-8.1128063 -7.8699441 5.8194332 17.6
-7.7353492 -2.6870792 -0.11163588 3
-7.3691082 -9.3439131 5.9110918 17
-7.4833446 -9.146142 5.9345474 17
-7.4314322 -9.2464399 6.0820704 17.5
-6.0088944 30.295189 0.716111 4
-4.8845553 3.2555034 -0.19186258 2
-4.948113 -1.2064978 0.12826687 4
-4.5502496 -3.8197289 -0.13844354 3
-4.5302548 -2.9809017 -0.13423705 2
-4.5100398 -2.6782625 -0.13334472 2
-4.6940122 -1.3710778 -0.03373738 3
-4.7260184 -1.6705359 0.1163665 4
-4.6143999 -0.91203153 0.11210017 4
-4.5898952 -0.35469922 0.39192626 6
-4.1564584 -4.4879055 -0.10279657 3
-4.1001158 -0.50189102 -0.17863989 2
-4.3646646 5.3455691 -0.27027935 2
-4.1322851 -4.9318991 0.027352579 3
-4.0706272 -2.9292614 0.0016454724 3
-4.1715064 -0.89994073 0.35499734 6
-4.2074018 -0.8976472 0.58900464 7
-3.6923923 -4.8204694 -0.00178205 3
-3.9503484 -3.8767304 -0.039053429 3
-3.8652797 -0.93909121 -0.16305915 2
-3.9944715 -0.77635413 -0.17008062 2
-3.6752481 1.5148662 -0.20775284 2
-3.7754481 2.1185658 -0.21885544 2
-3.7186921 19.348377 -0.090888634 3
-3.6978335 -5.3263021 0.035394531 3
-3.6501088 -2.8782954 0.29053658 5
-3.7970626 -2.6123333 0.24716508 5
-3.8503759 -2.5100076 0.41345423 6
-3.397203 -5.5448208 -0.12459651 3
-3.2501287 -1.3081115 -0.16407917 2
-3.3580415 -1.0944653 -0.16562366 2
-3.4391572 -0.14648136 -0.17939204 2
-3.570986 1.6671743 -0.20780556 2
-3.3729222 3.3683808 -0.2281377 2
-3.5636919 -3.0321851 0.32707071 5.5
-3.12376 -3.3314197 -0.12042212 2
-3.1769657 -1.455569 -0.16104737 2
-2.825233 1.1551629 -0.20484817 1
-2.8251638 1.4031014 -0.21139821 1
-2.8419235 2.5769498 -0.21809927 2
-2.9771938 3.2544854 -0.22117962 2
-2.9215486 3.9661167 -0.25028437 2
-2.9510558 19.597832 0.43704835 4
-2.4093425 -4.9514141 -0.094024517 3
-2.5241144 -4.6033864 -0.11811747 3
-2.6688635 -3.6841426 -0.14490098 2
-2.7383606 -3.2665739 -0.14752932 2
-2.6382952 -2.1214657 -0.15427715 2
-2.6860437 1.8142867 -0.21424992 1
-2.7745194 4.1664462 -0.25332794 2
-2.4416902 4.5420451 -0.25840962 2
-2.4058185 16.639997 -0.080676585 3
-2.192944 -5.4399157 -0.086908311 3
-2.3985217 -2.31938 -0.15592955 2
-2.0201182 -0.93210036 -0.17547624 1
-2.2723441 -0.4981423 -0.17555279 1
-2.3310544 -0.28221011 -0.1796025 1
-2.2479913 -8.2910433 0.077074632 3
-2.0584855 -6.8685956 0.4995456 5.5
-1.9148815 -1.1099919 -0.16244295 1
-1.9823924 -0.70160806 -0.17022368 1
-1.7273456 1.4796067 -0.19560562 1
-1.628502 1.6868038 -0.20064948 1
-1.632561 3.0608177 -0.21931763 1
-1.8459388 3.922734 -0.24239518 2
-1.7674159 4.2764997 -0.24944058 2
-1.6540122 4.6181569 -0.25548565 2
-1.9052235 -7.0351591 0.1975646 4
-1.2138708 -7.5140448 -0.091448039 3
-1.4486184 -2.4537475 -0.13809988 2
-1.3431712 -1.7592412 -0.14785898 1
-1.5411705 1.8420429 -0.20418169 1
-1.4324737 3.0121238 -0.21932998 1
-1.3746923 4.9468126 -0.26003751 2
-1.5095059 15.499197 -0.078597255 3
-1.1052806 -2.8532696 -0.13104773 2
-1.1790464 -2.4823711 -0.13615456 2
-1.1602478 1.1370833 -0.18913919 0
-0.99347204 1.4244182 -0.19294144 0
-0.95553207 2.4665253 -0.2083074 1
-0.9924252 4.9852076 -0.26056114 2
-0.89208734 -6.535594 0.1666382 4
-0.91271228 -6.4286733 0.76610762 7
-1.0209405 -6.3269429 0.6241017 6
-0.93852645 -6.358047 1.0912156 8.5
-0.8110649 -6.4375563 1.233084 9
-1.0056211 -6.3854632 1.5661174 10
-0.59718114 -5.2320728 -0.11137907 3
-0.53200203 -2.3111336 -0.13137726 2
-0.56046087 -1.8030475 -0.1405393 1
-0.52447683 2.3145487 -0.20581345 1
-0.76744938 2.4870846 -0.20832041 1
-0.59676313 4.6831822 -0.24854541 2
-0.60056829 11.829539 -0.061258394 3
-0.68385696 -6.6039596 0.25735587 4.25
-0.74111968 -6.5152559 0.56084138 5.5
-0.78575408 -6.387898 0.96806049 8
-0.23419681 -5.0144386 -0.11455221 3
-0.092563778 -3.2283678 -0.11519329 2
-0.20732257 -2.2687948 -0.12960778 1.5
-0.16359447 2.327795 -0.2036541 1
-0.25524086 2.4252088 -0.20633036 1
-0.26784915 5.7625175 -0.263661 2
-0.14677018 -11.622141 0.24364857 4
0.058354668 -2.7004416 -0.0060827588 3
0.19078307 2.1703501 -0.19912636 0.66666669
0.23869188 2.6128294 -0.20434788 1
0.14215787 5.9431996 -0.26668441 2
0.051491953 -2.6186202 0.16260834 5
0.25969577 -1.8202275 0.35435316 8.8000002
0.24201714 -1.8027534 0.42371979 10
0.34581044 -1.831682 1.0461946 19
0.26316476 13.088471 1.0345978 6
0.26422438 13.1 1.3195969 6
0.50713128 -2.4098997 -0.12365931 2
0.58415067 -2.1806157 -0.12741253 1.5
0.62363738 -1.8035761 -0.13252728 1
0.72695571 -1.4867328 -0.1379794 1
0.49113122 2.222477 -0.20030004 1
0.58010978 6.1249199 -0.27070454 2
0.65046173 12.000475 -0.20229781 3
0.59264225 -1.6629285 0.34935912 9
0.459701 -1.7096112 0.41145548 10
0.74808067 -1.5822996 0.40801275 10
0.47962207 13.001941 0.81060356 5
0.59480715 13.096731 1.4255928 6
0.51212323 13.161948 1.684587 7
0.84442943 -2.1246603 -0.12803644 2
1.0738976 -1.7617229 -0.13497202 1
0.82794565 1.2782034 -0.18361543 0
1.1917361 1.9819026 -0.1932369 1
1.1355691 2.1106176 -0.19625643 1
1.0660571 2.4351091 -0.19729972 1
1.0535644 10.411718 -0.16214004 3
1.0313876 -3.0396986 0.13137865 4
0.92148292 -1.5374072 0.36190906 9.25
1.037125 -1.5344541 0.57637805 12
1.0982093 -1.5043962 0.84305263 16
1.2046717 -5.2193751 -0.069918334 3
1.5246462 -3.1186173 -0.11606445 2
1.4401388 -2.609303 -0.11701892 2
1.3490062 -2.1849825 -0.12198561 2
1.5886626 -1.92827 -0.06419196 2.5
1.335938 -1.3751153 -0.1376726 1
1.4621093 -1.0396478 -0.14240314 1
1.5075889 -0.69869065 -0.14723472 1
1.4902616 -0.36897835 -0.15192419 0
1.4293622 0.66033512 -0.16749769 0
1.3427826 0.9923256 -0.17433025 0
1.3516318 1.3549224 -0.17938781 0.75
1.2499576 1.8691993 -0.19121882 1
1.4375733 9.4531097 -0.29404181 2
1.5478426 -1.9594488 0.014802369 3.5
1.4030801 10.716065 0.17182884 4
1.3918095 10.595148 0.71984124 5
1.427845 10.608618 1.1213398 6
1.6289041 -5.2189422 -0.072306201 3
1.6807891 -1.8357571 -0.12892847 2
1.7231671 -0.54032063 -0.14490223 1
1.8068419 0.23042448 -0.15796375 1
1.7548345 0.52486569 -0.16300191 1
1.703722 3.3948379 -0.21288441 2
2.3147962 -2.1774926 -0.14340796 2
2.2277749 -1.1017864 -0.14037818 2
2.3869553 5.6863289 -0.2456225 2
2.0450685 10.220021 -0.29911631 2
2.458076 -6.7895727 -0.095377751 3
2.5808032 -1.8531163 -0.14612813 2
2.76177 -0.89760309 -0.16136695 2
2.5804324 -0.64313221 -0.15187988 2
2.4681313 0.071723312 -0.15243044 1
2.422303 0.85830116 -0.1720188 1
2.4424787 1.7277963 -0.19263203 1
2.5198646 2.9040751 -0.20728315 2
2.7010775 10.847942 -0.29917356 2
2.6596603 -4.414103 0.01892893 3
2.8256917 -0.56739223 -0.16687812 1
3.1222754 1.1291201 -0.18602563 2
2.8984165 1.3610564 -0.18506305 1
3.0139329 2.7533436 -0.20523848 2
2.8137038 2.8210063 -0.20625736 2
2.8020244 -4.5877614 0.051926818 4
3.3808193 -3.4984238 -0.10792077 3
3.3346674 0.2037877 -0.17067163 2
3.2225039 5.4154124 -0.23855893 2
3.4613163 8.3381348 -0.051885139 3
3.7807593 -3.422884 -0.10388692 3
3.9242887 2.0770025 -0.18911003 2
3.6863301 7.9507351 -0.063834414 3
3.6821175 7.843327 0.19967759 4
3.6424465 7.9762797 0.51216125 5
4.0969739 -1.6662846 -0.13081869 2
4.0716052 1.9206034 -0.185085 2
4.4492497 -3.2499888 -0.091837592 3
4.4267154 -2.9327383 -0.091826215 3
4.6565781 -2.791013 -0.096811131 3
4.6395063 0.66811466 -0.15193029 2
4.7382269 3.538137 -0.19325736 2
4.6362505 3.8054945 -0.19929554 2
4.5838037 5.5525203 0.070484497 4
4.9967098 -2.5136261 -0.085792065 3
5.1488194 -2.1425905 -0.09578409 3
4.8770962 -1.3350859 -0.11430267 3
4.8842769 -0.22072217 -0.13885361 2
4.8018022 1.4706618 -0.14800718 2
4.8835616 5.3449349 0.052523676 3
5.2115703 -1.8723439 -0.097783625 3
5.2034802 3.0845733 -0.18218124 2
5.2279921 8.6701155 -0.14586073 3
5.3515849 5.33217 0.052546497 3
5.6326451 3.7932851 -0.18325026 2
5.7738495 4.2793598 -0.020304158 3
5.9021935 4.8203807 -0.025365464 3
6.0437732 3.6519303 -0.013215973 3
6.0942516 2.069694 0.22696941 4.3333335
6.0526013 2.0400767 0.5189712 6
6.6173391 -0.30246496 -0.098809488 3
6.5479398 3.4966922 -0.13017747 3
6.5198784 1.950712 0.033995625 3
6.9622822 -0.6591993 0.26721871 4
7.026309 1.0646697 0.036096029 3
7.2185335 -2.2674385e-05 0.029184526 3
8.0105829 7.2452679 -0.19057164 3
8.3719349 10.103429 -0.19090238 3
8.0699177 6.6742659 0.38650051 4
8.5494413 -2.5380974 0.101321 4
8.5730772 -2.1142282 0.27431294 4
8.846384 -3.1812921 0.1363367 4
9.4946804 -5.6452937 0.28532675 4
9.6484032 -5.0804076 0.19734873 4
9.880661 -4.0815716 0.16737093 4
10.250955 -6.744627 0.30432448 4
10.326189 -7.6089821 0.48928916 4
10.705762 5.0521588 0.025795067 3
11.640401 -11.66853 0.33011794 4
12.517459 -11.280211 0.23221338 4
12.402337 -10.181988 0.13427614 3
12.558784 1.2349898 0.060219001 3
12.704261 -11.070441 1.435241 6
12.586995 -11.220348 1.7522223 6
12.8847 -10.983375 0.92925894 5
13.012925 -10.840518 1.4372768 6
12.880444 -10.936525 1.9572616 7
13.154942 -10.640733 1.7292981 6
12.894709 -10.75681 2.2252743 7
13.030224 -10.689833 2.7142875 8
13.294576 -10.588676 1.4383106 6
13.275239 -10.76645 1.9922987 7
13.275448 -10.56379 2.2363107 7
13.614789 -1.2767018 0.049402058 3
14.452064 -15.988016 0.58300626 4
14.620499 -9.9508018 2.8024232 8
14.862442 -9.9046688 2.2481048 7
15.072357 -9.7677984 2.8324554 8
26.810238 4.1948104 15.943331 19
30.691538 -12.966562 14.421051 16
