# .PCD v0.7 - Point Cloud Data file format
VERSION 0.7
FIELDS x y z intensity
SIZE 4 4 4 4
TYPE F F F F
COUNT 1 1 1 1
WIDTH 119
HEIGHT 1
VIEWPOINT 0 0 0 1 0 0 0
POINTS 119
DATA ascii
-19.38036 7.5039153 0.87772954 4
-15.569775 4.2484517 5.1976414 13
-15.460917 4.0285954 6.0456748 14
-14.758183 11.469352 3.2276227 8
-14.346269 -2.2763803 14.858343 27
-14.043607 0.96859837 4.8682084 13
-13.821695 11.919873 1.5183108 6
-13.955991 1.1417116 5.9261317 15
-13.786747 11.976695 0.90229082 5
-13.52763 12.07231 0.51321244 4
-13.284867 12.147606 3.2121425 9
-13.303731 -0.56884778 4.5734997 13
-13.097784 -5.4893141 2.1961293 8
-13.031847 12.304055 2.018054 7
-13.015594 12.363196 2.8170381 8
-12.890679 -5.9373074 2.6602356 9
-12.785167 -1.6991363 4.4037328 13
-12.796109 -1.7100424 4.6957393 14
-12.741894 -1.6769671 5.2497144 15
-12.773892 -2.189723 9.1568956 22
-12.482805 -6.9593172 3.4044981 10
-12.408818 -3.0528846 9.0700932 22
-12.323032 -2.7159777 5.7969546 16
-12.29028 -2.8679173 9.658 23
-12.139177 -6.9659014 2.7564118 9
-11.649097 -8.4694185 1.7690855 7
-11.664088 -8.2685328 2.4630888 8
-11.4803 -8.481411 2.7281113 9
-11.506099 -4.8793864 8.9544964 22
-11.26334 -8.0784245 3.3601542 10
-11.222607 -5.1354656 9.545516 23
-11.205923 -4.6131191 11.378324 26
-11.233294 -4.38305 11.76125 27
-10.844236 -10.15272 2.3861663 8
-10.895568 -5.6932092 4.2456288 13
-10.940847 -5.648592 6.2486238 17
-10.685097 14.13007 0.75720042 5
-10.699469 -10.494612 2.6791804 9
-10.694808 -6.1314883 3.715735 12
-10.790713 -5.7622547 4.4476261 14
-10.798725 -6.3757925 8.9278526 22
-10.27558 -6.5116448 11.356767 26
-9.988924 -7.4748502 3.8003652 12
-9.7582598 -7.8096795 4.0943918 13
-9.6475229 -8.0186634 5.052403 15
-9.6986341 -8.108777 6.1603928 17
-9.395792 -8.5003281 3.8854296 12
-9.096365 -9.129138 4.85746 14
-8.8816624 -9.6698694 4.0534782 12
-8.9796438 -9.424099 5.693471 16
-8.9347162 -9.3741322 6.3024769 17
-8.6810703 -10.022823 5.430501 15
-8.6355963 -10.531028 9.1844959 21
-8.3105974 -10.988423 4.3965316 13
-8.1587915 -11.237312 4.3235483 12
-6.5632644 -14.28473 10.8067 21
-5.3738737 -2.7374532 0.21212704 4
-5.1167483 -3.251626 0.23024416 4
-4.3110247 -5.6336951 0.067274094 4
-4.3649755 -5.6327519 0.44426605 5
-0.64103711 -1.5770005 0.32625082 9
-0.64764148 -1.5653503 0.52591717 12
-0.42118183 -1.5442362 0.2599422 8
-0.40965217 10.565948 1.8762134 9
-0.30902293 -1.5302022 0.45295349 12
-0.38950768 -1.5792487 0.77294374 17
-0.15542738 -1.9901232 -0.0010512911 3
-0.15442984 -1.9701253 0.056949563 4
-0.16920055 -1.6601424 0.28296041 8
-0.10570315 -1.7451273 0.41096222 10
0.16765919 -2.1730459 -0.040033307 3
0.027071815 -1.913414 0.1196327 5
0.93039215 10.700839 0.91406703 6
1.024377 10.627728 0.60607076 5
1.1066549 10.756803 1.4580432 7
2.7696764 5.7207456 0.53375959 6
2.8157411 5.6227107 0.41677424 5
3.0181007 5.5316672 0.79977995 7
3.4276636 5.3234248 0.27079734 5
3.4827886 5.2824388 0.55080199 6
4.3740993 2.0964892 0.20933677 5
4.541316 1.5105755 0.35443005 5
4.4246893 1.7965493 0.37038696 6
6.8351417 -2.3951001 0.28179109 4
6.8877163 -2.1191709 0.42676342 5
7.1882114 10.036983 4.6297936 14
8.2843103 6.1060867 5.5724397 18
9.8290205 27.308611 9.5167198 13
9.9938889 27.354321 15.335701 18
10.128414 -11.734279 0.78603053 5
10.171232 27.373556 10.476687 14
10.684863 -11.47739 1.529024 6
10.83052 -11.073456 2.3930175 8
11.207114 -10.836558 1.9700075 7
12.111279 -10.429799 1.2489808 6
12.59084 -10.158926 1.8689606 7
12.624142 -0.42884913 5.0592232 15
12.799472 22.842607 20.013296 23
16.387381 -27.558689 0.65001607 4
17.324389 12.739149 16.380838 23
17.738316 12.263004 15.651903 22
17.971258 18.006674 19.962881 23
18.176167 -26.655954 1.6960555 5
18.424028 -26.605991 0.67705911 4
18.665697 9.908536 20.653265 27
19.277695 9.0464401 20.137377 26
19.66486 7.7686787 21.736572 27
20.159401 7.2091088 15.470635 22
20.077477 7.0522432 16.417665 23
24.337255 5.8795476 20.15761 24
24.406694 5.098104 25.68272 27
24.774876 4.1243315 13.654848 18
25.054544 4.7218051 9.4157438 14
25.448801 2.0123348 24.040106 26
27.335503 -0.34523207 14.718308 18
28.542116 -41.603947 12.298089 10
29.163664 -40.729084 14.850101 12
30.819458 -38.380539 9.0771151 9
32.462334 -36.030991 14.213099 12
