# .PCD v0.7 - Point Cloud Data file format
VERSION 0.7
FIELDS x y z intensity
SIZE 4 4 4 4
TYPE F F F F
COUNT 1 1 1 1
WIDTH 700
HEIGHT 1
VIEWPOINT 0 0 0 1 0 0 0
POINTS 700
DATA ascii
-20.409893 6.5483909 1.1092545 5
-19.424696 8.026741 0.47260171 4
-19.370245 7.5179925 1.2647234 5
-18.44508 10.196433 6.2508016 12
-18.495592 10.208953 8.3078127 15
-18.358179 10.0185 6.7998247 13
-18.279261 9.8705473 7.2508421 13
-18.280207 9.7897329 7.9638624 14
-18.388895 10.081717 7.6688166 14
-17.758778 8.6903105 3.17101 8
-17.657635 8.7262506 3.4509757 8
-17.769548 8.7644234 3.6849942 9
-17.406069 8.0306454 5.6670909 12
-17.354055 7.9477267 6.187099 13
-17.274166 7.7937732 6.6091185 13
-17.361786 7.9969153 7.0150886 14
-17.35486 7.8999982 7.2991118 14
-16.075418 10.848385 2.9755731 8
-16.087326 10.841002 3.4360774 9
-16.269669 5.0259423 8.9896049 18
-16.184404 5.1348839 9.2915535 18
-16.106287 5.1348963 9.7225332 19
-15.92822 10.893807 3.4090273 9
-15.920971 4.7302442 9.4750967 19
-15.542991 4.1863279 4.7366514 12
-15.371515 3.8103256 5.0957136 13
-15.23895 3.495353 5.4567695 13
-15.24274 3.6153245 5.4667363 13
-15.452987 4.0564637 5.5746651 13
-15.284444 3.7289422 5.8897142 14
-15.437575 4.2444773 5.9306078 14
-15.246614 3.5905015 6.1447439 15
-15.49968 4.0927525 6.5906658 15
-15.576903 3.6145699 8.9998236 19
-15.16549 8.9895668 -0.10570298 3
-14.946959 2.9780338 4.8978429 13
-15.158244 3.3861799 4.9947796 13
-14.850209 2.7780755 5.2768764 13
-15.042645 3.0982203 5.3548331 13
-14.943321 2.9417379 5.7003531 14
-15.117635 3.3303444 5.7942853 14
-15.114065 3.2815049 6.4067979 15
-14.438993 11.625865 2.7435155 8
-14.654156 11.515167 2.9425888 8
-14.566011 11.546142 3.2985618 9
-14.634343 2.2138658 4.7479863 13
-14.459643 1.9918211 5.1030068 13
-14.591223 2.1670258 5.5319886 14
-14.712056 2.7650743 5.902844 15
-14.560063 2.1641474 6.163981 15
-14.233815 11.713627 2.7584493 8
-14.069551 11.833482 3.0263855 8
-14.130624 11.750616 3.2664173 9
-14.116368 1.1395448 4.5351758 13
-14.070731 -3.7371919 14.87627 27
-14.109833 -3.3037763 14.936629 27
-14.191699 -2.9932892 14.933044 27
-14.253543 -2.4024518 14.821362 27
-13.955228 5.7638903 -0.31318942 3
-13.627401 13.835202 0.76286244 4
-13.931864 11.892902 1.0733415 5
-13.721968 14.164319 1.0613148 5
-13.752738 14.258462 1.6528018 6
-13.811573 11.920977 2.0593085 7
-13.755684 14.20259 2.2198136 7
-13.896009 11.876719 2.7268374 8
-13.693248 11.945095 3.2362769 9
-13.981837 -3.5403428 14.932678 27
-13.324933 12.166087 0.56814772 4
-13.274131 13.206852 0.45391718 4
-13.434949 12.113297 0.95668322 5
-13.42132 12.119397 1.5061787 6
-13.40122 12.101493 2.037178 7
-13.46912 12.082211 2.7056978 8
-13.449228 11.826941 3.6842482 9
-13.361601 -0.4658922 4.2704811 13
-13.292747 -0.61776215 4.8915124 14
-13.135975 4.0554051 -0.24793813 3
-12.956615 12.34713 0.41652852 4
-13.000019 12.34978 0.91553754 5
-13.013955 12.303924 1.4920503 6
-12.807187 -6.0984926 2.2082717 8
-12.984162 -5.7601361 2.1584463 8
-12.902866 -6.0123062 2.5492659 9
-13.058723 12.293728 2.6885624 8
-12.961416 12.422211 3.2090139 9
-12.953491 -1.3541163 4.1536632 13
-13.072865 -1.0630609 4.1845989 13
-12.902523 -1.4419937 4.7336788 14
-13.093412 -1.060262 4.6016035 13.333333
-12.89629 -1.3559755 4.9306483 14
-13.088004 -0.98088193 4.8960762 14
-13.167028 -0.76683164 4.9975266 14
-12.881291 -1.4018856 5.2806602 15
-13.011682 -1.117818 5.307601 15
-12.433189 -6.9612198 2.2114863 8
-12.604275 -6.567615 2.2043881 8
-12.742584 -6.2645416 2.1563144 8
-12.481966 -6.9195638 2.5854836 9
-12.582326 -6.6365232 2.5550737 8.666667
-12.432611 -6.773592 2.8044181 9
-12.726303 -6.2243743 2.8382962 9
-12.79412 -1.6382221 4.1117144 13
-12.75692 -1.644053 4.9007068 14
-12.598855 -2.6257932 9.1134968 22
-12.423333 -2.8448985 9.2010269 22
-12.516735 -2.5778687 9.2359591 22
-12.618142 -2.3118284 9.2768955 22
-12.427483 -2.5058813 9.6489105 23
-12.517121 -2.3607905 9.7838869 23
-12.158628 13.323646 0.45265698 4
-12.109607 13.263677 0.81965882 5
-12.111766 -7.6359272 2.2686481 8
-12.246448 -7.3538465 2.2185805 8
-12.247097 -7.3817682 2.4615905 8
-12.182786 -3.0834875 9.5965462 23
-12.3594 -2.69839 9.6719599 23
-11.713286 13.481155 0.4575333 4
-11.824822 13.414862 0.84856945 5
-11.646167 -8.5124559 2.2590849 8
-11.873018 -8.1611042 2.2437782 8
-11.990381 -7.892519 2.2537103 8
-11.634191 -8.4474983 2.6610887 9
-11.609124 -8.2375221 2.6070981 9
-11.933687 -7.8489661 2.6896799 9
-11.861518 -7.5231075 2.7315426 9
-11.586114 13.548061 0.69649404 4
-11.307125 13.417329 0.91346306 5
-11.452068 -9.311203 2.358094 8
-11.487075 -9.2862606 2.7170899 9
-11.531281 -8.5803967 2.4761009 8
-11.485154 -8.0994864 2.7031205 9
-11.240784 -9.3351507 3.1471255 10
-11.317614 -5.3887739 9.0086298 22
-11.463504 -5.0598741 8.9850502 22
-11.327157 -4.9291224 9.3738012 23
-11.385694 -4.1409445 11.796205 27
-10.898656 -3.8628788 -0.011024201 3
-10.935185 13.877652 0.57663178 4
-11.019876 13.556493 0.82337767 5
-10.843997 13.812295 0.89079291 5
-10.893874 14.256418 1.5012168 6
-10.895235 -10.158277 2.7121589 9
-11.124516 -9.98242 2.5611281 8.5
-11.13797 -9.7435064 2.9886315 9.5
-10.819382 -10.301758 3.2481666 10
-10.963181 -9.9768896 3.2121522 10
-11.126529 -8.352293 3.3821685 10
-11.007159 -9.8719692 3.6301484 10
-10.83063 -6.5492029 3.8209219 12
-10.811022 -5.8313732 3.8966565 13
-10.84084 -5.7812982 4.0796461 13
-10.845895 -5.6746368 6.4446092 18
-10.943348 -5.4675441 6.5735593 18
-11.157076 -5.7170329 9.0077066 22
-10.955829 -5.6356244 9.5616245 23
-11.09843 -5.4451032 9.256093 23
-11.189645 -4.5071211 11.552282 26
-10.713311 -1.0838985 -0.1610239 3
-10.689245 14.035047 0.58121955 4
-10.712439 -10.456117 2.5806794 8.5
-10.469878 -7.0185175 3.8169994 12
-10.455932 -6.6025963 3.9198444 12
-10.572288 -6.3415236 3.9087791 12
-10.482042 -6.5425072 4.167829 13
-10.667448 -6.1677246 4.1270742 13
-10.769165 -5.9303002 4.2306809 13
-10.408711 -6.571485 4.5098205 14
-10.598206 -6.1633716 4.4752216 14
-10.709542 -6.3128219 9.2318048 23
-10.391539 29.151974 1.3005024 4
-10.057044 -11.775089 2.7262478 8.5
-10.090289 -11.764132 2.9882426 9
-10.174224 -11.609227 3.3962328 10
-10.192698 -7.2640133 3.8073399 12
-10.127696 -7.1410141 3.9383531 12
-10.047848 -7.3269434 4.0903592 13
-10.236784 -7.0170078 4.1745367 13
-10.365349 -6.7876134 4.0808883 13
-10.0658 -7.1410375 4.5613623 14
-10.034892 -7.2140408 4.9433651 15
-10.014933 -7.0911331 5.7503715 16
-9.9463415 -1.4746617 -0.15209845 3
-9.9923067 -11.890981 1.9712541 7
-9.7947226 -7.8299284 3.9061358 12
-9.6280079 -8.1550455 4.1629019 13
-9.8077507 -7.8417115 4.2088828 13
-9.9595003 -7.5203581 4.1533675 13
-9.6634541 -7.9756455 4.6684017 14
-9.9530087 -7.4299154 4.6013713 14
-9.6147251 -8.234684 5.9574032 16
-9.6027422 -8.1707239 6.3234057 17
-9.3069954 -8.8192272 3.939435 12
-9.5625677 -8.2564621 3.8674104 12
-9.2444668 -8.9905167 4.1707735 12.666667
-9.4234495 -8.6229439 4.1428223 12.6
-9.5546551 -8.3824606 4.1444077 13
-9.5496693 -8.2785273 4.7224107 14
-9.2576494 -8.856286 5.0054417 14.5
-9.5177364 -8.29354 5.0964165 15
-9.2592144 -8.8823338 5.5914407 16
-9.5147953 -8.3415661 5.4934158 16
-9.3212442 -8.9450741 6.1640964 16.666666
-9.4674435 -8.4575777 6.1694193 16.5
-9.5768356 -8.3816566 6.2004042 17
-9.379178 -8.7944994 6.5514245 17
-9.2983007 -8.8204985 7.1134357 18
-9.083581 -2.7032809 -0.059908349 3
-8.88696 -9.7701225 4.232975 12.5
-9.0917892 -9.3506413 4.1716547 12.6
-8.8128271 -9.7478981 4.9834876 14
-8.9765882 -9.456027 4.9294691 14
-8.8378391 -9.7329464 5.3714848 15
-8.976615 -9.4360638 5.3084698 15
-9.1233883 -9.1531849 5.2544551 15
-9.1204271 -9.1502151 5.6394558 16
-9.1505156 -9.2937613 6.2584462 17
-8.9611712 -10.03427 9.0634565 21
-8.8263054 -10.037223 9.3764791 22
-8.9630957 -9.7463388 9.3024645 22
-9.063921 -8.8687534 11.670472 26
-8.6664476 -9.6543999 -0.28248805 3
-8.4084578 -10.804493 4.3795214 13
-8.5205173 -10.515331 4.2952623 12.5
-8.6521902 -10.242683 4.2543736 12.5
-8.7248945 -9.9527493 4.092495 12
-8.5986805 -10.236724 5.094008 14
-8.5512924 -10.349715 5.5115123 15
-8.7239847 -9.7939062 5.7524991 16
-8.5487309 -10.644995 9.5485058 22
-8.3232403 -10.967427 4.3285308 12
-8.1688156 -11.321316 4.4445448 13
-8.255681 -11.11538 4.4085364 13
-8.1917868 -11.045423 5.2815485 14
-6.9300113 -2.4648654 -0.24956004 2
-6.6571732 -14.24777 10.730687 21
-6.2346234 -2.5236394 -0.21872261 2
-6.3627024 -1.4302667 -0.13056687 2.5
-5.8421884 5.7588396 -0.15013044 3
-5.74335 19.185997 0.4734841 4
-5.4538975 -5.005363 -0.21287978 2
-5.3854299 -3.2164047 -0.053698454 3
-5.4954209 -1.6657103 -0.20021693 2
-5.278945 -2.9469302 0.15157709 3.8
-5.061182 -2.3860366 -0.26707989 2
-4.8965106 -4.8770986 0.01620763 3
-5.1827502 -3.1006281 0.076207004 4
-4.5330796 -6.1567326 -0.11077341 3
-4.6715946 -5.7708478 -0.10178329 3
-4.5421829 -3.356138 -0.29169515 2
-4.765234 -0.91676855 -0.23566529 2
-4.4299121 -0.53226304 -0.2203813 2
-4.4047275 -0.22638625 -0.22298639 2
-4.7461872 1.9353775 -0.1965166 2
-4.3380122 -7.2275333 -0.19027521 2.5
-4.022366 -4.4806623 -0.29665062 2
-4.3215113 -2.8227925 -0.27011791 2
-4.1383905 -2.4290895 -0.25930694 2
-4.1164427 -2.1601782 -0.25940844 2
-4.3708248 -5.4892502 0.16426924 4
-4.1271024 16.55864 0.35669333 4
-3.8928695 -4.7595577 -0.30463931 2
-3.6363037 -0.99953204 -0.23543869 1
-3.630228 1.0753323 -0.19957398 2
-3.5814593 -4.8153944 -0.29959506 2
-3.4291654 -1.6031048 -0.24978618 1
-3.229214 -1.3244034 -0.23393624 1
-3.2033892 -1.1384838 -0.23100704 1
-3.3549366 2.5931509 -0.17500556 2
-2.9432402 -2.9373162 -0.23444535 2
-2.9085464 2.6271484 -0.18011047 2
-2.4440043 -1.7052342 -0.22317094 1
-2.5743582 -1.4346204 -0.22457202 1
-2.4626682 -0.46552229 -0.20443003 1
-2.4000666 -0.27765456 -0.2020067 1
-2.7403686 1.7231427 -0.18295358 2
-2.6366475 2.7418334 -0.1751899 2
-2.6382608 7.3664932 -0.078002468 3
-2.0036423 -6.7386198 -0.054438207 3
-2.3179584 -2.1021097 -0.23132679 1
-2.0385506 2.0222976 -0.17717008 1
-2.3787625 2.8495412 -0.17026189 2
-2.2847297 7.4581728 -0.079067513 3
-2.1701903 10.784059 0.2013773 4
-1.6459484 1.1270391 -0.17407148 1
-1.9265101 1.6992331 -0.17212905 1
-1.9035895 2.1811266 -0.17272711 1
-1.6690027 2.4488447 -0.16531909 2
-1.8833565 7.3508263 -0.079103701 3
-1.4964118 -5.9854579 -0.30034843 2
-1.4640303 -4.8314767 -0.26830345 2
-1.3208338 -1.8990995 -0.20718017 1
-1.5009931 1.2315171 -0.17245746 0.33333334
-1.4432452 2.1256471 -0.16030107 1
-1.4547645 2.6469431 -0.15805548 2
-1.3771114 3.2674918 -0.15050507 2
-1.549804 7.477541 -0.082166404 3
-1.5106063 -2.5666442 0.10977009 4
-1.2091634 12.36925 0.030010607 3
-1.0941617 -5.426343 -0.28228012 2
-0.83607715 -3.399312 -0.021175679 3
-1.1446909 -1.9155091 -0.20215759 1
-1.0337104 1.7727604 -0.16180736 1
-0.95817065 2.5751317 -0.15345018 2
-0.92603815 -1.6701293 0.31921321 8
-0.94114584 -1.6784772 0.43487763 10
-0.46666479 -4.9441752 -0.25719291 2
-0.67067283 -3.3972588 -0.01515692 3
-0.55385083 -2.9062212 -0.20812558 1
-0.47941533 1.4937323 -0.15633728 0
-0.62229288 1.7127752 -0.15793788 1
-0.62196428 2.4903305 -0.14272797 2
-0.61231893 -2.5242648 0.083882742 4
-0.74579823 -1.6197115 0.29890364 8
-0.5891856 -1.5667182 0.32829061 9
-0.50959319 9.8487196 0.0083380872 3
-0.76200348 -1.6073936 0.40490228 10
-0.57747012 -1.5523181 0.51280051 12
-0.52423322 10.77889 0.99419117 6
-0.46875739 10.548951 1.6172221 8
-0.32294381 -3.3531494 -0.21811879 1
-0.048597373 -1.966593 -0.043291662 2.5
-0.38055047 1.5616382 -0.1543583 0
-0.25379363 1.6798581 -0.15288849 0.66666669
-0.39795229 2.5346353 -0.14350943 2
-0.28564104 3.3075395 -0.1381427 2
-0.017286979 3.9813342 -0.12877466 2
-0.040775586 4.7833557 -0.11490049 3
-0.11326212 -1.7814562 0.20490463 6.7777777
-0.10967053 -1.7101343 0.5424633 12.5
-0.32642132 -1.569906 0.60481924 14.142858
-0.23459342 10.748602 0.54216677 5
-0.069383755 10.876466 0.43713024 4
-0.26915649 10.603697 0.9746933 6
-0.36969727 10.573336 1.3697083 7
-0.34856758 10.566935 2.0732069 9
0.19802873 -2.2343724 -0.082200028 2
0.017479407 -1.940577 -0.038035668 2.5
0.17213263 1.7853577 -0.14676926 1
0.20119102 2.5949233 -0.13731952 2
0.20483585 -2.2620432 0.091632806 4.3333335
0.01610242 -1.9165827 0.10796511 5
0.27588746 10.83124 0.57410449 5
0.22541147 10.82784 0.99010968 6
0.13034546 10.753469 1.3736308 7
0.2280568 10.858956 1.7411044 8
0.15105732 10.854577 2.1451123 9
0.52558643 -3.0599897 -0.21603943 1
0.53822643 1.7081981 -0.14244054 1
0.51203072 2.4359624 -0.13656312 2
0.62235546 6.2698965 -0.074195132 3
0.75135118 -3.8049703 0.03195139 3
0.51889837 -3.4459963 0.023947882 3
0.6600225 -3.1754863 0.25784019 5.5
0.41982627 -2.7990105 0.063962393 4
0.67408168 -3.1689897 0.47196618 8
0.81016773 -5.4209514 -0.26409718 2
0.96048486 -4.874939 -0.25206891 2
1.1237915 -1.8589878 -0.19199513 1
1.1644855 -1.4502876 -0.18426593 0
0.99276549 1.275969 -0.14762466 1
1.0416588 3.223139 -0.12422413 2
1.1621025 5.9615493 -0.073185682 3
0.9037571 6.1637111 -0.07519985 3
1.0393441 10.645663 0.25006664 4
1.1364971 10.674653 0.60705382 4.5
1.0935031 10.647738 0.97156167 6
0.9294697 10.743891 1.2420602 7
0.92858154 10.776981 1.8280549 8
1.1848372 10.854811 1.8510207 8
0.89651811 10.636049 2.1330802 9
1.5514292 -4.3029184 -0.23102133 2
1.5637141 -3.7199345 -0.21700847 2
1.324379 -2.9614544 -0.21000235 1
1.4674826 -2.7479668 -0.20599666 1
1.5711901 -2.3359954 -0.2019946 1
1.5409365 -0.11668939 -0.16457371 0
1.4901304 0.17161226 -0.16270997 0
1.4725163 0.60935038 -0.15756987 0.5
1.4315397 0.85858965 -0.1523042 1
1.5739474 1.6054522 -0.1364547 1
1.2733883 3.1665115 -0.1217261 2
1.4164801 5.8023949 -0.072176762 3
1.2685012 8.7665081 0.19935079 4
1.640094 -3.4409454 -0.21300164 2
1.6265974 -2.1880109 -0.20099573 1
1.6995927 -1.7875559 -0.18817149 1
1.9113619 -1.3891385 -0.17727768 1
1.895396 -1.0519359 -0.17204899 1
1.8159709 -0.60424644 -0.16583559 1
1.8222256 -0.2290723 -0.16088276 1
1.6056329 0.58557749 -0.15325783 1
1.6630754 1.1114765 -0.14636208 1
1.7470351 2.2045815 -0.1253233 2
1.8912328 5.2891321 -0.079120032 3
1.6698791 5.6742496 -0.072171554 3
1.6277293 8.445281 0.18537582 4
2.2715778 -0.0074881013 -0.14919311 1
2.3244278 0.61811167 -0.14479941 1
2.3214605 1.4807042 -0.13195795 2
2.1737206 5.2359843 -0.077126428 3
2.4385064 -4.5389371 -0.20899852 2
2.5268905 -4.2229609 -0.2049939 2
2.5282805 -3.8119879 -0.19699191 2
2.5619464 -3.1070492 -0.18999487 2
2.5055192 -2.6180909 -0.17900226 2
2.6118703 -2.2656519 -0.17501503 2
2.6592548 -1.8294743 -0.17053631 2
2.6662486 -1.4452902 -0.16806012 2
2.6871405 -0.88190448 -0.1566097 2
2.6729281 -0.57571697 -0.15439261 2
2.5731375 0.57280093 -0.14130479 2
2.7455351 2.7788818 -0.11971661 2
2.6962197 3.8828022 -0.092914946 3
2.7766516 -7.6738329 0.0029509044 3
3.0586293 -1.4643774 -0.15807922 2
3.0646884 -0.31762812 -0.15119915 2
3.0646222 5.4250827 0.26479641 5
2.8809803 8.1035843 0.35934964 4
3.0641258 5.4370651 0.49867532 5.5714288
2.8277712 5.6587214 0.5527674 6
2.8388197 5.6722488 0.80876446 7
3.2624295 5.3364968 0.26680261 5
3.3380194 5.3079395 0.50824857 5.6666665
3.8156652 1.8123507 -0.11491919 2
3.8760662 2.3555632 -0.10268621 3
3.9328153 4.3632627 -0.065053508 3
3.7224052 4.5453253 -0.067077294 3
3.620873 5.4073143 0.10077374 4
4.0475564 -5.4340343 -0.23098679 2
4.3905444 0.41583773 -0.13638493 2
4.2832952 4.3241367 -0.066061325 3
4.374454 1.9005415 0.35537133 5
4.3952503 2.0285101 0.36134776 5
4.3155828 5.8269882 0.10866823 4
4.3733125 1.9845315 0.43235657 6
4.5171518 -10.804762 -0.20204812 3
4.5613222 -0.12157436 -0.13831861 2
4.4580488 0.2068713 -0.13735816 2
4.5762 1.5818753 0.25808269 5
4.4921451 1.8036593 0.27532664 5
4.401237 2.0405076 0.37734532 6
4.7807417 2.5782561 0.026231727 3
4.4270821 3.6431952 0.099055834 4
4.5108876 1.5589261 0.58675677 7
4.4659071 1.7967178 0.52755135 6.6666665
4.9331532 -2.1796858 -0.1286236 2.5
5.1026216 -0.51911616 -0.084300391 3
4.915853 -0.14516045 -0.086837381 3
5.3325605 0.5115611 -0.090455696 3
5.5955343 1.1413374 -0.022567905 3
5.3131213 -0.78509033 0.20571877 4
5.3060493 1.3553727 0.062414102 4
5.6140218 0.28554207 -0.091439813 3
5.8276019 -1.1421471 0.03672782 3
6.2638764 -5.6273766 -0.17801058 3
6.3609095 -3.3897827 -0.16011024 3
6.2991676 34.070896 11.513865 13
6.3733106 33.987034 12.784872 14
6.6167293 -4.949554 -0.1560422 3
6.6289172 33.839573 10.733873 12
6.5975556 33.710312 12.210398 13.5
6.8967714 -2.2132299 0.14403805 3.5999999
6.945003 5.7590218 0.036563382 3
6.8439641 -2.2721245 0.42077979 5
7.1731572 10.002952 4.2837992 13
7.1940889 32.584179 10.350038 12
7.0621715 32.35149 11.936085 14
7.1922808 32.56538 11.71504 13
7.2900891 -1.8203644 0.036711227 3
7.2146168 8.8245506 0.16600575 4
7.2771487 10.076826 3.6597824 12
7.2821994 10.115864 4.0067749 13
7.2071943 9.8889742 4.5328183 14
7.4888906 32.104084 10.915092 13
7.4860411 32.041267 12.191101 14
7.9586487 -3.2682009 -0.08519844 3
7.6600652 -1.1606348 -0.11038174 3
7.7321253 3.17226 -0.05702034 3
7.7198238 31.838032 11.487118 13
7.7348819 31.845076 11.846117 14
7.797894 31.751106 12.292127 14
8.3892975 6.309011 5.4743991 18
8.2063465 5.9741678 5.9244676 19
8.0421925 6.1411967 5.8914452 19
8.0682554 6.0472169 6.04846 19
8.7975864 -6.5747428 0.16894968 4
8.406229 -3.9771435 0.3118304 4
8.7441034 29.387165 9.4104471 12
8.65137 29.512415 10.788433 13
8.6063604 29.419489 11.137451 14
9.0390453 -3.2164893 -0.10726065 3
8.9359751 29.000141 9.9874973 13
9.1023378 28.592642 10.593554 13.5
8.8672361 29.129366 11.311481 14
9.4842072 27.487915 10.383712 14
9.4732647 27.625898 10.23269 13
9.2827291 28.261108 11.060597 14
9.3619032 27.504669 15.303716 18
9.4798641 27.267691 15.899747 18
9.8857107 -8.9315987 0.24099211 4
9.645196 27.334888 10.789726 14
9.8198051 27.152475 15.698746 18
10.180765 -11.55831 0.30202901 4
10.192492 2.5727265 0.080942295 3
10.359081 -11.467346 0.77802676 5
10.090203 27.397566 10.224687 13
10.558388 -11.388393 0.26152432 4
10.601818 -11.324072 0.60168964 4.3333335
10.719802 -11.416403 1.6840228 6
10.630723 -11.184412 1.929521 7
10.535846 -11.268381 2.3920231 8
11.004419 -11.130498 0.77601564 5
11.07046 -11.251484 1.6890163 6
11.023976 -10.955177 1.9300123 7
11.162193 -10.906535 2.4010098 8
11.33309 -10.950583 0.77400756 5
11.56277 -10.678664 0.76699805 5
11.234228 -11.060543 1.2410114 6
11.431916 -10.769618 1.2350026 6
11.326124 -10.980565 1.6790081 6
11.529305 -10.682142 1.7384986 6.5
11.813045 -10.55822 1.3654906 6
11.800584 -10.599703 1.9019915 7
11.844555 -10.581707 2.4259906 8
12.231147 -10.329834 1.4909753 6
12.19476 -10.464799 1.9889793 7
12.26516 -10.364825 2.0969751 7
12.190232 -10.403799 2.437978 8
12.463964 -10.259895 1.2569674 6
12.54741 -10.234406 1.8359642 6.5
12.555916 -10.232899 2.4519644 8
12.64308 -0.36688977 4.7132149 14
12.610214 -0.50780612 5.4002347 15
12.55221 -0.47978458 5.6142349 16
13.020721 -15.922273 0.16804537 3
13.16838 -9.9240847 1.9999363 7
13.133088 23.798506 20.791115 23
12.828239 24.155651 20.867069 23
13.190458 23.198143 25.847214 26
13.107254 22.752228 26.040295 27
13.410149 -9.7681723 1.5059232 6
13.329201 -9.7741442 1.9109261 7
13.289237 -9.7931299 2.0779283 7
13.253295 -9.840106 2.4769313 8
13.654305 -28.871384 -0.55308533 3
13.769205 -28.801403 0.46392012 4
13.852155 -28.781412 0.41492349 4
14.350421 -19.247131 0.17805164 3
14.361823 -28.649456 0.94194335 4
14.251865 -28.620455 1.7389402 5
14.160911 -28.626455 2.4949372 6
15.086292 -28.201525 0.0069737392 3
15.559957 -28.004583 1.7259897 5
15.880735 -27.814621 0.34100091 4
15.747823 -27.873606 0.58599681 4
16.34342 -27.62068 0.87301433 4
16.227509 -27.711664 1.7220104 5
16.441351 -27.538691 -0.061982449 3
17.137867 -27.18479 0.50303543 4
17.226814 -27.1588 0.29103723 4
17.526608 -27.011845 1.7040434 5
17.53628 12.360051 15.560896 22
17.54635 12.298133 16.335907 23
17.827425 -26.89389 -0.13195072 3
17.776455 -26.915386 0.62404841 4
17.833281 11.965009 15.569951 22
17.958294 11.84299 15.606967 22
17.828348 11.902098 16.35696 23
17.613422 12.182201 17.103924 24
17.968369 18.364632 19.894819 23
17.626366 18.479765 19.995813 23
17.648479 18.80072 19.950758 23
17.882849 11.545662 21.808022 27
18.365067 -26.636978 0.81205815 4
18.127771 11.480985 15.557521 22
18.023321 11.441098 16.30703 23
18.345295 17.985525 19.90387 23
18.022827 11.34962 21.575048 27
18.069828 11.153652 21.775082 27
18.587635 10.077474 19.986238 26
18.796656 9.8274527 20.05327 26
18.57164 10.039497 20.105246 26
19.076183 9.3419533 20.168337 26
18.880661 9.6764498 20.039291 26
19.075705 9.0205469 20.601395 27
18.891705 9.4745331 20.643326 27
19.133791 8.750659 21.565435 27
19.567842 7.9236784 21.718552 27
19.428823 8.178174 21.682518 27
19.302319 8.5206585 21.709965 27
19.838215 -34.185074 4.4835076 7
19.974918 7.0757213 21.88867 27
19.788877 7.4077067 21.754625 27
20.049532 -33.891617 4.2430162 6
20.271318 -33.50766 4.4160261 7
20.365446 6.7811375 15.497696 22
20.226414 7.0651221 15.520657 22
20.313026 6.6762586 16.544712 23
20.07793 6.9097166 21.835688 27
20.41823 -33.416687 3.0890303 6
20.628532 -33.094227 4.2105374 6.5
20.463177 -33.335693 4.4390326 7
20.508482 6.3371844 15.489758 22
20.420462 6.6041613 15.55072 22
21.995827 -31.097044 3.0120745 6
22.35553 -30.641127 3.8820791 6
22.134672 -30.799084 4.3560767 7
22.218664 -30.892086 4.9930778 7
22.52038 -30.387177 2.9940817 6
22.622768 -30.159208 4.391583 7
23.033943 -29.693314 2.9780855 6
23.055906 -29.595324 4.3090858 7
23.211786 -29.409367 4.4150853 7
24.3911 5.8243842 18.067614 22
24.300098 6.0103784 18.157589 22
24.301191 5.8684969 19.326614 23
24.097162 6.2059793 19.267071 23
24.358713 5.1521297 25.991716 28
24.29368 5.5120521 25.655666 27
24.304752 5.3121557 26.560696 28
24.469715 5.464541 19.407667 23
24.733751 4.2456942 25.837332 27
24.710741 4.6381249 25.891773 27
24.529713 4.9061127 25.753748 27
24.651802 3.544379 26.128939 28
24.482756 4.0663123 26.000872 28
25.161619 4.4528885 10.061778 15
24.98967 4.0960579 10.577842 15
24.97563 4.6789227 10.582756 15
24.812899 3.9343693 13.716873 18
24.860359 4.6162033 13.780271 18
24.860847 5.0301161 13.888708 18
24.881907 4.9211893 14.628723 19
24.911789 3.7282553 25.932896 27
25.374544 4.2427769 8.6327953 13
25.497625 3.9668612 9.3418293 14
25.316607 4.1498771 9.4798126 14
25.230568 4.4788074 9.2947693 14
25.406679 3.8919616 10.138847 15
25.322878 4.0611582 13.132826 17
25.265736 2.5862546 23.910042 26
25.205805 2.3853681 24.722071 27
27.169472 -0.034253079 14.862279 18
27.173763 -0.15394656 19.421293 22
27.256422 0.23964794 14.707236 18
27.835632 -42.605793 12.361069 10
27.978216 -9.2483969 13.235209 16
27.931202 -9.0613956 13.936195 17
27.874166 -8.7774153 14.571174 17
27.89826 -9.0523329 15.275197 18
28.193411 -42.227863 9.410079 9
28.275318 -42.009884 12.36808 10
28.338846 -3.1008997 13.58758 17
28.112488 -42.455833 15.011077 12
28.03652 -42.483822 15.213075 12
28.26635 -42.137878 16.42408 13
28.766798 -3.1360404 12.939555 16
28.677849 -3.3069565 13.284581 16
28.79495 -41.323997 13.629092 11
28.501167 -41.755932 15.022087 12
28.863905 -41.229015 9.3150949 9
28.864826 -3.6799984 11.740614 15
29.008785 -40.982048 12.154595 10
28.962879 -3.7849517 12.620619 16
28.852972 -41.506985 14.982093 12
29.177835 -12.11201 15.047369 17
28.926859 -41.161015 16.266096 13
29.039762 -11.56505 16.143332 18
29.500412 -40.23819 9.2281055 9
29.493183 -5.8946486 11.318811 14
29.244604 -40.61211 12.2461 10
29.484436 -40.284164 13.460104 11
29.508862 -12.664042 13.282392 15
29.365324 -6.0294785 13.427831 16
29.311796 -12.166063 14.193365 16
29.488342 -5.9724813 14.313819 17
29.49947 -40.444153 14.920104 12
29.251722 -11.738111 14.942337 17
29.570385 -40.225174 16.129107 13
29.672302 -40.033218 12.191107 10
29.907112 -39.618282 12.185109 10
29.719217 -5.9156537 12.299798 15
29.635267 -5.9185886 13.150804 16
29.858219 -39.971237 14.738109 12
29.866405 -5.8164911 16.823778 18
30.371777 -39.001411 7.7791128 8
30.166933 -39.314354 9.1531134 9
30.08601 -39.475304 14.865111 12
30.219927 -39.30933 16.00111 13
30.551689 -38.854424 14.582114 12
30.775534 -38.538486 14.781114 12
30.406784 -39.018387 14.905112 12
30.842468 -38.353504 15.860114 13
31.824776 -36.960796 14.330109 12
32.103603 -36.633873 14.628104 12
32.369411 -36.204952 14.760101 12
32.121597 -36.591873 15.646106 13
32.751163 -35.706081 14.560095 12
32.713177 -35.690067 15.535095 13
