# .PCD v0.7 - Point Cloud Data file format
VERSION 0.7
FIELDS x y z intensity
SIZE 4 4 4 4
TYPE F F F F
COUNT 1 1 1 1
WIDTH 362
HEIGHT 1
VIEWPOINT 0 0 0 1 0 0 0
POINTS 362
DATA ascii
-32.195206 -15.94949 6.4407973 8
-32.128464 -16.128313 7.4633932 8
-32.098454 -16.471981 10.288221 11
-31.581652 -15.287926 10.017032 11
-31.53286 -15.006355 11.064359 11
-31.09775 -14.554594 11.559969 12
-31.054207 -15.007952 16.371452 16
-30.972677 -14.117107 16.189287 16
-30.893656 -14.408352 16.888487 16
-30.889633 -14.756897 17.825153 17
-30.700626 -13.741058 17.371426 16.5
-30.384506 -13.034114 15.760007 16
-30.308615 -13.047957 16.315277 16
-30.316858 -13.375474 18.181986 17
-30.157364 -13.280252 19.336048 18
-29.922094 -11.943791 5.740068 8
-29.790777 -11.93734 9.2007046 11
-29.752552 -11.809087 10.290385 12
-29.689093 -8.1028004 10.095267 12
-29.776007 -8.816268 15.344169 16
-29.663317 -9.2964458 15.70675 16
-29.778116 -8.6078844 15.70899 16
-29.328518 -10.966454 8.9854603 11
-29.242815 -9.3889666 8.8330364 11
-29.234514 -9.4015179 9.9990406 12
-29.231878 -11.143715 10.499194 12
-29.286715 -8.083931 14.661104 16
-29.505503 -12.210155 15.938939 16
-29.531559 -8.6260347 16.119959 17
-29.538052 -12.491848 16.739704 17
-29.276299 -12.048788 17.365559 17
-29.355736 -8.3816299 17.773689 18
-29.15324 -10.834572 10.041735 12
-28.577026 -9.9340219 8.6956768 11
-28.592495 -9.9916306 9.2783937 11
-28.546629 -10.082271 10.150243 12
-28.63356 -10.788744 14.66417 16
-28.478924 -7.7080851 14.591975 16
-28.517969 -9.9561443 14.94394 16
-28.421789 -10.32426 15.201899 16
-28.418507 -7.5914726 15.440703 17
-28.477198 -10.526939 15.886877 17
-28.67864 -9.851881 15.873693 17
-28.451286 -7.4308953 17.107229 18
-28.149157 -7.1823153 15.82546 17
-28.258886 -10.156357 16.440262 17
-28.225449 -7.6465101 17.069323 18
-28.365475 -7.0105171 17.101254 18
-28.332838 -6.7113338 16.918571 18
-28.204828 -10.200849 17.555334 18
-27.107244 -3.9377699 13.561671 16
-26.946405 -4.0538464 14.07189 16
-26.421026 -3.8474522 14.093913 17
-26.536068 -4.1403823 14.582272 17
-26.167826 -3.4479508 14.318569 17
-20.475481 14.781528 8.2010155 13
-20.550232 6.6281438 20.393599 26
-20.281015 14.981027 8.113862 13
-20.10136 15.24359 8.1986904 13
-20.357624 7.0289536 20.360317 26
-20.150394 13.543944 23.164371 26
-20.081076 13.715638 22.970276 26
-19.801802 15.662346 12.487419 17
-19.806419 15.243788 13.158577 18
-19.883669 15.074141 13.506671 18
-19.76289 15.469638 13.276475 18
-19.796995 14.180817 22.963982 26
-19.979591 13.883434 23.218168 26
-19.822102 13.993257 23.763063 27
-19.320261 10.686465 3.2572005 8
-19.248102 10.596704 4.1412082 9
-19.528349 15.849696 12.383245 17
-19.283487 16.218586 12.44802 17
-19.537237 15.763035 13.18428 18
-19.388842 15.912714 13.28217 18
-19.233122 16.256235 13.199987 18
-19.431801 15.786159 14.139234 19
-19.390831 8.7852001 20.166569 26
-19.117401 10.818424 4.3940597 9
-19.041801 11.032209 4.5119386 9
-19.032581 16.609468 12.536784 17
-18.910048 16.864111 12.489651 17
-19.002666 16.58004 13.354785 18
-19.119738 16.25036 14.175947 19
-18.839626 16.744633 14.247666 19
-19.123396 9.1314011 20.090796 26
-18.886406 9.4807215 20.164541 26
-18.802948 9.6713896 20.059422 26
-19.101421 9.0196695 20.71184 27
-18.906315 9.434 20.711571 27
-18.57979 -26.952236 -0.6329543 2
-18.650095 9.9908895 20.087219 26
-18.502523 10.203955 20.078068 26
-18.425245 10.213507 20.64603 27
-18.235615 10.643642 20.066521 26
-18.180241 10.596766 20.618765 27
-17.706102 8.489522 3.4364715 8
-17.940176 11.106743 19.994457 26
-17.6632 11.486943 19.930189 26
-17.751543 11.333259 20.06229 26
-17.116238 19.962973 13.575994 18
-17.134666 19.706123 13.673083 18
-16.816538 20.271383 13.736802 18
-16.666182 20.565817 13.116663 17
-16.702271 20.487961 13.294698 17
-16.72525 20.443117 13.603719 18
-16.498678 20.627827 14.136591 18
-16.712023 20.316561 14.927753 19
-15.457521 20.695961 26.857746 27
-15.212388 21.024427 26.930077 27
-14.924772 -19.671263 -0.33115029 2
-15.079925 21.306068 26.835953 27
-14.239107 24.561945 14.2943 17
-14.380814 24.260521 15.218922 18
-14.286534 24.259605 16.027897 19
-13.117808 -30.721828 -0.60372442 2
-13.147354 -5.1987948 0.069940753 3
-12.08706 -14.716413 0.36514556 3
-10.452339 -10.451177 -0.22132914 2
-10.501516 -7.7362933 0.19008644 3
-10.176332 -6.8743525 0.37283313 3
-9.6158409 -7.9619398 0.38493091 3
-9.7778358 5.0631189 0.59709764 5
-9.6488962 5.2877464 0.59844804 5
-9.8977499 5.0804839 0.95814067 6
-9.6604605 5.3773494 0.93241531 6
-9.553668 5.4560008 0.67333812 5
-9.3123789 -38.720604 11.284058 11
-9.2141094 25.356531 27.916418 27
-8.8447332 -8.0990028 -0.10036995 2
-8.8571539 -5.3868499 0.13320719 3
-8.8075933 -4.1110945 0.063433833 3
-9.1902618 6.0698671 0.34194246 4
-8.810009 26.97674 16.919945 19
-8.8797169 25.701836 27.445269 27
-8.5465403 -39.147842 11.19857 11
-8.5322771 28.060556 14.360635 17
-8.4964161 27.757761 15.209702 18
-8.5746145 27.489048 15.787779 18
-8.6877766 27.258387 16.359856 19
-8.7353888 26.089369 26.716146 26
-8.3709822 -9.5385332 0.23700178 3
-8.0285816 -1.4276159 0.47134796 4
-8.3909874 8.7643099 6.3876839 18
-8.2871141 8.9546318 6.1310878 17.333334
-7.892962 -1.4965041 0.32163778 3
-7.9609585 -1.5550638 0.65312487 4.5
-7.8708596 -1.5862064 0.85038096 5
-7.5828381 -1.3748877 0.072417609 3
-7.0318532 -19.557014 -0.39755574 2
-7.0308843 -2.1780386 0.3330321 4
-7.1231441 -1.9122543 0.31420246 4
-7.0551224 -2.0143878 0.41708249 4
-7.0761433 -1.9600002 0.59171379 4.5
-7.096818 -2.0077121 0.80294091 5
-6.6782784 -0.88758659 0.070154332 3
-6.5653939 -0.50522727 0.20116554 3
-6.2564516 -0.48734087 0.38353351 4
-6.2804246 1.5835187 0.15067197 4
-5.8288765 -1.4247355 0.038558409 3
-5.8109779 1.741464 0.12638304 4
-5.6136742 14.801927 5.1382713 13
-5.381669 0.78422117 0.082673728 4
-5.4645257 1.4438103 0.56870681 6
-5.4113121 1.6533897 0.54874742 6
-4.9962468 -19.885763 -0.74435282 1
-4.9750295 -6.5317345 -0.24997602 2
-5.1142917 -6.1013427 -0.23787625 2
-5.0395317 2.9792204 0.17950477 4
-4.9020538 8.1643324 0.33880171 4
-4.1715498 3.1532443 0.33659956 5
-4.0377011 3.2829306 0.34350395 5
-4.3006864 3.050338 0.46018624 6
-4.1273084 3.2124214 0.44856188 6
-3.7945893 -2.8075054 -0.13241209 2
-3.7002413 -2.4749191 -0.1237044 2
-3.7283831 -2.2275207 -0.1198441 2
-3.7503219 1.9961485 0.042378172 4
-3.9483693 3.4539347 0.33624586 5
-3.6761773 5.357862 0.39424375 5
-3.7875333 7.0226927 0.28982371 4
-3.9654818 3.3720317 0.42244682 6
-3.7547803 5.3542666 0.44964215 5.25
-3.5299022 -3.2835085 -0.15217774 2
-3.5595694 -3.006145 -0.1432104 2
-3.229923 -19.407005 0.3618848 3
-3.5876093 2.6245043 0.048072185 4
-3.5079162 5.4822125 0.3921636 5
-3.391485 5.6073251 0.39609921 5
-3.4936984 5.4675798 0.56916398 6
-3.1734352 -1.6926719 -0.10040182 2
-3.0717151 -1.3504711 -0.092114285 2
-2.8640618 0.48930243 -0.059826665 3
-3.0616219 -19.505178 0.13119397 3
-3.1126647 2.4936404 0.038943417 4
-3.1072667 6.0557814 0.39791194 5
-3.1539559 -19.454306 0.78002107 4
-3.1567271 5.9289351 0.57995623 6
-3.1132681 6.0513206 0.4989146 5.5
-3.0524828 -19.519979 0.89318627 4
-2.853745 -19.647455 1.6495223 5
-2.7478678 -19.668327 -0.74215978 1
-2.6616189 -0.64827132 -0.089086317 2
-2.5675592 -0.23129526 -0.071005799 2
-2.7385859 0.7313754 -0.053001415 3
-2.5165126 1.3230462 -0.027852215 3
-2.6964915 -19.708927 0.5439145 3
-2.6389811 -19.769785 0.89391953 4
-2.2211804 -8.7028923 -0.43996072 1
-2.1178572 -2.2030835 -0.16901223 1
-2.0411875 -1.8498094 -0.15929444 1
-2.023694 -0.90888041 -0.13047206 1
-2.3883076 -0.36392039 -0.083795086 2
-2.2170551 1.3659167 -0.039486125 3
-1.8109884 -4.6949172 -0.293531 1
-1.8657342 -4.0479908 -0.26621929 1
-1.7042627 -3.4322121 -0.2411266 1
-1.73247 -2.5639539 -0.19682732 1
-1.7427016 -2.2457309 -0.18411462 1
-1.8171451 0.35226953 -0.099733002 2
-1.6853954 0.59897864 -0.095898785 2
-1.9144468 1.4417708 -0.04812561 3
-1.8942387 1.9380206 -0.022790045 3
-1.6983026 6.731554 0.12447794 4
-1.4428612 -5.4952497 -0.33914003 1
-1.522 -5.0137157 -0.31357872 1
-1.5872377 -2.9612024 -0.22378621 1
-1.3628652 -2.5487523 -0.21022713 0.5
-1.4060676 -2.2551041 -0.19724859 0
-1.5033164 -1.0176059 -0.13498814 1
-1.3618919 -0.2906054 -0.11420938 1
-1.3484554 0.39027214 -0.11695552 1
-1.2760481 0.51777202 -0.1147862 1
-1.473227 0.96571922 -0.089121014 2
-1.2952026 1.2603821 -0.080273427 2
-1.4328099 7.093194 0.14435677 4
-1.177618 -14.951647 -0.38715315 2
-0.86463624 -2.9461982 -0.2462223 0
-0.91256261 -2.5831051 -0.2304908 0
-0.82483149 -2.2126365 -0.20566534 0
-0.83753216 -0.79024774 -0.1520572 0
-1.1650287 0.69366592 -0.11289188 1
-1.074394 0.96682888 -0.10450547 1
-1.133586 1.8636423 -0.058226075 2.5
-1.026034 2.0399241 -0.054541133 3
-0.91308182 2.875654 -0.020754242 3
-1.1690946 7.6738534 0.17119107 4
-0.50543451 -15.220902 -0.41443995 2
-0.41789684 -3.4741936 -0.28195348 0
-0.7765246 -1.0000943 -0.15214819 0
-0.71905196 1.4100147 -0.098116629 1.25
-0.56432629 1.8442094 -0.085069887 2
-0.46840304 2.1570518 -0.075649403 2
-0.4308221 2.5649889 -0.060743291 3
-0.72717243 3.0103788 -0.028309898 3
-0.52810889 14.554541 2.1610761 8
-0.72503787 14.719879 2.6985571 9
-0.52140027 14.586694 2.8645682 9
-0.29139239 -8.1778193 -0.49091318 1
-0.081958063 -4.5002027 -0.34360617 0
-0.23619103 -3.4779727 -0.28922015 0
-0.26559407 1.4276899 -0.11728288 1
-0.17868914 1.8306714 -0.1035993 2
-0.37115064 2.2069175 -0.078669362 2
-0.082766294 11.802651 0.34315547 4
-0.055771817 11.628744 0.87819237 6
0.072621964 -8.3744841 -0.50318992 1
0.11568961 -7.4506936 -0.47738594 0
0.057256449 -5.04776 -0.36918697 0
0.17153692 1.5235139 -0.12928383 1
0.061711177 1.9490527 -0.1073001 2
0.36185074 2.6700928 -0.092803657 2
0.29925665 3.25616 -0.067938648 3
0.30298394 0.19859377 0.36338732 26.5
0.26074326 11.662708 0.66849405 5
0.21469715 11.645465 0.87316769 5
0.15791005 14.251803 2.1150856 8
0.32214922 14.150264 2.6940958 9
0.4305338 1.557019 -0.13853256 1
0.64816195 1.777851 -0.13707846 1
0.62833726 2.6563632 -0.10479812 2
0.67941386 2.8968174 -0.094856754 2
0.53250527 3.2384441 -0.076938123 3
0.70630813 -0.48796067 0.47938326 25.5
0.43969199 0.43708539 0.58180505 26
0.48860699 14.029961 2.0841107 8
0.55581391 14.000539 2.7426126 9
1.1127187 1.5196066 -0.16647476 1
1.0935289 1.6585988 -0.16251646 1
1.0174708 2.2148464 -0.13742396 1.5
0.87171888 2.5166779 -0.11775852 2
0.91543025 0.30441377 0.025402548 4
0.94997704 0.5427717 0.029821599 4
1.1180382 13.91259 0.86859643 5
1.1593039 13.775869 2.3576255 8
1.4638432 -0.89677626 -0.040625598 2.5
1.51372 0.58525974 -0.00015919903 3
1.368026 1.4557772 -0.1776869 1
1.2663181 2.4384403 -0.13572104 2
1.2253213 5.0043702 -0.038360685 3
1.5102459 -0.96073085 0.041426659 3.8
1.3192165 0.3958461 0.0038906077 3
1.3929116 1.1556056 0.023656709 4
1.2826406 13.835395 0.65360475 5
1.35579 13.817895 0.96710473 5.5
1.5130689 13.473588 2.5601749 9
1.2693377 13.61279 2.4686561 9
1.6273297 0.76868105 -0.00020959148 3
1.6939631 0.95910609 -0.00026386665 3
1.8567077 1.4529051 -0.19540337 1
1.787414 2.0013051 -0.015568482 3
1.9064069 4.0429678 -0.098113962 3
1.6438829 5.5590529 -0.033493944 3
1.6249044 -0.90413052 0.024626954 3.5
1.858771 13.718856 0.5086028 4
1.7766035 13.52101 0.91265172 5
1.7608037 13.414316 2.3276768 8
1.7538341 13.370394 2.6656868 9
2.1052985 1.3867246 -0.14703633 1.6666666
2.0311451 1.6763204 -0.045458846 3
2.2855062 3.8897958 -0.12706032 2
2.3387876 4.4097123 -0.10619406 3
2.2050781 14.975516 0.33230045 4
2.1529078 13.336627 0.57967854 5
2.0959311 13.36825 0.95617348 5.5
2.6845779 1.1224393 -0.13926955 2
2.6095686 1.3423475 -0.18433359 1.6666666
2.7430415 3.0337832 -0.17880653 2
2.6729867 4.512548 -0.10920876 3
2.9075511 0.95999759 -0.26221967 1
3.0614417 2.7647796 -0.19971514 2
3.1842668 3.2126274 -0.18583414 2
3.2485976 2.6637764 -0.20467767 2
3.6758151 2.7336848 -0.22367764 2
4.1360769 2.6386654 -0.2396325 2
7.0743203 2.1747346 -0.35943785 2
7.2511702 2.6204889 -0.37254158 2
9.6293154 28.781008 1.4529159 5
9.8163443 28.677948 1.7289389 5
9.6164408 28.681217 2.5309396 6
10.263265 28.447653 1.4929918 5
10.227377 28.349867 2.5380154 6
10.260065 44.993542 15.043101 13
10.592284 28.240545 1.8900406 5
10.6177 45.034908 13.157081 12
10.600019 44.96629 15.063098 13
11.056219 27.978279 1.762104 5
10.821301 27.991543 2.5441008 6
11.186871 45.048679 14.185064 12
11.568048 27.646923 1.1621858 4
11.469132 27.714039 1.567169 5
11.210236 27.903217 1.8871224 5
11.426268 27.676231 2.5551784 6
11.347942 44.927742 15.148088 13
11.940922 27.495604 0.36322471 4
11.805168 27.533928 1.8822144 5
11.770657 45.075066 13.198043 12
11.684936 44.954491 15.133075 13
12.182123 27.33222 1.7057663 5
12.021231 27.347944 2.5662618 6
12.788978 26.948364 1.1363661 4
12.451196 27.27462 1.8842827 5
