# .PCD v0.7 - Point Cloud Data file format
VERSION 0.7
FIELDS x y z intensity
SIZE 4 4 4 4
TYPE F F F F
COUNT 1 1 1 1
WIDTH 79
HEIGHT 1
VIEWPOINT 0 0 0 1 0 0 0
POINTS 79
DATA ascii
-28.884449 -9.4707899 6.6341424 10
-28.815262 -9.5931139 15.827146 18
-28.789999 -9.2225533 6.0211577 9
-28.770876 -9.2738686 17.499155 19
-18.705557 9.9526167 13.576352 20
-18.049435 11.127 13.597713 20
-17.589258 12.088381 3.6692247 8
-16.398108 20.50037 26.45293 27
-14.594263 22.917065 28.928772 28
-9.5140715 -38.45192 21.624571 18
-9.2789984 -7.81779 1.1751227 6
-9.3179998 -7.7686481 1.3361185 7
-9.0236712 4.9190888 0.52989239 5
-8.8043108 5.1663041 0.27773872 4
-8.9730387 -38.730221 14.202632 14
-8.669528 5.5141134 0.52556932 5
-8.4265261 -4.3289366 0.57221484 5
-8.2694368 -4.3132834 0.1302305 4
-7.0816288 -1.9572173 0.65639985 6
-6.9873819 -1.8522104 0.18441273 4
-6.9834433 -1.8752904 0.39941213 5
-3.2703779 -19.311663 1.6009432 6
-3.1926467 3.1972744 0.18815072 4
-3.0003958 3.5283053 0.15900062 4
-3.0389049 3.4398987 0.2160376 5
-2.5220282 -19.770992 1.3150215 5
-2.2490687 6.2370934 0.25502303 4
-1.1641885 15.318286 2.5991414 8
0.76814985 -0.62265003 0.28940928 11.75
0.78372145 -0.56291765 0.32756355 13
0.73626262 -0.75582153 0.6099329 19
0.85096323 -0.36349007 -0.038153552 2
0.97482884 -0.12235408 -0.093733735 0.5
0.87819505 -0.34093642 0.059504058 5.3333335
0.89980459 -0.32336041 0.36733043 14
0.87575865 14.294463 1.7152573 7
1.0585738 0.025337256 -0.038787957 2.5
1.0940139 0.04324333 0.2694529 10.5
1.0625201 -0.54439896 0.53186029 16
1.2463139 0.36298677 0.33658463 11
1.262367 5.8448067 0.87280476 7.5
1.3682481 14.028211 1.3512962 6
1.3032708 14.030087 2.205301 8
1.5713748 0.91529238 0.26587686 7.5
1.5006673 5.9424458 0.2667596 5
1.7801499 1.3342595 0.2952247 7
1.6819825 1.178867 0.54028183 11
1.7926276 5.89714 0.77675611 7
1.8354397 5.948422 0.97173762 8
2.8556464 3.7127399 0.61239237 7
2.9491582 3.6672766 1.2814022 11
2.873208 -19.827103 4.2134485 9
3.1804488 -6.1648588 0.8121776 7
3.0894663 -19.368933 4.768455 10
3.2435033 -6.1327553 0.75617623 6
3.440439 -5.6463156 0.38715416 5
3.6456277 -5.6239548 0.19015028 4
3.6346147 -5.5829229 0.76514822 7
4.61025 -4.2361774 0.24502258 4
4.778089 -4.0095925 0.30199209 5
5.3280735 -15.551346 6.6524868 15
5.5993209 -15.068919 6.2724838 14
6.275001 -20.808088 2.521637 7
6.4501843 -20.527861 2.0886381 6
6.7041769 -13.161779 5.5874481 14
6.6650572 -12.970769 5.9194417 15
7.4521894 -15.816404 4.2235436 10
7.4370947 -15.613366 4.3075371 11
7.4605026 -11.773854 5.6323943 15
7.767612 -11.344058 5.1813717 14
7.7187061 -11.399996 8.0403728 19
7.7997227 -11.246734 8.2453642 20
7.8355913 -11.202873 4.7793632 13
8.8157396 45.570164 14.67008 12
9.1569729 45.549175 11.929061 11
9.3849697 -11.634988 15.018353 27
9.9266424 -10.404757 15.140258 28
11.749389 28.068712 2.0342362 5
17.958065 45.554802 12.294412 11
