# .PCD v0.7 - Point Cloud Data file format
VERSION 0.7
FIELDS x y z intensity
SIZE 4 4 4 4
TYPE F F F F
COUNT 1 1 1 1
WIDTH 115
HEIGHT 1
VIEWPOINT 0 0 0 1 0 0 0
POINTS 115
DATA ascii
-34.022797 -23.595594 18.601091 16
-24.030609 16.995535 6.304266 10
-24.199865 17.123928 7.5302615 11
-16.616856 -10.472869 1.9513069 6
-16.651388 -10.092555 2.2171631 7
-16.607641 -10.776676 2.886425 8
-16.429766 -11.681715 2.5327559 7
-16.322866 19.330067 19.109945 23
-14.333652 -14.891188 5.42974 11
-14.369957 18.850338 5.5018549 10
-13.805593 -14.896431 5.0066671 10
-12.060156 21.753887 18.828209 23
-7.9224076 19.450884 15.791336 23
-7.717113 19.520309 15.107316 22
-6.0851378 19.834719 15.588212 23
-5.4505339 3.6002934 0.52572519 6
-5.4524455 3.6073501 0.76572388 7
-5.095799 3.938688 0.48161265 5.5
-4.1868324 -13.65224 6.7757907 17
-3.8197987 -13.565031 6.2907 16
-3.9232402 -13.7122 9.3072748 20.5
-3.2177002 -13.495778 5.9795809 15
-2.9155245 4.4279156 0.48832107 6
-2.8082144 20.054922 21.12612 28
-2.7389908 -6.8741784 0.75782722 6
-2.7175603 -6.9005613 0.82383466 7
-2.2874439 -6.7004595 0.21368836 4
-2.3723102 -13.634828 8.723506 20
-2.3905842 -15.103617 16.206102 28
-2.0247271 -13.618334 8.9334431 21
-1.6116245 3.864785 0.36133933 6
-1.4671189 -6.9921403 0.81567723 7
-1.395708 3.9191246 0.24032588 5
-1.2030206 3.8879819 0.68732649 8
-1.395512 20.313639 18.752077 26
-1.0465928 -13.509121 8.9462385 21
-1.1156168 -13.350363 9.3481865 22
-1.0367264 -13.069226 11.481061 25
-0.95461464 -9.4305401 0.95457679 6
-0.86083406 20.501453 14.831055 22
-0.76617396 4.0560856 0.33030036 6
-0.7581417 4.0730286 0.52829796 7
-0.73495901 20.453491 15.562062 23
-0.5458706 20.735395 4.7800245 10
-0.53427893 -13.152068 5.6390085 15
-0.46220168 -15.257733 16.832844 28
-0.11043248 20.340113 21.395082 28
0.25395036 -6.7528081 0.19025698 4
0.27610734 -1.6438581 0.29518825 8.5
0.23654801 -1.6356754 0.4689354 12
0.36493015 -1.567718 0.41195598 11
0.38474324 -1.5926197 0.72495484 16
0.41867298 -1.5803294 0.17895935 6
0.4573473 -6.8222733 0.38627833 5
0.56739426 -1.4934362 0.37398097 10
0.44897297 -1.5621921 0.73796403 16
0.68521422 -1.4544553 0.09599299 5
0.75674415 -1.4424716 0.33699858 9
0.60435057 -1.4837401 0.46148458 11.5
0.63825834 -1.5070857 0.78698462 17
0.69260859 -15.007005 2.5082109 8
0.81951267 -1.4351599 -0.061997205 2
0.95616812 -1.3836488 -0.14898604 1
0.94939089 -3.0020068 0.051842302 4
0.86260116 4.0333586 0.10734394 4
0.89635807 -1.4353745 0.2615068 7.5
0.88796282 -12.958919 5.8455186 16
0.88288671 -12.953027 6.393518 17
0.87280071 -12.858725 11.257529 25
1.1456708 -1.3640603 -0.097476915 1.5
1.0318562 -1.4143841 0.18201499 6
1.180432 -1.3769746 0.30902347 8
1.1333363 -1.6178845 0.63000375 12
1.2319809 -1.3608388 0.079026289 4.5
1.2147495 -1.3768784 0.28552467 8
1.2807388 3.9349322 0.32787743 5.5
1.2430466 -1.3638407 0.57802641 12
1.7381945 -1.2869798 0.15404218 5
1.7161015 -1.2780356 0.2080421 6
2.0331304 -1.2382538 0.43304783 8.5
2.1014864 -15.151684 16.545408 28
2.2502391 24.482258 6.4805436 11
2.5172575 -1.1421492 0.12405299 4.5
2.5370352 -1.1067603 0.25105295 6
2.5016584 -1.1486489 0.48505291 8
2.5297685 24.505411 7.4715457 12
2.6637099 24.49226 5.7445498 10
2.9566009 -1.0547451 0.18305452 5
3.023807 5.0138483 0.21030118 4
3.3670871 -0.95301408 0.53005356 8
3.2836123 -1.0088215 0.66705477 9
3.4039264 -0.99682754 0.35405484 6
3.64273 -0.92605245 0.21005347 5
5.1297288 24.219433 22.800644 26
5.5282826 -0.33745527 -0.050971478 3
5.440249 -0.33845428 0.28002849 5
6.5817642 1.705254 0.98786104 8
6.5263257 2.0607331 0.8038218 7
6.8429589 -1.1586599 0.77206701 7
7.681695 5.7368293 0.24637258 4
7.669735 5.6122317 0.49638951 5
8.0679178 24.756166 22.871651 25
9.908679 -11.563199 10.742674 22
10.405837 -11.529297 10.706708 21
12.540892 7.2643423 1.7322891 7
12.651787 6.0269575 2.040446 8
12.752119 5.7789221 2.5324776 9
12.87816 5.4899673 0.32251385 4
12.923471 5.3814192 0.82352716 5
16.26593 -11.340709 14.713997 22
29.704544 7.4470997 2.06147 5
29.910004 7.3236337 0.87248337 4
30.178141 5.4116511 2.1456559 5
30.404583 4.0193214 1.0327704 4
44.545979 17.194132 11.263601 10
