# .PCD v0.7 - Point Cloud Data file format
VERSION 0.7
FIELDS x y z intensity
SIZE 4 4 4 4
TYPE F F F F
COUNT 1 1 1 1
WIDTH 1192
HEIGHT 1
VIEWPOINT 0 0 0 1 0 0 0
POINTS 1192
DATA ascii
1.0775175 -5.1382761 -0.28338945 0
1.0576978 -5.031713 -0.27991456 0
0.92025942 -4.956728 -0.27431574 0
1.0413606 -4.9438739 -0.27705026 0
0.90409899 -4.8475466 -0.27135956 0
1.0250233 -4.8560348 -0.27418593 0
0.89167917 -4.7636371 -0.26908764 0
1.0086861 -4.7681956 -0.27132159 0
-0.30899999 -4.6440001 -0.255 0
-0.094069347 -4.6270585 -0.25584975 0
0.87925941 -4.679728 -0.26681575 0
0.99234891 -4.6803565 -0.26845729 0
-0.62449336 -4.5757246 -0.24990058 0
-0.30575606 -4.5700383 -0.25316176 0
-0.095115587 -4.5374308 -0.25358289 0
0.011234421 -4.5737886 -0.2543664 0
0.42245236 -4.5625362 -0.25943786 0
0.53895259 -4.5334263 -0.25998852 0
0.86062968 -4.553864 -0.26340789 0
0.96784306 -4.5485978 -0.26416081 0
-0.61338812 -4.4820042 -0.24772103 0
-0.30193377 -4.4828901 -0.25099581 0
-0.09609247 -4.4537449 -0.2514663 0
0.0077219587 -4.4581199 -0.25145954 0
0.30491933 -4.4759998 -0.25550723 0
0.41939273 -4.4517231 -0.25713709 0
0.53232425 -4.4530816 -0.25838163 0
0.84200001 -4.428 -0.25999999 0
0.9433372 -4.4168391 -0.25986433 0
-0.60278946 -4.3925595 -0.24564092 0
-0.59219074 -4.3031144 -0.24356081 0
-0.29620034 -4.3521676 -0.24774686 0
-0.097069353 -4.3700585 -0.24934974 0
0.0049750749 -4.367662 -0.24918626 0
0.198 -4.3769999 -0.25099999 0
0.25511736 -4.3460121 -0.2525084 0
0.38439286 -4.3494349 -0.25305226 0
0.42120224 -4.3238101 -0.25506741 0
0.52574319 -4.373311 -0.25678623 0
0.92699999 -4.329 -0.257 0
-0.58159208 -4.2136698 -0.24148069 0
-0.2904669 -4.2214451 -0.24449791 0
-0.098534673 -4.2445292 -0.24617487 0
0.002228193 -4.2772045 -0.24691299 0
0.27745965 -4.2252498 -0.2490036 0
0.41613483 -4.2408733 -0.25337827 0
0.51587158 -4.2536554 -0.2543931 0
-0.57099342 -4.1242247 -0.23940058 0
-0.28664461 -4.1342969 -0.24233194 0
-0.050259348 -4.152873 -0.24381985 0
0.26899999 -4.1479998 -0.24699999 0
0.4110674 -4.1579366 -0.25168914 0
0.50599998 -4.1339998 -0.252 0
-0.5603947 -4.0347795 -0.23732045 0
-0.28282231 -4.0471482 -0.24016598 0
-0.0046390207 -4.0510597 -0.24122977 0
0.40599999 -4.0749998 -0.24999999 0
-0.54979604 -3.9453349 -0.23524034 0
-0.27900001 -3.96 -0.23800001 0
-0.0087593468 -3.9153733 -0.23781985 0
-1.3200001 -3.8859999 -0.221 0
-1.2938851 -3.8109643 -0.22028452 0
-0.53919739 -3.8558898 -0.23316023 0
-0.011506232 -3.8249154 -0.23554657 0
-1.2643423 -3.7260795 -0.21947514 0
-0.52859867 -3.7664449 -0.23108011 0
-0.014253116 -3.7344577 -0.23327328 0
-1.2347996 -3.6411943 -0.21866573 0
-0.51800001 -3.677 -0.229 0
-0.017000001 -3.6440001 -0.23100001 0
-1.38 -3.513 -0.212 0
-1.2052568 -3.5563095 -0.21785635 0
-1.3598456 -3.4633832 -0.21175717 0
-1.175714 -3.4714246 -0.21704696 0
-1.3271534 -3.3828998 -0.2113633 0
-1.2944613 -3.3024166 -0.21096942 0
-1.1313999 -3.3440971 -0.21583286 0
-1.2617689 -3.2219334 -0.21057554 0
-1.0870856 -3.2167697 -0.21461879 0
-1.2290767 -3.1414499 -0.21018165 0
-1.0575428 -3.1318848 -0.21380939 0
-1.1963845 -3.0609667 -0.20978777 0
-1.028 -3.0469999 -0.213 0
-1.1636922 -2.9804833 -0.20939389 0
-1.131 -2.9000001 -0.20900001 0
1.192934 -2.8208048 -0.20126989 0
1.168467 -2.7524023 -0.21363495 0
1.2369257 -2.7418587 -0.20602477 0
1.1440001 -2.684 -0.226 0
1.2084628 -2.6699295 -0.21551238 0
3.5594597 -2.628922 -0.21708764 0
3.6589999 -2.7 -0.20900001 0
1.1799999 -2.598 -0.22499999 0
3.3793066 -2.5002813 -0.2317251 0
3.4513679 -2.5517378 -0.22587012 0
3.7295663 -2.5119638 -0.25701094 0
3.3072453 -2.4488251 -0.23758008 0
3.5745478 -2.4069438 -0.25723925 0
3.6483402 -2.4569359 -0.25713056 0
3.8499269 -2.4345434 -0.2092523 0
3.9230001 -2.483 -0.22400001 0
3.1631227 -2.3459127 -0.24929005 0
3.235184 -2.3973689 -0.24343506 0
3.4269626 -2.3069599 -0.2574566 0
3.5007551 -2.356952 -0.25734791 0
3.0550308 -2.2687283 -0.2580725 0
3.2793777 -2.2069759 -0.25767395 0
3.3531702 -2.2569678 -0.25756529 0
3.1317925 -2.106992 -0.2578913 0
3.205585 -2.1569839 -0.25778264 0
3.0580001 -2.0569999 -0.25799999 0
1.5700001 -1.832 -0.213 0
1.5510913 -1.7662162 -0.21136014 0
1.617 -1.715 -0.213 0
1.474 -1.676 -0.20750001 0
1.5470004 -1.6589253 -0.20994785 0
3.1863737 -1.2033508 -0.20857154 0
3.0472214 -1.1365811 -0.23485391 0
3.1447577 -1.1740812 -0.21820459 0
3.0345013 -0.81752551 -0.22235912 0
3.1582534 -0.85131377 -0.20639779 0
3.3132026 -0.81404948 -0.2006494 0
2.9486666 -0.74633336 -0.23133333 0
3.0550711 -0.74730986 -0.22098529 0
3.1631322 -0.77447098 -0.21230912 0
3.2495179 -0.79546338 -0.20502256 0
2.0464647 -0.10114497 -0.20159066 0
2.1363306 -0.10643122 -0.20248832 0
2.2261968 -0.11171746 -0.20338598 0
2.3160629 -0.1170037 -0.20428365 0
2.4508622 -0.12493306 -0.20563015 0
2.5868306 -0.13293122 -0.20698832 0
1.9565984 -0.09585873 -0.200693 0
2.152041 -0.057796501 -0.20073895 0
2.2646129 -0.034926549 -0.20106769 0
2.3540154 -0.037141718 -0.20185935 0
2.4434178 -0.039356891 -0.20265101 0
2.5232246 -0.051477898 -0.20384337 0
2.3568516 0.0443055 -0.2000277 0
2.4590416 0.044921845 -0.20089059 0
-5.2606936 -3.2476988 -0.13414754 0
-5.1630406 -3.1900482 -0.1379713 0
-5.0605202 -3.1295242 -0.14198565 0
-4.9580002 -3.069 -0.146 0
1.237 -2.944 -0.17900001 0
1.309 -2.924 -0.182 0
1.2588803 -2.8629043 -0.19083051 0
-1.3099999 -2.4130001 -0.199 0
3.414 -2.4619999 -0.106 0
-1.33 -2.3180001 -0.197 0
-1.2837113 -2.3650198 -0.19770712 0
3.7403169 -2.3618581 -0.18713072 0
-1.3159301 -2.2937322 -0.19634825 0
-1.2565306 -2.252579 -0.19496173 0
-1.1987835 -2.2100148 -0.19353034 0
3.5576339 -2.2407162 -0.15026143 0
3.630707 -2.2891729 -0.16500916 0
-1.2276976 -2.1415491 -0.19226119 0
-1.1563196 -2.1325123 -0.19144195 0
3.4480238 -2.168031 -0.12813987 0
-1.568 -2.03 -0.17900001 0
-1.2630216 -2.0497949 -0.18282862 0
-1.1487185 -2.0602336 -0.1897856 0
3.338414 -2.095346 -0.10601831 0
-1.5335469 -1.9847434 -0.17840712 0
-1.479264 -1.9134386 -0.17747299 0
-1.2664479 -1.9328908 -0.18005371 0
-1.1641874 -1.9598141 -0.18413432 0
-1.0652227 -1.9302622 -0.18619084 0
-2.7019999 -1.876 -0.17 0
-2.6433702 -1.8388202 -0.17061284 0
-1.424981 -1.8421338 -0.17653887 0
-1.307 -1.848 -0.178 0
-1.239701 -1.8446265 -0.17881426 0
-1.1409254 -1.8372297 -0.17976923 0
-1.0512326 -1.837183 -0.18408707 0
-0.9864639 -1.8225025 -0.18308839 0
-2.5454972 -1.7767544 -0.17163591 0
-2.4802487 -1.7353772 -0.17231795 0
-1.345849 -1.7739145 -0.17630237 0
-1.2546245 -1.7456492 -0.17666475 0
-1.1544985 -1.7494508 -0.17752887 0
-1.0364022 -1.7627764 -0.18093608 0
-0.94400001 -1.745 -0.18099999 0
-2.415 -1.694 -0.17299999 0
-2.3510313 -1.6723918 -0.16676441 0
-2.2546561 -1.6027052 -0.16577595 0
-1.58 -1.608 -0.169 0
-1.3238868 -1.6459163 -0.17344145 0
-1.2475414 -1.6441659 -0.17460127 0
-1.1680616 -1.654269 -0.1755539 0
-1.0585346 -1.6627393 -0.17692167 0
-0.97000003 -1.6524999 -0.17900001 0
3.6422362 -1.6143589 -0.10446866 0
3.714 -1.658 -0.11 0
-2.1812499 -1.5496268 -0.16502307 0
-1.5195427 -1.5454279 -0.16837801 0
-1.3354195 -1.5506139 -0.17091942 0
-1.2354225 -1.5491471 -0.17236269 0
-1.1454654 -1.5696621 -0.17434506 0
-1.060847 -1.5433742 -0.17440706 0
-0.98900002 -1.5549999 -0.175 0
3.677 -1.539 -0.11 0
-2.7606816 -1.479531 -0.16408263 0
-2.671891 -1.4334497 -0.1645322 0
-2.1078436 -1.4965484 -0.16427019 0
-2.0344374 -1.4434701 -0.1635173 0
-1.5595455 -1.4433758 -0.16490775 0
-1.4587508 -1.4825096 -0.16775258 0
-1.3729795 -1.4557958 -0.16856357 0
-1.2516017 -1.4548621 -0.16999525 0
-1.1560321 -1.4506497 -0.17116487 0
-1.0522552 -1.4565833 -0.17270015 0
3.6674953 -1.4114032 -0.12028611 0
3.7225001 -1.446 -0.1105 0
-2.7054837 -1.3707591 -0.15902758 0
-2.6309741 -1.3340145 -0.15984412 0
-2.5631819 -1.3770311 -0.16508262 0
-2.4544728 -1.3206124 -0.16563305 0
-1.9610312 -1.3903918 -0.16276442 0
-1.887625 -1.3373134 -0.16201153 0
-1.4505715 -1.3406621 -0.16421217 0
-1.3371673 -1.3566731 -0.16650172 0
-1.241364 -1.3762463 -0.16881076 0
-1.1452488 -1.3332198 -0.1685603 0
-1.0395 -1.3695 -0.171 0
3.4269345 -1.307377 -0.16442883 0
3.5472147 -1.3593901 -0.14235747 0
3.6434813 -1.3320765 -0.13921288 0
3.7784886 -1.376846 -0.11752773 0
-2.5589805 -1.2985109 -0.16063309 0
-2.4509902 -1.2452555 -0.16181654 0
-2.382 -1.283 -0.16599999 0
-1.8142188 -1.2842351 -0.16125865 0
-1.7408125 -1.2311567 -0.16050576 0
-1.58 -1.2029999 -0.161 0
-1.356052 -1.2515725 -0.16360885 0
-1.2459795 -1.2622957 -0.16556358 0
-1.1331214 -1.2587488 -0.16760358 0
-1.059 -1.265 -0.168 0
3.2667766 -1.2226284 -0.19677123 0
3.3487022 -1.2538378 -0.18269497 0
3.4343209 -1.2627177 -0.17280859 0
3.5179849 -1.2904613 -0.1593703 0
-2.3429999 -1.192 -0.163 0
-1.6674062 -1.1780784 -0.15975288 0
-1.5779357 -1.1351262 -0.15950735 0
-1.473757 -1.1203665 -0.16075909 0
-1.3732612 -1.1400731 -0.16196226 0
-1.2615325 -1.1624829 -0.16300553 0
-1.1547918 -1.1679183 -0.16462544 0
-1.0864999 -1.1525 -0.1655 0
-2.5810404 -1.0216362 -0.14697511 0
-1.6054741 -1.0249383 -0.15707707 0
-1.5477605 -1.0726521 -0.15927334 0
-1.4372553 -1.0306571 -0.1604124 0
-1.3218731 -1.0499148 -0.16107441 0
-1.2442613 -1.0350732 -0.16146225 0
-1.1355064 -1.0436966 -0.16220111 0
-2.4583111 -0.97295427 -0.14646268 0
-2.3415406 -0.92663622 -0.14597511 0
-1.5432988 -0.98858452 -0.15843609 0
-1.4412165 -0.94509745 -0.16023935 0
-1.2394271 -0.93810999 -0.16022772 0
-1.1548153 -0.96226829 -0.16111556 0
3.364507 -0.90762752 -0.17979559 0
3.4470084 -0.93015301 -0.1691547 0
3.5392547 -0.95533925 -0.15725692 0
3.7334964 -0.91191721 -0.16396022 0
-2.5365 -0.83899999 -0.14250001 0
-2.4785342 -0.85177124 -0.14347477 0
-2.3926809 -0.82259411 -0.14412729 0
-2.2310028 -0.85355872 -0.14595543 0
-2.1469235 -0.84943938 -0.14516252 0
-1.1390001 -0.86000001 -0.16 0
3.2820055 -0.88510203 -0.19043647 0
3.3789289 -0.82696199 -0.19406717 0
3.4653149 -0.84795433 -0.1867806 0
3.5517006 -0.86894673 -0.17949402 0
3.6380863 -0.88993913 -0.17220747 0
-2.5209999 -0.73799998 -0.141 0
-2.445441 -0.74618816 -0.14205825 0
-2.3143606 -0.76474154 -0.14386207 0
-2.2322848 -0.73730862 -0.14436427 0
-2.1274481 -0.76630831 -0.14651203 0
-2.0432515 -0.73653734 -0.14719978 0
-1.9546967 -0.73682415 -0.14838514 0
-1.8721573 -0.70645928 -0.14910811 0
-2.5139999 -0.64349997 -0.14 0
-2.4653456 -0.64071423 -0.14079957 0
-2.3203347 -0.65090716 -0.14291608 0
-2.2348204 -0.65467781 -0.14388423 0
-2.1567149 -0.65706336 -0.14420301 0
-2.0774331 -0.64431322 -0.14443581 0
-1.9535446 -0.63626575 -0.14594045 0
-1.8775604 -0.64753139 -0.14804244 0
-1.7628012 -0.64672613 -0.14969337 0
-1.613714 -0.64677411 -0.15068094 0
-1.5447279 -0.6382544 -0.15170337 0
-1.4416717 -0.61641759 -0.15268797 0
-2.4357426 -0.55344033 -0.13894479 0
-2.32249 -0.53730941 -0.14037083 0
-2.2326622 -0.57125932 -0.14267229 0
-2.1515598 -0.54044068 -0.1424607 0
-2.0477781 -0.52740324 -0.14374483 0
-1.9537024 -0.53834623 -0.14569028 0
-1.848796 -0.5410797 -0.14715862 0
-1.7198957 -0.54781467 -0.14850987 0
-1.6240728 -0.55211478 -0.14938179 0
-1.555357 -0.55150342 -0.15099932 0
-1.4606069 -0.55166453 -0.15287265 0
-4.5170574 -0.47185308 -0.1023405 0
-4.4287634 -0.46258834 -0.10557757 0
-4.3404698 -0.45332363 -0.10881464 0
-4.2521758 -0.4440589 -0.11205171 0
-4.1638818 -0.43479419 -0.11528879 0
-4.0755877 -0.42552945 -0.11852586 0
-3.987294 -0.41626474 -0.12176293 0
-3.8989999 -0.40700001 -0.125 0
-2.4419999 -0.44800001 -0.13600001 0
-2.3564517 -0.44241595 -0.13753527 0
-2.2397137 -0.46563774 -0.14006425 0
-2.1592708 -0.44932824 -0.1409564 0
-2.0607843 -0.4513804 -0.14292735 0
-1.9697289 -0.4653728 -0.1443696 0
-1.8703985 -0.45497847 -0.14550354 0
-1.7521421 -0.44568023 -0.14745419 0
-1.6300946 -0.44908667 -0.14942503 0
-1.5577607 -0.45237628 -0.14971668 0
-1.4485097 -0.45319661 -0.15165947 0
-2.415 -0.35699999 -0.13500001 0
-2.3528082 -0.34745085 -0.13630587 0
-2.2709136 -0.3616181 -0.13827026 0
-2.1564019 -0.35102382 -0.14086823 0
-2.0526171 -0.32521173 -0.14302176 0
-1.9276407 -0.32795 -0.14617053 0
-1.8404272 -0.31263334 -0.14811368 0
-1.7536353 -0.38391411 -0.14647821 0
-1.620909 -0.37827039 -0.14800997 0
-1.5418545 -0.35554653 -0.15053861 0
-1.4514453 -0.35607785 -0.15095849 0
-2.3731878 -0.2677415 -0.13418821 0
-2.2580254 -0.2432019 -0.13532692 0
-2.146616 -0.24765164 -0.13655271 0
-2.0029039 -0.29372543 -0.14365293 0
-1.915428 -0.28029406 -0.14548969 0
-1.827952 -0.26686272 -0.14732647 0
-1.7468448 -0.275374 -0.14961004 0
-1.6595 -0.26100001 -0.15149999 0
-4.2467031 -0.15355147 -0.10314246 0
-4.1603622 -0.14924118 -0.10691397 0
-4.0740218 -0.14493088 -0.11068548 0
-3.9445109 -0.13846543 -0.11634274 0
-3.8150001 -0.132 -0.122 0
-2.335825 -0.18218748 -0.13322499 0
-2.2297664 -0.17291664 -0.13396667 0
-2.1558833 -0.16645832 -0.13448334 0
-2.0693967 -0.17844932 -0.13611077 0
-1.9600351 -0.16593643 -0.13891473 0
-1.8631909 -0.1543808 -0.14596513 0
-1.7653184 -0.1543631 -0.15375668 0
-1.6534754 -0.13255744 -0.16088675 0
-4.4070001 -0.093999997 -0.106 0
-4.3514214 -0.092674837 -0.10732515 0
-4.2199373 -0.089539871 -0.11046012 0
-4.1322808 -0.087449893 -0.11255011 0
-4.0446248 -0.085359916 -0.11464009 0
-3.9569685 -0.083269939 -0.11673006 0
-3.8693123 -0.081179954 -0.11882004 0
-3.7816563 -0.079089977 -0.12091003 0
-3.694 -0.077 -0.123 0
-2.3185 -0.046999998 -0.13150001 0
-2.2486176 -0.052707281 -0.13249075 0
-2.146879 -0.031718541 -0.13323174 0
-2.0525 -0.036499999 -0.1345 0
-1.9384375 -0.074985273 -0.13762152 0
-1.8486925 -0.057087313 -0.1430044 0
-1.751913 -0.061745394 -0.14969683 0
-1.6563044 -0.065248467 -0.15723228 0
-1.574 -0.037 -0.15800001 0
1.687 -0.079999998 -0.198 0
1.7569178 -0.043429144 -0.19712025 0
1.8637806 -0.047144387 -0.19832064 0
1.9517074 -0.027645513 -0.19837496 0
2.0411096 -0.029860687 -0.19916663 0
2.1536818 -0.0069907345 -0.19949538 0
-3.628 0.098999999 -0.121 0
-2.2468903 0.082931012 -0.13020697 0
-2.1585205 0.08257468 -0.13127595 0
-2.05163 0.082143672 -0.13256899 0
-1.9175 0.022500001 -0.1365 0
-1.8525711 0.014668577 -0.14087999 0
-1.7423701 0.027585723 -0.14705886 0
-1.6418235 0.019375717 -0.15365648 0
-1.564 0.0185 -0.1585 0
1.6524999 0.02 -0.19499999 0
1.7322315 0.040538188 -0.19475347 0
1.8214629 0.041076373 -0.19550693 0
1.9553101 0.041883655 -0.19663712 0
2.0891573 0.042690936 -0.19776732 0
2.1783886 0.043229125 -0.19852078 0
2.2676201 0.043767314 -0.19927424 0
-3.9647076 0.11583538 -0.10229403 0
-3.8805308 0.11162653 -0.10697052 0
-3.7516897 0.1503398 -0.11139942 0
-3.6206458 0.18794653 -0.11432543 0
-3.5350001 0.183 -0.118 0
-3.1400001 0.198 -0.123 0
-3.0509167 0.1917433 -0.12369519 0
-2.9611483 0.18543848 -0.12439573 0
-2.8713796 0.17913368 -0.12509626 0
-2.781611 0.17282887 -0.12579679 0
-2.6469584 0.16337165 -0.12684759 0
-2.5123055 0.15391444 -0.1278984 0
-2.4225371 0.14760962 -0.12859893 0
-2.3327684 0.14130482 -0.12929946 0
-2.243 0.13500001 -0.13 0
1.612 0.118 -0.192 0
1.745182 0.12465911 -0.19299886 0
1.8783642 0.13131821 -0.19399773 0
1.9671524 0.13575763 -0.19466364 0
2.0559404 0.14019702 -0.19532955 0
2.1447284 0.14463644 -0.19599546 0
2.2335167 0.14907584 -0.19666137 0
2.3223047 0.15351525 -0.19732729 0
2.4115462 0.15797733 -0.19799659 0
-3.9026408 0.29544726 -0.10069049 0
-3.8489068 0.24618578 -0.1044098 0
-3.7378204 0.28372365 -0.11034524 0
-3.6554103 0.27786183 -0.11517262 0
-3.573 0.27200001 -0.12 0
-2.2717712 0.29627889 -0.12809044 0
-2.184 0.28400001 -0.12899999 0
-1.4378868 0.29112619 -0.14494486 0
-1.351 0.27399999 -0.147 0
-3.8449171 0.3799935 -0.10133751 0
-3.7619379 0.37349513 -0.10550313 0
-3.6789584 0.36699677 -0.10966875 0
-3.5544896 0.3572492 -0.11591719 0
-2.9560001 0.39199999 -0.121 0
-2.8861704 0.38223106 -0.12172362 0
-2.7545133 0.36381274 -0.12308794 0
-2.6228564 0.3453944 -0.12445226 0
-2.5350852 0.33311552 -0.12536182 0
-2.4664106 0.35628074 -0.12640537 0
-2.3536015 0.35071501 -0.12766333 0
-2.218452 0.37309086 -0.12879486 0
-2.1299181 0.35828745 -0.12958989 0
-2.035918 0.32528749 -0.1310899 0
-1.9526042 0.35294169 -0.13230699 0
-1.8709674 0.38417813 -0.13335961 0
-1.7703072 0.37310609 -0.13549078 0
-1.6510605 0.35272017 -0.13862249 0
-1.5456249 0.34711015 -0.14068688 0
-1.4467403 0.35218006 -0.14268589 0
-1.3494482 0.34602034 -0.14482136 0
-3.3453531 0.49918535 -0.10502162 0
-3.26 0.49000001 -0.107 0
-2.934 0.458 -0.122 0
-2.8451796 0.44487473 -0.122899 0
-2.7496548 0.46191126 -0.12402464 0
-2.6611211 0.44710788 -0.12481968 0
-2.5725873 0.43230447 -0.12561472 0
-2.4701991 0.47035655 -0.12624571 0
-2.358366 0.43889117 -0.12716953 0
-2.2848995 0.46071792 -0.12760565 0
-2.1408165 0.43011963 -0.12876761 0
-2.0608065 0.44653529 -0.13000268 0
-1.9421352 0.44816503 -0.13072985 0
-1.868026 0.444114 -0.13193443 0
-1.7517921 0.45913398 -0.13493325 0
-1.6643358 0.45763937 -0.13697597 0
-1.5616496 0.44111949 -0.1395316 0
-1.4563985 0.4562043 -0.14160354 0
-1.3324403 0.45713827 -0.14493002 0
1.444 0.43099999 -0.18000001 0
1.5264384 0.45825994 -0.17934155 0
1.6088766 0.48551992 -0.1786831 0
-3.5160592 0.51755607 -0.10106485 0
-3.4307063 0.5083707 -0.10304324 0
-2.9030001 0.52200001 -0.123 0
-2.830265 0.55380875 -0.12332761 0
-2.7171483 0.55251271 -0.12411977 0
-2.6178846 0.5651989 -0.12480146 0
-2.5305305 0.54650414 -0.12553841 0
-2.4285531 0.55818301 -0.12633947 0
-2.3418493 0.57156056 -0.12392577 0
-2.2354827 0.53770804 -0.12632665 0
-2.1413777 0.54393989 -0.1267914 0
-2.0342572 0.53503746 -0.12804879 0
-1.9471366 0.56278104 -0.12958924 0
-1.8411264 0.53754765 -0.13196188 0
-1.7245197 0.55076438 -0.1347632 0
-1.6304004 0.55707502 -0.13666913 0
-1.5476251 0.55666739 -0.13863619 0
-1.4639875 0.54802811 -0.1409284 0
-1.3801392 0.54461992 -0.14289086 0
-1.28425 0.55074996 -0.14575 0
1.6913149 0.51277983 -0.17802465 0
1.7737532 0.54003984 -0.1773662 0
1.8561915 0.56729978 -0.17670773 0
1.9386299 0.59455973 -0.17604928 0
-2.8080001 0.63999999 -0.123 0
-2.7815883 0.63430506 -0.12323245 0
-2.6536648 0.63713729 -0.1205046 0
-2.5487893 0.64188218 -0.11828092 0
-2.4643698 0.65204561 -0.11882876 0
-2.3510947 0.68107414 -0.11946252 0
-2.2489102 0.64474434 -0.12214342 0
-2.1510253 0.67286623 -0.12348709 0
-2.0397563 0.62359154 -0.12687178 0
-1.956605 0.63517874 -0.12863316 0
-1.8338821 0.65305525 -0.13042687 0
-1.7693002 0.6651926 -0.13183449 0
-1.6665053 0.64789152 -0.13468543 0
-1.5508792 0.65217328 -0.13702071 0
-1.4439007 0.63784248 -0.14010492 0
-1.3280901 0.6489616 -0.14223452 0
-1.2232499 0.66174996 -0.14325 0
2.0455341 0.62990987 -0.17519541 0
-2.5409999 0.704 -0.116 0
-2.4325855 0.75466084 -0.11569849 0
-2.3693707 0.7748487 -0.11633991 0
-2.2407866 0.75289744 -0.11973774 0
-2.1351128 0.76188338 -0.12182987 0
-2.0621815 0.75867122 -0.12366664 0
-1.9435813 0.73459101 -0.1271262 0
-1.8561445 0.72045875 -0.12962335 0
-1.7601032 0.73509383 -0.13023132 0
-1.6307725 0.74762774 -0.13369884 0
-1.5535473 0.74301034 -0.13568927 0
-1.465818 0.73984307 -0.13742934 0
-1.358133 0.75307077 -0.13921948 0
-1.2641593 0.74338996 -0.14048705 0
-1.163 0.75025004 -0.14125 0
1.1900001 0.77600002 -0.16500001 0
1.239 0.72600001 -0.167 0
1.3114059 0.77005333 -0.16639026 0
-2.3545001 0.86199999 -0.115 0
-2.2730577 0.84229493 -0.11723124 0
-2.1497946 0.84093356 -0.12051877 0
-2.0729346 0.83612275 -0.12268434 0
-1.9542922 0.84022963 -0.12590218 0
-1.8395753 0.86790085 -0.12826146 0
-1.7347361 0.82904917 -0.13001211 0
-1.6654838 0.865753 -0.13133736 0
-1.5564114 0.85464597 -0.1340891 0
-1.4474754 0.83561528 -0.13673368 0
-1.3595988 0.84053373 -0.13680653 0
-1.2474798 0.84974229 -0.13827279 0
-1.1528387 0.85529077 -0.13938704 0
-1.0782499 0.8725 -0.13949999 0
1.1245 0.85500002 -0.163 0
1.2355103 0.85069847 -0.16413733 0
1.3547099 0.84144557 -0.1650334 0
1.4562179 0.8581599 -0.16517079 0
-2.2614541 0.91678596 -0.11687905 0
-2.1335473 0.98224425 -0.11962751 0
-2.0609105 0.94768322 -0.12197062 0
-1.9639083 0.93817586 -0.12429418 0
-1.7545066 0.95489961 -0.1281109 0
-1.6646363 0.93592787 -0.13058564 0
-1.548404 0.96756458 -0.13214824 0
-1.4503298 0.95996457 -0.13358901 0
-1.3311228 0.9437623 -0.13530473 0
-1.2345201 0.95507687 -0.13651006 0
-1.1285753 0.95130259 -0.1375314 0
-1.0488176 0.94750237 -0.13786812 0
-0.99299997 0.97399998 -0.138 0
1.0306667 0.96966672 -0.16 0
1.1386805 0.95731604 -0.16040428 0
1.2519951 0.95525849 -0.16205131 0
1.3685312 0.94609541 -0.16341203 0
1.4612161 0.96156883 -0.16357255 0
1.5286238 0.90221322 -0.16456106 0
1.6372328 0.96829319 -0.16364646 0
1.7602168 0.93691683 -0.1676956 0
-3.4820001 1.077 -0.101 0
-2.2105918 1.0189027 -0.11714219 0
-2.1601756 1.0569353 -0.11844341 0
-2.067301 1.0096035 -0.12104586 0
-1.9400133 1.0597992 -0.1222218 0
-1.8538067 1.039737 -0.12466408 0
-1.7393528 1.0558432 -0.12700707 0
-1.6331633 1.0391551 -0.12918356 0
-1.5372586 1.0651107 -0.13016787 0
-1.4464859 1.0513215 -0.13206355 0
-1.3636035 1.058337 -0.1332522 0
-1.2469965 1.0508373 -0.13447483 0
-1.1468613 1.0463526 -0.13558057 0
-1.042819 1.04962 -0.13653345 0
-0.9556666 1.0528334 -0.13733333 0
0.9425 1.0569999 -0.1575 0
1.0565792 1.0594664 -0.15826088 0
1.1529009 1.0676932 -0.15793201 0
1.2600415 1.0619481 -0.15921286 0
1.3501128 1.0850152 -0.15967907 0
1.4414757 1.0505213 -0.16234195 0
1.5336733 1.0466536 -0.16273856 0
1.714 1.015 -0.163 0
1.8778676 1.0026673 -0.16678239 0
1.9563013 1.0465009 -0.16617359 0
2.0347352 1.0903345 -0.16556479 0
2.398 1.0089999 -0.171 0
2.4771619 1.0445501 -0.17205726 0
2.5563235 1.0801002 -0.17311451 0
-2.0404053 1.1375864 -0.11862206 0
-1.9489151 1.1459836 -0.12071499 0
-1.8446946 1.1420729 -0.12309632 0
-1.7581532 1.1551206 -0.12423425 0
-1.6438518 1.1637412 -0.12614439 0
-1.5416154 1.1387169 -0.12838921 0
-1.4524382 1.169022 -0.12937948 0
-1.3428962 1.1588988 -0.13214351 0
-1.2632231 1.1350062 -0.13322005 0
-1.151733 1.1453758 -0.13401537 0
-1.0496832 1.1505589 -0.13479711 0
-0.94260818 1.1600425 -0.13582733 0
-0.86199981 1.1563876 -0.13647878 0
0.83950001 1.1454999 -0.154 0
0.9410404 1.1624613 -0.15504313 0
1.0451238 1.1722955 -0.15567605 0
1.1715988 1.138738 -0.1570826 0
1.2913313 1.1435132 -0.15755519 0
1.345 1.192 -0.15700001 0
1.4176955 1.1406345 -0.15904942 0
2.1523857 1.156085 -0.1646516 0
2.233 1.127 -0.169 0
2.3032701 1.1654197 -0.16800468 0
2.6354854 1.1156503 -0.17417176 0
2.7542281 1.1689756 -0.17575765 0
-1.9455897 1.2271266 -0.11925035 0
-1.861783 1.2567943 -0.12005384 0
-1.7464501 1.25852 -0.12210796 0
-1.6415691 1.2500229 -0.124755 0
-1.5518461 1.2625368 -0.12615226 0
-1.4582459 1.2519307 -0.12848379 0
-1.3717426 1.2463118 -0.1297403 0
-1.2419791 1.2413961 -0.13175592 0
-1.1502193 1.2518282 -0.13268556 0
-1.0458592 1.2484854 -0.13305868 0
-0.96228319 1.246469 -0.13395698 0
-0.84806299 1.2516391 -0.13506576 0
-0.76860476 1.2533194 -0.13475332 0
-0.671 1.27 -0.133 0
0.77596122 1.2346787 -0.15059808 0
0.87795037 1.2577 -0.1514627 0
0.9590165 1.2433143 -0.153052 0
1.0687175 1.2577958 -0.15418071 0
1.1506798 1.2306057 -0.15490535 0
1.237291 1.2519126 -0.15494455 0
1.3235451 1.2830374 -0.15235801 0
2.2700367 1.2218355 -0.1637384 0
2.3610053 1.2347542 -0.16506946 0
2.4438105 1.242259 -0.16601402 0
2.5140808 1.2806787 -0.16501869 0
2.8729708 1.2223008 -0.17734352 0
2.9745665 1.2679255 -0.17870039 0
-1.848 1.311 -0.119 0
-1.7714233 1.3497975 -0.12034325 0
-1.6568801 1.3368882 -0.12312007 0
-1.5432608 1.3552761 -0.12501231 0
-1.4647841 1.3443758 -0.12649137 0
-1.3466966 1.3372365 -0.12820145 0
-1.225667 1.3513864 -0.12925383 0
-1.1331493 1.320912 -0.13106503 0
-1.0790626 1.3516656 -0.13106979 0
-0.94443172 1.3744577 -0.13199326 0
-0.84882116 1.3322719 -0.13301593 0
-0.73984498 1.3521446 -0.13163087 0
-0.63330114 1.3438936 -0.13329124 0
-0.55400002 1.339 -0.133 0
0.46200001 1.382 -0.142 0
0.565 1.3313333 -0.14533333 0
0.61282599 1.3751374 -0.14506795 0
0.85580617 1.3573935 -0.14899048 0
0.94290072 1.3483999 -0.14992543 0
1.0383116 1.35832 -0.15103641 0
1.1477312 1.337404 -0.15293571 0
1.2478703 1.365569 -0.15268461 0
1.3364117 1.362139 -0.15354556 0
2.0250001 1.36 -0.15800001 0
2.4604521 1.3282514 -0.1622604 0
2.5851755 1.3195492 -0.16401169 0
-1.8469721 1.4577364 -0.11797627 0
-1.735846 1.4128447 -0.12023756 0
-1.6406723 1.4478136 -0.12172852 0
-1.5616997 1.4545817 -0.12297853 0
-1.4471402 1.4595915 -0.12378126 0
-1.3514397 1.4472008 -0.1250537 0
-1.2486957 1.4432673 -0.12666109 0
-1.145604 1.4409852 -0.12797526 0
-1.0369297 1.4280204 -0.13054337 0
-0.95193374 1.4654735 -0.12960522 0
-0.78053486 1.463434 -0.12989262 0
-0.6461271 1.4604089 -0.1311405 0
-0.58202475 1.4101217 -0.13205799 0
-0.25269744 1.4414339 -0.13904323 0
-0.15000001 1.4665 -0.139 0
0.34200001 1.477 -0.142 0
0.44394001 1.4342029 -0.142 0
0.56303573 1.4405817 -0.14299911 0
0.64824265 1.4599744 -0.14371426 0
0.75199997 1.484 -0.14399999 0
0.83099997 1.464 -0.146 0
0.95569986 1.4364693 -0.14837369 0
1.0733767 1.4580568 -0.14857027 0
1.1310332 1.42609 -0.14880589 0
1.2475343 1.4631926 -0.14932555 0
1.3592308 1.4515254 -0.15088946 0
1.4318235 1.4582779 -0.1520911 0
2.0968144 1.4048072 -0.15677242 0
2.1686287 1.4496144 -0.15554482 0
2.240443 1.4944216 -0.15431723 0
-2.0333238 1.5854708 -0.1126357 0
-1.9451513 1.5543309 -0.1143975 0
-1.7217075 1.5429043 -0.11909215 0
-1.6609362 1.5481253 -0.12025429 0
-1.5165808 1.5271832 -0.12094313 0
-1.4490366 1.5325823 -0.12168865 0
-1.3573234 1.5667114 -0.12122364 0
-1.2707978 1.5502638 -0.12326769 0
-1.1510475 1.5711219 -0.12497684 0
-1.0284971 1.5449566 -0.12706248 0
-0.94050771 1.5734972 -0.12768522 0
-0.83626348 1.5455776 -0.12835874 0
-0.73893571 1.5214539 -0.12924917 0
-0.66603714 1.5501826 -0.13008699 0
-0.57599998 1.573 -0.13 0
-0.23989487 1.5483677 -0.13608645 0
-0.16218849 1.5593047 -0.13670352 0
-0.063000001 1.598 -0.13600001 0
0.17200001 1.5650001 -0.139 0
0.25990254 1.5302205 -0.14030086 0
0.36871648 1.5735974 -0.14021528 0
0.44666091 1.5650055 -0.14065397 0
0.53543997 1.5439529 -0.142 0
0.65856808 1.5310421 -0.14250347 0
0.75628418 1.5790683 -0.14125317 0
0.87566799 1.5389557 -0.14421837 0
0.958 1.51 -0.14399999 0
1.0236447 1.5715117 -0.14413586 0
1.1580054 1.544548 -0.14702497 0
1.2418736 1.562674 -0.14629218 0
1.3399025 1.5466992 -0.14830123 0
1.4521313 1.5489742 -0.14953281 0
1.559039 1.5864632 -0.15015185 0
2.3481643 1.5616324 -0.15247583 0
-2.1263466 1.6580949 -0.10968649 0
-2.0423841 1.652379 -0.11095022 0
-1.8531905 1.6608659 -0.11512901 0
-1.7695912 1.6278263 -0.11726996 0
-1.6239362 1.6682773 -0.11447708 0
-1.5548292 1.6360344 -0.1166238 0
-1.4672049 1.6301727 -0.11754045 0
-1.3673174 1.6522169 -0.11888561 0
-1.2701468 1.6496756 -0.12085985 0
-1.1347537 1.6643306 -0.12292007 0
-1.0577579 1.6256437 -0.12463386 0
-0.98301542 1.6399944 -0.12537044 0
-0.86831743 1.6613879 -0.1247937 0
-0.73178321 1.6295956 -0.1275883 0
-0.64911503 1.6405973 -0.12869839 0
-0.36150002 1.6524999 -0.132 0
-0.24619368 1.6386927 -0.13379289 0
-0.14190748 1.6689714 -0.13500613 0
-0.057133436 1.6555132 -0.1361333 0
0.041999999 1.6506667 -0.13766666 0
0.16751583 1.6531516 -0.13780198 0
0.25739929 1.6363567 -0.13808882 0
0.35399193 1.6601684 -0.13861842 0
0.44384155 1.6812342 -0.13857293 0
0.56255496 1.649375 -0.13957173 0
0.67866611 1.6076624 -0.14136894 0
0.74704301 1.6685398 -0.13958153 0
0.83455276 1.6395618 -0.1406597 0
0.94266999 1.6513892 -0.14154592 0
1.0718896 1.642585 -0.14252439 0
1.2553861 1.6569738 -0.14486408 0
1.345209 1.6499141 -0.14406081 0
1.446036 1.6537174 -0.14612767 0
1.5443077 1.6465561 -0.14715682 0
1.6138234 1.6657779 -0.1460911 0
2.474443 1.6404215 -0.15031722 0
-2.1480188 1.7381375 -0.10775338 0
-1.9399512 1.7557743 -0.112414 0
-1.8603884 1.7334691 -0.114445 0
-1.6553628 1.7403802 -0.11204569 0
-1.5357829 1.7560693 -0.11264438 0
-1.4601288 1.7625606 -0.11430961 0
-1.3756939 1.755568 -0.11616846 0
-1.2283821 1.754359 -0.11914742 0
-1.1486449 1.765919 -0.12030244 0
-1.0623459 1.7326514 -0.1218859 0
-0.95053673 1.7638397 -0.12145592 0
-0.84527814 1.7632941 -0.12280619 0
-0.76956642 1.7111912 -0.12517661 0
-0.64049184 1.7416112 -0.12572643 0
-0.41953725 1.7510957 -0.12939915 0
-0.32774562 1.7459106 -0.13113204 0
-0.24843121 1.7317263 -0.13202401 0
-0.14468302 1.7572277 -0.13352589 0
-0.053539842 1.7568438 -0.13433379 0
0.044775244 1.7375617 -0.13588881 0
0.16730046 1.7451247 -0.13604628 0
0.25017604 1.7279688 -0.13619415 0
0.34555551 1.7612389 -0.13661622 0
0.45441961 1.7709798 -0.13650924 0
0.56114632 1.7462851 -0.13764508 0
0.66004688 1.7418665 -0.13844149 0
0.75940114 1.7537506 -0.13849632 0
0.84415883 1.751173 -0.1383999 0
0.9394471 1.7660044 -0.13914132 0
1.0538714 1.7423158 -0.13886018 0
1.1596524 1.758657 -0.14052723 0
1.2868832 1.7382841 -0.14285134 0
1.3598652 1.7494903 -0.14336474 0
1.4550333 1.7418876 -0.14299914 0
1.5527302 1.7604585 -0.14401273 0
1.6563045 1.745662 -0.14601761 0
1.7498624 1.778741 -0.14724295 0
-2.2390001 1.812 -0.105 0
-2.0578327 1.8440714 -0.10816717 0
-1.9933565 1.8570317 -0.11057214 0
-1.2299552 1.8126048 -0.11781955 0
-1.1569999 1.823 -0.119 0
-1.0413032 1.8559237 -0.11840758 0
-0.93747103 1.8343675 -0.11989832 0
-0.84513283 1.8743825 -0.12035322 0
-0.67273778 1.8259169 -0.12358966 0
-0.45307449 1.8831913 -0.1267983 0
-0.33654958 1.8401973 -0.1290206 0
-0.24632154 1.8395734 -0.13024636 0
-0.15201004 1.8450158 -0.1317506 0
-0.066031516 1.8601671 -0.13196336 0
0.047550485 1.8244566 -0.13411097 0
0.16177487 1.8371606 -0.13472301 0
0.2532303 1.8392509 -0.13353857 0
0.34609613 1.8624276 -0.13452171 0
0.4445653 1.8582199 -0.1351293 0
0.54316467 1.8531828 -0.13517617 0
0.64008349 1.8535732 -0.1357393 0
0.75902534 1.8521721 -0.1361561 0
0.84599853 1.8542922 -0.13649338 0
0.93582404 1.8835301 -0.13523628 0
1.0319057 1.8482789 -0.13715047 0
1.1914512 1.8613482 -0.13541149 0
1.2417974 1.8502617 -0.13996834 0
1.3599653 1.8592463 -0.13913783 0
1.4649938 1.8502862 -0.14032622 0
1.562449 1.8708339 -0.14154084 0
1.680776 1.8310909 -0.14472103 0
1.7636051 1.8519105 -0.1438797 0
1.8134701 1.8428336 -0.14627331 0
-2.2258875 1.9941905 -0.10177913 0
-2.1373329 1.9525714 -0.10566717 0
-2.0598407 1.918813 -0.10863571 0
-0.88291603 1.9559782 -0.11794153 0
-0.72110671 1.9523754 -0.12038449 0
-0.47543263 1.9712551 -0.1250644 0
-0.34696063 1.9513651 -0.12686265 0
-0.25933608 1.9513791 -0.12799965 0
-0.15453319 1.9457142 -0.12988028 0
-0.070101447 1.9480661 -0.1301906 0
0.05191467 1.93138 -0.13195097 0
0.16866228 1.924741 -0.13308451 0
0.24172033 1.9511814 -0.13154079 0
0.35265058 1.9650829 -0.13209772 0
0.44630271 1.9459568 -0.13328467 0
0.53395301 1.9477199 -0.13395296 0
0.64605063 1.9561683 -0.1338806 0
0.75003004 1.9577488 -0.13432479 0
0.85300976 1.9394293 -0.13511436 0
0.95198256 1.9728084 -0.13369538 0
1.0679146 1.9589903 -0.13501053 0
1.143676 1.9886899 -0.13352859 0
1.2622461 1.9379188 -0.13505228 0
1.3540589 1.9681028 -0.13642964 0
1.4539087 1.9515789 -0.13889126 0
1.5451587 1.9704331 -0.13985427 0
1.641709 1.9506463 -0.14256509 0
1.7324136 1.9154959 -0.14331317 0
1.8505509 1.9322288 -0.14504018 0
-0.92069924 2.0375738 -0.11552984 0
-0.76947558 2.0788338 -0.11717933 0
-0.45037794 2.050302 -0.12419341 0
-0.3298921 2.0822544 -0.12446068 0
-0.25912008 2.0636511 -0.12647775 0
-0.15965317 2.0465598 -0.1276706 0
-0.061187319 2.0437722 -0.12831667 0
0.041771449 2.0424514 -0.12950945 0
0.15283966 2.0521445 -0.13034531 0
0.26434475 2.0612888 -0.12936684 0
0.35929844 2.0589969 -0.1301606 0
0.45070967 2.0378096 -0.13124798 0
0.54742461 2.0342212 -0.13233793 0
0.66108525 2.0679469 -0.13177902 0
0.74140698 2.0470009 -0.13267009 0
0.86519516 2.0548854 -0.13290486 0
0.95516282 2.052866 -0.13314547 0
1.0552431 2.043107 -0.13387491 0
1.1567947 2.0623622 -0.13263071 0
1.2080764 2.080256 -0.13552414 0
1.5782015 2.048502 -0.14102936 0
1.7221272 2.0609388 -0.14469528 0
1.8786118 2.039675 -0.14783683 0
1.9576433 2.0326033 -0.14612074 0
-0.95848244 2.1191692 -0.11311814 0
-0.80172157 2.1631393 -0.11504254 0
-0.52014899 2.1473827 -0.12159661 0
-0.4194563 2.1301067 -0.12332039 0
-0.3442328 2.1715212 -0.12279378 0
-0.25741524 2.1470859 -0.1249679 0
-0.16131471 2.1605613 -0.12537351 0
-0.064524785 2.1303267 -0.12658 0
0.033678617 2.1700191 -0.1268059 0
0.13575552 2.179261 -0.12749355 0
0.24375631 2.1605089 -0.1277227 0
0.34894088 2.1375074 -0.12839952 0
0.44792882 2.1437609 -0.12898068 0
0.55052984 2.1244266 -0.13067755 0
0.65559614 2.1468277 -0.13042209 0
0.75776547 2.1526732 -0.13107297 0
0.83796763 2.1546097 -0.13124499 0
0.95235598 2.1481814 -0.13181855 0
1.0548524 2.1488223 -0.1308741 0
1.1198789 2.1533697 -0.13460201 0
1.2375764 2.126756 -0.13502413 0
1.6567779 2.1499562 -0.14151059 0
1.7798362 2.1279182 -0.14492705 0
1.8375453 2.1948979 -0.14515881 0
1.9400148 2.1048436 -0.14804605 0
2.0276184 2.1492536 -0.14761356 0
2.1179357 2.1924226 -0.14753926 0
-1.0340488 2.2823606 -0.10829476 0
-0.99626565 2.2007649 -0.11070645 0
-0.83396745 2.2474451 -0.11290577 0
-0.54250711 2.2354465 -0.11986271 0
-0.43594754 2.2189279 -0.12158447 0
-0.35857356 2.2607875 -0.12112689 0
-0.2197893 2.2456465 -0.12324215 0
-0.13672477 2.241467 -0.12417659 0
-0.068681121 2.2379405 -0.12442167 0
0.026416702 2.2685149 -0.12468237 0
0.14138144 2.2665544 -0.12574247 0
0.24775998 2.2669873 -0.12706444 0
0.34871179 2.2337482 -0.12618391 0
0.46252126 2.2437305 -0.12701067 0
0.56044084 2.2460399 -0.12824503 0
0.64840174 2.2518971 -0.12837881 0
0.73995399 2.2447228 -0.12917386 0
0.83063555 2.2543542 -0.12983994 0
0.96037692 2.2672496 -0.12977973 0
1.0297995 2.2483459 -0.13029468 0
1.156 2.2219999 -0.134 0
1.7465693 2.2562735 -0.14266123 0
1.8952544 2.2618775 -0.14539057 0
2.0628207 2.2351811 -0.14846447 0
2.1820526 2.2563505 -0.14810666 0
-1.0700001 2.3599999 -0.106 0
-0.86621344 2.3317509 -0.11076899 0
-0.56486529 2.3235102 -0.11812881 0
-0.46068442 2.35216 -0.11898059 0
-0.37291428 2.3500543 -0.11945999 0
-0.23450989 2.3807955 -0.12029803 0
-0.14985779 2.3560674 -0.1216065 0
0.063000001 2.3210001 -0.124 0
0.15618396 2.3547561 -0.1240445 0
0.25743997 2.3548427 -0.12550221 0
0.36924621 2.3534181 -0.12555185 0
0.46434915 2.3198295 -0.12542346 0
0.54501295 2.3514962 -0.12623872 0
0.64335746 2.3632567 -0.1266818 0
0.74625111 2.3450201 -0.12685733 0
0.85330915 2.3426337 -0.12825961 0
0.92799997 2.3280001 -0.12800001 0
1.041 2.3280001 -0.131 0
1.7784106 2.3348713 -0.1401975 0
1.9529634 2.3288572 -0.14562234 0
2.0106723 2.3958366 -0.1458541 0
2.1549253 2.3329341 -0.14877829 0
2.2645848 2.3386393 -0.14883703 0
-0.90799999 2.441 -0.108 0
-0.89845932 2.4160564 -0.10863221 0
-0.60958159 2.4996378 -0.11466102 0
-0.58722341 2.4115741 -0.11639491 0
-0.45047304 2.4638877 -0.11684272 0
-0.3589853 2.4362583 -0.11827745 0
-0.24432361 2.4708948 -0.11833528 0
-0.15587071 2.4464636 -0.11982492 0
0.264 2.411 -0.1245 0
0.35299999 2.4300001 -0.124 0
0.44097096 2.435967 -0.12390915 0
0.56003016 2.4821527 -0.12428898 0
0.64965421 2.4316187 -0.12537916 0
0.7565105 2.4525228 -0.12496883 0
0.82605571 2.4459159 -0.12631588 0
0.91399997 2.4219999 -0.12800001 0
1.8451562 2.4188416 -0.14003187 0
2.0469999 2.438 -0.146 0
2.22 2.402 -0.149 0
-0.63099998 2.5840001 -0.113 0
-0.50191259 2.5742133 -0.11464079 0
-0.43158308 2.5317595 -0.11556527 0
-0.37160844 2.5254154 -0.11668713 0
-0.25413737 2.5609944 -0.11637253 0
-0.16188362 2.53686 -0.11804335 0
0.64450002 2.5314999 -0.124 0
0.73400003 2.5150001 -0.124 0
0.83200002 2.5090001 -0.124 0
0.91335934 2.5562854 -0.12642449 0
-0.50800002 2.6070001 -0.114 0
-0.44600001 2.612 -0.114 0
-0.38461581 2.6172862 -0.11504841 0
-0.26100001 2.6240001 -0.115 0
-0.17830312 2.6276829 -0.1162727 0
3.3304496 -2.4156427 -0.095758334 0
3.2590001 -2.3759999 -0.086999997 0
2.1700001 -2.023 -0.025 0
2.8210001 -2.007 -0.028000001 0
3.2646704 -2.0464444 -0.091135293 0
2.1047716 -1.9606276 -0.015142017 0
2.6726179 -1.9026372 -0.018462453 0
2.746809 -1.9548186 -0.023231227 0
2.0425086 -1.8648875 -0.010528632 0
2.1295297 -1.8515526 -0.022625642 0
2.2538514 -1.8286036 -0.015352107 0
2.326 -1.801 -0.02 0
2.5984268 -1.8504558 -0.01369368 0
1.9799491 -1.7720394 -0.0045464579 0
2.0391774 -1.7443167 -0.0037538558 0
2.2567992 -1.7463447 -0.0080992365 0
2.3469999 -1.733 -0.017999999 0
2.4500446 -1.746093 -0.004156135 0
2.5433989 -1.7695882 -0.013181363 0
2.635 -1.788 -0.025 0
2.2462401 -1.6645386 -0.0061296597 0
2.3548977 -1.6577663 -0.010254361 0
2.451937 -1.6605037 -0.009396364 0
1.1826406 -1.5239776 -0.014752788 0
1.2302811 -1.5899553 -0.0045055766 0
2.3768692 -1.5925133 -0.0020552892 0
2.4493146 -1.5619175 -0.0075341724 0
3.3958905 -1.5128717 -0.077749275 0
3.4807367 -1.5421293 -0.084391162 0
3.5735285 -1.5535256 -0.094558574 0
1.135 -1.4579999 -0.025 0
3.1573083 -1.4040254 -0.053561226 0
3.2384877 -1.4337847 -0.054274902 0
3.3192372 -1.4698997 -0.06431365 0
3.4214606 -1.4667115 -0.06770166 0
3.518225 -1.4691772 -0.079631858 0
3.6344023 -1.4207966 -0.098328032 0
2.9942231 -1.3194194 -0.010881431 0
3.0723255 -1.3613701 -0.037464932 0
3.1581674 -1.3913145 -0.034911074 0
3.2403684 -1.3469872 -0.026487596 0
3.3745294 -1.3602705 -0.05328792 0
3.4701033 -1.334695 -0.039492048 0
3.5528045 -1.3875933 -0.084656067 0
3.1330512 -1.2580984 -0.01000385 0
3.2264132 -1.2547798 -0.029968187 0
3.3080111 -1.2879832 -0.043640159 0
3.4559393 -1.2637186 -0.018998384 0
3.0632176 -1.1883732 -0.0026242509 0
-4.6476755 -0.4855589 -0.097551718 0
-4.4376917 -0.16308603 -0.09479972 0
-4.3330436 -0.15786177 -0.099370949 0
-4.1505308 0.12512654 -0.091970518 0
-4.0488844 0.12004422 -0.097617537 0
-4.1377597 0.21781287 -0.092139013 0
-4.0488739 0.21267919 -0.095952593 0
-3.9632285 0.20773266 -0.09962716 0
-4.024292 0.36399674 -0.092668749 0
-3.9564738 0.34390047 -0.096517503 0
-3.8607359 0.55464876 -0.093075663 0
-3.7721186 0.54511207 -0.095129706 0
-3.6440887 0.53133404 -0.09809728 0
-3.8270371 1.18699 -0.089322984 0
-3.7407777 1.1594925 -0.092242241 0
-3.6545186 1.131995 -0.095161498 0
-3.5682592 1.1044976 -0.098080747 0
-4.1720738 1.2969799 -0.077645965 0
-4.0858145 1.2694824 -0.080565222 0
-3.9564259 1.2282362 -0.084944099 0
-3.1185334 1.2852118 -0.093097858 0
-3.0357666 1.2506058 -0.095048927 0
-2.9530001 1.216 -0.097000003 0
-4.3712959 1.3604875 -0.070903733 0
-4.2583332 1.3244774 -0.074726708 0
-3.3668332 1.3890294 -0.08724463 0
-3.2426832 1.3371205 -0.090171248 0
-2.8336897 1.3984047 -0.098203436 0
-2.7550001 1.359 -0.1 0
-3.6151328 1.4928471 -0.081391409 0
-3.5323663 1.4582412 -0.083342485 0
-3.4495997 1.4236352 -0.085293561 0
-2.9517243 1.4575119 -0.095508575 0
-3.7590001 1.553 -0.078000002 0
-3.6978993 1.5274529 -0.07944034 0
-3.2271383 1.5954283 -0.089220591 0
-3.1484485 1.5560236 -0.091017157 0
-3.0697589 1.516619 -0.09281373 0
-3.4119999 1.688 -0.085000001 0
-3.3451729 1.6545355 -0.086525738 0
-2.2931094 2.0542381 -0.099223912 0
-2.4275534 2.1743336 -0.094113469 0
-2.3603315 2.1142857 -0.09666869 0
-2.5619972 2.2944288 -0.089003034 0
-2.4947753 2.2343812 -0.091558255 0
-2.6351094 2.3597383 -0.086223915 0
-0.69300002 3.3829999 -0.097999997 0
-0.95899999 3.4430001 -0.092 0
-0.7152009 3.4493027 -0.09469986 0
-0.98655719 3.5225041 -0.090257876 0
-0.74850225 3.5487568 -0.089749664 0
-1.0278931 3.6417603 -0.087644696 0
-0.76700002 3.6040001 -0.086999997 0
-1.0692288 3.7610164 -0.085031517 0
-1.096786 3.8405204 -0.083289392 0
-1.1286716 3.9325123 -0.081273638 0
-1.6893735 -7.6485028 0.027985044 0
-1.6604942 -7.5210109 0.048940182 0
-1.6412413 -7.4360166 0.062910274 0
-1.6219884 -7.3510218 0.076880366 0
-1.6027355 -7.2660275 0.090850465 0
1.4 -1.825 0.032000005 0
1.9743145 -1.8358825 0.0045739487 0
1.3493824 -1.7548995 0.021112455 0
1.669 -1.728 0.0070000002 0
1.739 -1.722 0.0099999998 0
1.8503062 -1.7390118 0.019738207 0
1.9117548 -1.7430346 0.010556124 0
2.1514049 -1.7434146 0.0015915725 0
1.2779217 -1.655933 0.0057416353 0
1.5543396 -1.6088499 0.012871167 0
1.6390578 -1.6449714 0.021344578 0
1.7473112 -1.6380845 0.034923799 0
1.8409371 -1.6588192 0.017685726 0
1.9395604 -1.6568043 0.012930753 0
2.0489583 -1.6582255 0.018535251 0
2.152998 -1.6643616 0.0097519094 0
2.338758 -1.6678209 0.0029970268 0
1.4970094 -1.5492748 0.015806749 0
1.5665034 -1.544489 0.044098154 0
1.644208 -1.5333055 0.051281333 0
1.7378172 -1.5569931 0.032569893 0
1.8590788 -1.5427679 0.038195036 0
1.963254 -1.5503798 0.037491374 0
2.0462124 -1.5458698 0.020941697 0
2.1593821 -1.5550141 0.014711159 0
2.2375617 -1.5573845 0.013329187 0
2.3254936 -1.5718178 0.0085690748 0
1.382349 -1.4301246 0.021677915 0
1.4455924 -1.4579241 0.042786293 0
1.5552831 -1.4533998 0.061234385 0
1.6523216 -1.474638 0.051587395 0
1.7243698 -1.4276335 0.060613893 0
1.8257556 -1.4389317 0.060687918 0
1.9463978 -1.4790339 0.038202286 0
2.0547664 -1.4467123 0.031536035 0
2.1500278 -1.44671 0.037351467 0
2.252748 -1.4710228 0.027814548 0
2.3422587 -1.4926703 0.014863309 0
1.3659999 -1.3755 0.050999999 0
1.4554758 -1.3534279 0.078157634 0
1.5360568 -1.3513756 0.074945681 0
1.6617577 -1.3397832 0.079661667 0
1.7377938 -1.3364295 0.081156477 0
1.8985676 -1.3297284 0.077438965 0
1.9594282 -1.3408945 0.072780341 0
2.0567791 -1.3522192 0.065327249 0
2.1281471 -1.3541758 0.059658274 0
1.8494543 -1.2734203 0.091643415 0
1.974703 -1.2549231 0.091760792 0
2.8171394 -1.2417622 0.015074104 0
2.912251 -1.2834718 0.0011333898 0
3.0274496 -1.2533543 0.014236297 0
3.2250483 -1.2286488 0.02801194 0
3.3432684 -1.255841 0.0073394678 0
2.8997791 -1.1135138 0.076027855 0
2.9755719 -1.1484891 0.029690534 0
3.0576918 -1.1442968 0.051351815 0
3.1596222 -1.1853069 0.035014421 0
3.2556353 -1.1973115 0.016009692 0
2.839 -1.092 0.085000001 0
2.941 -1.0930001 0.071000002 0
-16.62788 -10.641003 0.17315622 0
-16.589762 -10.528006 0.18881243 0
-1.5834826 -7.1810331 0.10482056 0
-1.5546032 -7.0535412 0.12577569 0
-1.535 -6.967 0.14 0
