# .PCD v0.7 - Point Cloud Data file format
VERSION 0.7
FIELDS x y z intensity
SIZE 4 4 4 4
TYPE F F F F
COUNT 1 1 1 1
WIDTH 604
HEIGHT 1
VIEWPOINT 0 0 0 1 0 0 0
POINTS 604
DATA ascii
-54.276371 -7.3949862 1.6192474 4
-47.641388 -4.837285 2.9382718 5
-47.676361 -4.5869789 2.8271925 5
-47.872528 -3.7867506 2.9729545 5
-47.280792 -4.6874647 3.6861613 6
-34.141144 -23.680891 20.079145 17
-29.738237 16.108007 7.2062373 10
-28.929674 16.571789 7.1120162 10
-29.115757 16.23802 7.5791192 10
-28.91925 16.506073 7.9670305 10
-28.814751 16.2607 9.2810726 11
-28.493046 16.391052 8.3079958 11
-24.912149 16.746735 6.4204335 10
-24.464655 16.462179 7.4794369 11
-24.143499 16.662441 6.6233516 10
-24.130356 16.657625 8.2623491 11
-17.611305 -6.9758458 0.58611572 4
-17.473442 -7.8653512 0.58042997 4
-16.821444 -15.323599 5.8732705 11
-16.8305 -15.183801 5.8962154 11
-16.735159 -9.7002544 0.19202241 4
-16.748781 -9.6878519 0.90601969 5
-16.598934 -10.98059 1.4645038 5
-16.659472 -10.500247 1.4423239 5
-16.78529 -9.5635586 1.3969771 5
-16.554047 -10.99012 1.9865007 6
-16.66881 -9.956852 1.9171125 6
-16.74531 -9.4644127 1.8879323 6
-16.453375 -11.610633 2.2967312 7
-16.494068 -11.445037 2.1881714 6.5
-16.554335 -10.982047 2.2904975 7
-16.591084 -10.588795 2.2423484 7
-16.570869 -10.681725 2.4973819 7
-16.641451 -10.201247 2.4832041 7
-16.479822 -11.790402 2.9808061 8
-16.546568 -11.277983 2.9326134 8
-16.533249 -11.669715 3.5797663 8
-16.586336 -11.172488 3.5275774 8
-16.684137 -15.199455 5.2402005 10
-16.240601 -13.243166 2.39235 7
-16.264145 -13.171063 2.1473243 6
-16.224499 -13.288238 2.5973656 7
-16.348557 -13.051888 2.4982893 7
-16.282869 -13.411729 3.1444237 8
-16.120636 19.711281 18.287863 22
-16.133406 19.350399 19.222923 23
-14.878935 -16.722334 1.0565596 5
-14.745175 -16.822241 1.7135813 6
-14.467347 -16.818735 2.7805409 7
-14.757159 -16.646055 2.6615119 7
-14.677669 -16.624231 3.3984914 8
-14.580032 18.737389 5.3178921 10
-14.235084 -16.854694 0.048522569 3
-14.101758 -18.214247 1.1170578 5
-14.280929 -16.814617 1.0515128 5
-14.253285 -17.019487 1.7035924 6
-14.284517 -16.900923 2.3895485 6
-14.031549 -18.099632 2.7075012 7
-14.299866 -16.919565 2.5355582 7
-14.052761 -18.279148 3.5730774 8
-14.246167 -16.891262 3.3985393 8
-14.070995 -14.909326 4.9852099 10.5
-14.287132 18.876089 5.1668434 10
-14.108417 19.057343 5.2647977 10
-14.328251 18.825932 6.125855 11
-13.954638 -18.247593 1.7640507 6
-13.847614 -18.287266 2.2640522 6
-13.259431 -18.175196 1.729924 6
-13.402197 -18.321127 2.4980035 7
-13.599273 -18.255541 2.9080045 7
-13.37628 -18.241352 3.5179677 8
-13.080401 -18.162268 2.2298934 6
-12.809329 21.796303 18.178253 22
-12.585903 -18.088528 1.6937944 6
-12.732448 -18.225368 2.5248706 7
-12.698179 -18.173731 3.4598446 8
-12.433952 21.811523 18.474226 22
-12.525667 21.656473 18.897257 23
-12.636251 21.692389 24.55826 27
-12.390562 -18.104868 2.2077737 6
-12.206423 -18.08703 2.8207409 7
-12.023272 -18.068203 3.3987081 8
-12.136391 -14.75855 8.734375 16
-12.197677 -14.686491 9.0543537 17
-12.028988 -14.738245 9.4023533 17
-12.177277 21.806158 17.961212 22
-12.02863 22.235872 18.626137 22
-11.938163 -8.6299763 0.159879 4
-11.933245 -17.996571 1.6596657 6
-11.690569 -17.992838 2.1816301 6
-11.796988 -18.091671 2.4256854 7
-11.755222 -14.700349 8.8487968 16
-11.947423 21.920254 18.792179 23
-11.573608 -12.313157 0.55530238 4
-10.907762 3.4976826 0.41454116 4
-10.400747 -17.826977 2.1423817 6
-10.659806 22.462505 17.886021 22
-10.612714 22.364162 18.680035 23
-10.190632 -17.884062 1.5793756 6
-10.102392 -17.87146 2.3283577 7
-10.29185 -17.825808 2.7113662 7
-10.18411 -17.831633 3.2483535 8
-10.117644 22.590805 17.808971 22
-10.297327 22.503134 18.306995 22
-10.240526 22.511997 18.621492 23
-9.7385702 22.595331 18.223955 22
-9.8003063 22.582129 18.50996 23
-9.5423203 22.640869 17.678942 22
-9.5715303 22.582397 18.46295 23
-8.6252337 -17.68334 2.1530728 6.5
-8.5996723 -17.638186 2.6340506 7
-8.5169392 -17.601631 3.1230242 8
-8.3589344 3.119446 0.32524782 4
-7.830008 3.9126852 0.096977845 4
-7.9483385 4.4334378 0.25887498 4
-7.9295001 -14.132387 7.1515279 16
-7.7044854 -14.047106 7.4479618 16
-7.7621422 19.472982 15.766326 23
-7.536602 -14.109536 7.9524627 17
-7.2658038 19.635002 15.070282 22
-7.4203606 19.56991 15.550299 22
-7.4109879 19.558344 15.7663 23
-6.9934587 19.748909 15.586256 22
-7.0028257 19.692575 15.736764 23
-6.4253225 2.1017394 0.0052126171 3
-6.7974548 4.2105742 0.20576936 4
-6.5366726 -13.921212 6.9462433 16
-6.4989176 19.805311 15.57473 23
-6.3536739 -13.860744 7.0891929 16
-6.3161116 -13.926239 7.6082144 17
-6.3954825 19.951002 15.086205 22
-6.0282245 19.869072 15.539206 23
-5.6146493 -2.2663732 -0.12155171 3
-5.6573501 2.8244488 -0.056076597 3
-5.7221737 -13.819268 6.7445846 16
-5.887156 19.863436 14.920203 22
-5.3373771 -7.1147799 -0.20369427 3
-5.2305279 -5.6405449 -0.17730308 3
-5.4337387 -2.486289 -0.12149977 3
-5.2754598 -7.6938763 0.054531015 3
-5.3144422 3.7787678 0.23942173 4
-5.2081933 4.4227509 0.2505312 4
-5.2853661 3.7229941 0.64025056 6.2857141
-5.2051744 4.4237485 0.46053067 5
-5.4258108 -13.775131 6.8240232 16
-5.5665622 -13.828091 7.4180655 17
-5.0932665 -5.0123858 -0.16857421 3
-4.8934975 -4.3953762 -0.15884888 3
-5.1253667 -3.7644472 -0.14506122 3
-5.1336489 2.8780928 -0.0541608 3
-5.1241045 4.3476863 0.039536238 3
-5.1119704 3.8968647 0.66812289 6.5
-5.1755314 4.3859701 0.67353457 6.5
-5.070035 19.792702 21.184193 27
-4.5592365 -0.82776481 -0.093233302 3
-4.7553411 -0.6416415 -0.097262427 3
-4.6332674 -0.36200693 -0.10637373 3
-4.5476933 2.996099 -0.052762363 3
-4.683517 -7.585824 0.068401657 3
-4.6163363 19.85693 21.163174 27
-4.2004752 -7.7087111 -0.037618764 3
-4.0065045 -2.618577 -0.16067731 2
-4.021306 -1.6373214 -0.12904017 2
-4.348629 -0.10631702 -0.098501913 3
-4.1727309 -13.598696 6.3747673 16
-4.280396 -13.508466 6.4877462 16
-3.9177043 -8.0787363 -0.016510159 3
-3.7808306 -0.88169914 -0.12634529 2
-3.7221026 -0.065881506 -0.12161884 2
-3.7660472 0.61816955 -0.092810601 3
-3.8575342 1.492226 -0.072021626 3
-3.655566 1.6095006 -0.078078531 3
-3.9853985 3.0777247 -0.024347236 3
-3.6280742 9.1844196 0.11865098 4
-3.8519545 -13.533939 6.5423594 16.333334
-3.8084617 -13.837211 8.9258089 20
-3.8625014 -13.674438 9.3767519 21
-3.2022805 -0.1127928 -0.11969124 2
-3.3298035 4.1551738 0.47939512 6
-3.5318913 -13.540022 6.3386464 16
-3.2461777 -13.35001 6.4285254 16
-3.4338746 -13.772084 8.8567247 20
-3.4502227 -13.64825 9.3006773 21
-3.1632991 0.54403955 -0.1068868 2
-2.9001338 1.3712267 -0.099629916 2
-3.1209421 -7.4216375 0.0031059412 3
-3.1061053 4.2616329 0.28902742 4.6666665
-3.0968788 4.2594638 0.47436047 6
-3.0367713 -13.460538 6.1840377 16
-3.1680384 -13.511584 6.6055794 17
-3.019129 -13.708565 8.9986353 20.25
-2.9919398 -13.667311 9.2226143 21
-2.9205246 -13.578752 9.4115686 21
-2.960871 20.109297 20.645115 27
-2.6360579 -7.1863532 -0.0060621663 3
-2.678925 -1.4251393 -0.1626709 2
-2.6388934 0.66559249 -0.12000073 2
-2.5073261 1.5248865 -0.10521433 2
-2.5369973 3.5832102 -0.057572272 3
-2.4319553 3.7883949 -0.065610945 3
-2.5768161 4.5381384 -0.052716177 3
-2.4669957 4.8573036 -0.053769201 3
-2.7053857 -6.8879714 0.39282772 5
-2.6834354 -6.7965226 0.20878747 4
-2.5507233 7.4890881 0.10085618 4
-2.6936681 -6.9280157 0.83584213 6.5
-2.5614812 -13.679937 9.0542192 20.666666
-2.4955916 20.1409 20.679104 27
-2.5383749 20.127398 21.292107 28
-2.2526135 -4.2129822 -0.21831889 2
-2.2294791 -3.7549605 -0.20550582 2
-2.3026586 -3.4950113 -0.20359825 2
-2.332562 -2.9948814 -0.19679201 2
-2.3501687 -2.6218872 -0.182936 2
-2.3108983 -2.2071431 -0.17910339 2
-2.3610408 -1.8593991 -0.17372845 2
-2.2966514 -1.2333269 -0.16547085 1
-2.223604 -0.43685982 -0.13850532 1.5
-2.3083932 -0.25453475 -0.13429789 2
-2.384383 0.78941059 -0.11506967 2
-2.2826807 0.87834287 -0.11510517 2
-2.1561904 -6.7321196 0.1681809 4
-2.2705369 7.8467746 0.11279881 4
-2.222815 -6.7206073 0.61301988 5.3333335
-2.2992032 -6.8319426 0.82224321 7
-2.1609628 -13.641406 8.797473 20
-2.2785587 -13.660737 9.0615005 21
-2.001236 -13.471595 9.5313797 22
-2.3066924 -13.523895 9.6074495 22
-2.071537 20.261719 18.899086 26
-2.3633339 20.149746 21.193104 28
-2.0938017 20.182283 21.361101 28
-1.98706 -4.2579513 -0.22834179 2
-1.8703978 -0.10126048 -0.13741793 1
-1.8163203 0.6588214 -0.12937081 1
-1.6177988 0.88874227 -0.13019656 1
-1.7528101 1.3359189 -0.11926538 2
-1.7353489 4.4197111 -0.062734991 3
-1.7759215 -6.7163777 0.30161521 4.5
-1.6043833 3.927618 0.25033021 5
-1.8164855 -6.7458911 0.66563356 6
-1.6007886 3.8526905 0.51334065 7
-1.7815704 -6.8625388 0.82067502 7
-1.8291072 -13.611728 8.7154083 20
-1.7772733 -13.558763 8.9833784 20.666666
-1.7039434 -13.427174 9.4633131 22
-1.8419589 20.270613 18.747084 26
-1.604261 20.300497 18.832081 26
-1.9193612 20.254683 21.282087 28
-1.4958107 -9.4219627 -0.0083377277 3
-1.438693 -4.09972 -0.2284915 2
-1.5981755 -3.9616654 -0.22352143 2
-1.2088467 -2.3824685 -0.19121291 1
-1.2294097 -1.7837951 -0.17694314 1
-1.3387454 -1.3278483 -0.16543107 1
-1.5104703 -1.0146881 -0.15743257 1
-1.5042307 -0.27746108 -0.15142824 0.5
-1.3262069 1.0713528 -0.13326152 1
-1.5791733 1.4577924 -0.1218038 2
-1.2817841 4.6333451 -0.062774636 3
-1.2477745 -8.0601587 0.18407239 4
-1.4829232 -7.0217066 0.21435833 4
-1.426661 3.8953691 0.31874681 5.6666665
-1.5140976 -6.9466896 0.70116645 6
-1.3185258 3.8570573 0.45695788 6.5
-1.4972354 -13.538128 8.6113243 20
-1.4475727 -13.529757 8.9886475 21
-1.4086671 -13.383764 9.3982477 22
-1.3279386 -13.108663 11.539124 25
-1.3647597 20.479799 14.807058 22
-1.1204709 -2.8147247 -0.20805649 1
-1.1621096 -2.5751336 -0.19814457 1
-1.18715 -2.0602982 -0.18334293 1
-0.91583848 -1.4591604 -0.17378847 0
-0.98412889 -1.1716409 -0.16671801 0
-1.1359994 0.68523461 -0.1433811 0
-0.96940571 0.96521181 -0.13827506 0
-0.98882818 1.3833057 -0.13116509 1
-1.0823992 1.8492785 -0.11814513 2
-1.043925 3.4528067 -0.087116219 2.5
-0.92467892 4.5525475 -0.068766512 3
-1.0331988 -9.53936 0.18838376 3.5
-1.0859329 3.9397645 0.29619291 5.5
-0.99278915 -9.4377975 0.6805861 5
-0.9959172 3.951262 0.46631527 6.5
-0.96060735 -9.4089098 0.93906903 6.5
-0.94874692 -9.4835014 1.4005973 8
-1.0698276 -13.0765 11.43657 25
-1.0968796 20.561426 14.499045 22
-0.91144186 20.509882 14.813053 22
-0.9510265 20.360779 18.767075 26
-1.1367035 20.374388 18.811069 26
-0.51398182 -5.3081002 -0.26215997 2
-0.6724478 -4.7485442 -0.25035778 2
-0.79811519 -4.2758274 -0.23952627 2
-0.56982911 1.3993454 -0.13218018 0.33333334
-0.59865147 1.6514031 -0.12937918 1
-0.43264452 2.6149337 -0.11450394 2
-0.78574967 3.4444249 -0.094617032 2
-0.58462167 4.4621177 -0.073753826 3
-0.72154474 8.7881184 -0.011343271 3
-0.74730772 4.070878 0.27829841 5
-0.78773838 4.0803394 0.56529707 7
-0.4942219 20.750732 3.0770223 8
-0.42904371 20.684391 4.5010319 10
-0.61483175 -13.036373 5.8089757 16
-0.67568684 -13.027557 11.159982 25
-0.54845738 -13.005445 11.215952 25
-0.64479822 -15.389557 16.844931 28
-0.65325308 20.299561 20.977081 27
-0.50783008 20.276903 21.450087 28
-0.39547133 -7.3201361 -0.14136967 3
-0.03964569 -7.0202103 -0.076553509 3
-0.31694376 -6.0046678 -0.2779139 2
-0.114327 -3.395642 -0.22500135 1
-0.29638013 -3.006551 -0.21262364 1
-0.3671841 1.4277511 -0.13434806 1
-0.20661424 1.6650167 -0.13353935 1
-0.15945038 2.6362162 -0.11600058 2
-0.17808856 6.0733376 -0.042968154 3
-0.081861027 -6.8181305 0.038372502 3
-0.080951147 -6.7801094 0.11735701 4
-0.37987956 9.6301641 0.33854395 4
-0.024999231 24.213079 3.594552 8
-0.24844466 -13.003576 5.7958999 16
-0.30866668 -12.967993 11.145895 25
-0.30950001 -15.38031 16.814871 28
-0.19387493 20.344753 21.086081 27
-0.043955058 20.326588 21.542084 28
0.0013232045 -4.6027002 -0.25549093 2
0.26557964 -4.2649002 -0.25207353 1.3333334
0.037692316 -3.635159 -0.22993372 1
0.24126232 1.671577 -0.13793264 1
0.12771536 2.3201172 -0.12444706 2
0.35457125 2.4183195 -0.12494954 2
0.10509221 6.5789819 -0.044032495 3
0.31553069 -6.8343444 0.28925532 5
0.2112588 -6.7678137 0.16274835 3.75
0.30090615 -1.6318787 0.2837339 8.5
0.35243711 -1.5826848 0.31323087 9
0.33462879 4.702106 0.10423094 4
0.27370155 -1.6196381 0.45044112 11.5
0.36751202 -1.5871025 0.61082894 14
0.24941418 -13.164551 3.8423893 12
0.13239042 24.255867 3.9475477 8
0.07985232 -13.055155 5.7763772 16
0.4256987 -4.5663548 -0.26042423 2
0.54156947 -3.793498 -0.2443064 1
0.68470711 -3.5935254 -0.24226215 1
0.6975351 -1.4612131 -0.034756862 2.5
0.79390049 1.4836853 -0.1447773 1
0.5903942 1.7868869 -0.13634169 1
0.58503431 2.3117092 -0.12642114 2
0.50510919 4.5167985 -0.026737968 3
0.50169694 -6.7585731 0.12312684 3.6666667
0.76652503 -3.1790645 0.11080036 4
0.60153079 -1.4939412 0.21768799 7.181818
0.56688493 9.8114901 0.058532342 3
0.53720373 -1.5200186 0.58895147 13.8
0.77114075 -14.974379 2.2702279 8
0.60900491 -15.03475 3.3451931 10
0.5481149 -13.100225 3.8394458 12
0.60779309 24.304108 3.7785451 8
0.60557914 -13.052816 4.0304604 12
0.77063251 24.273998 4.8825512 9
0.59671384 24.270397 5.2765498 10
0.44389808 24.295637 5.6245446 10
0.50121331 24.247274 6.2975516 11
0.67602181 23.997385 17.184587 22
0.52527863 24.036585 17.359581 22
0.69624424 23.864901 22.212605 26
0.90201092 -6.2489882 -0.31858081 2
0.99955177 -3.0048022 -0.069277853 2.5
1.0243939 -1.4002676 -0.074679583 1.9
1.0602102 1.4097126 -0.14891092 1
0.9876017 2.5320446 -0.12642942 2
1.0182093 3.7714036 -0.0936113 3
0.89854681 4.0751028 -0.096660443 3
1.0186677 -2.9966352 0.11485013 4
1.0243286 -1.4147931 0.20460935 6.6111112
0.86376643 3.9708762 0.27510291 5.5
1.1123785 -1.634692 0.62925124 12
1.1793059 -1.5807686 0.62500888 12
0.84336382 3.9795408 0.56235075 7
0.86849827 -14.925612 1.9982497 7
0.85600305 -14.996842 3.0382378 9
0.84273487 -13.022997 3.8345025 12
1.1588224 24.346094 5.2925458 10
1.1137278 -13.00678 5.9265466 16
0.990399 24.283411 5.6355524 10
1.1287267 -12.94971 6.2650566 17
1.0806237 24.375828 6.3675408 11
1.1029434 -12.824024 11.22057 25
0.9125188 23.997534 17.031591 22
0.97855228 23.877687 21.987608 26
1.5785443 -6.1987472 -0.3154844 2
1.5764688 -1.769344 -0.2129872 1
1.2044998 -1.3574078 -0.046724424 2.5
1.4733447 1.9735227 -0.1380605 2
1.3737341 2.5021021 -0.13140106 2
1.2300524 -1.3672975 0.14115082 5.25
1.2434838 3.9337885 0.20337583 4.6666665
1.2147648 -1.3699086 0.58702505 12
1.2173225 -12.98447 5.4665661 15
1.2671143 -12.977148 5.7165742 16
1.4091942 -12.910212 6.2596049 17
1.3581766 -12.810196 11.246612 25
1.422737 -12.773738 11.229626 25
1.2479662 24.065002 17.195583 22
1.2642679 23.947447 21.451601 25
1.4302965 23.953238 21.761602 25
1.4379854 23.956907 22.197603 26
1.7777905 -5.7727442 -0.31540602 2
1.6047493 -1.683712 -0.20813422 0
1.9567728 -0.4863022 -0.20388226 0
1.8749663 -0.18200491 -0.20020679 0
1.6727092 0.35960001 -0.18282796 0
1.6986487 0.94233793 -0.16662782 1
1.8331164 1.5164809 -0.15021513 1
1.6398063 1.6797657 -0.14375216 1
1.7834841 2.890244 -0.13043787 2
1.8462911 -1.6799407 0.016027953 3
1.8348411 -1.3319502 0.1501919 5.1999998
1.8332298 24.010235 21.616604 25
1.7816688 24.018713 22.346601 26
2.2054212 -8.754673 -0.017732961 3
2.3335676 -1.727079 -0.017961046 3
2.0798361 0.63558692 -0.17507121 1
2.046581 1.3553301 -0.15817948 1
2.0141442 4.6520009 -0.0156928 3
2.1061668 -1.221712 0.20274889 5.5999999
2.2768648 -1.1795503 0.22385658 5.7777777
2.1139085 -1.2132502 0.46754909 9
2.2635393 -1.1795504 0.48243979 9
2.2861228 24.506853 5.3385406 10
2.1056964 24.435186 5.7075477 10
2.3367734 24.487694 6.8635445 11
2.3389449 -15.440139 17.002401 28
2.0470161 24.019753 22.177605 26
2.3860636 24.007763 25.56361 28
2.568825 -12.384871 -0.38815787 2
2.4352579 -1.6352028 -0.015955618 3
2.4478402 -1.484619 -0.012951357 3
2.5461757 -0.072208405 -0.20449071 1
2.7543132 0.69913882 -0.19706857 1
2.558615 1.4420902 -0.1556742 2
2.515204 1.6460147 -0.15020627 2
2.7137823 2.1823325 -0.15528041 2
2.7411835 5.6282849 -0.016803456 3
2.5701003 -1.1315485 0.23494217 5.8333335
2.6303272 -1.1135194 0.56741071 9
2.4446282 -15.306452 17.026436 28
2.4942992 24.00293 25.051615 27
2.6067328 24.017174 25.306614 28
2.7231431 23.653437 25.865664 28
3.0983691 -9.9654722 -0.23177472 3
2.8124816 -2.5324261 -0.25698727 1
2.9907935 -2.2249599 -0.25963244 1
3.1690314 -1.91666 -0.26295 1
2.9205468 -0.6092273 -0.22895864 1
2.8562064 -0.281822 -0.22797558 1
2.9627926 2.1630743 -0.16226774 2
3.1332273 3.4258742 -0.1324528 2
3.003763 -1.2420357 0.01705648 3
3.0548255 -1.0482748 0.24103956 5.4545455
2.9429657 5.0632739 0.22509 4.1999998
2.9789345 -1.0612683 0.62551296 9
3.0546467 24.105049 25.147608 27
3.1603124 24.142365 25.437605 28
3.408422 -0.99814838 -0.10594526 2.3333333
3.2806785 3.0673707 -0.13439186 2
3.4547184 4.1608286 -0.12655014 3
3.3443587 -0.99644148 0.15615465 4.5
3.3001337 -0.98059082 0.58605415 8.333333
3.226058 23.533997 25.88969 28
3.6877167 -2.5986373 -0.23296285 2
3.6682467 -1.5326703 -0.1099381 2
3.7699618 -0.92104137 -0.10194644 2.5
3.9863844 0.97874427 -0.20908634 2
3.7298629 -0.92611796 0.16713695 4.5
4.0955615 -2.4312935 -0.18494694 2
4.1896482 0.82835174 -0.21306825 2
4.543889 -7.5011916 -0.084327608 3
4.6972947 0.48083544 -0.209032 2
4.6593695 24.318787 22.734615 26
5.0348186 8.3365364 -0.018103452 3
5.0811434 23.854904 23.835691 27
5.4145069 -0.6119675 -0.13245769 2.5
5.5020962 -0.3752827 -0.19196935 2
5.4209518 5.3147454 -0.00064191053 3
5.3010077 -0.53631347 0.22478899 4.5
5.4504948 -0.35720181 0.23319623 4.5
5.2480936 -0.56643152 0.46354052 6
5.4370184 -0.38623804 0.43103117 6
5.3747172 24.399946 22.815624 26
5.6185203 -5.5778995 -0.39807266 2
5.9715915 4.3476238 -0.15648392 3
6.1234274 -5.5272613 -0.4300442 2
6.3044434 -1.2283767 -0.27493176 2
6.1192932 -0.62213212 -0.27195597 2
6.0484581 4.0255575 -0.17443676 3
6.7433491 -5.471633 -0.38501397 2
6.7669001 -1.092459 0.23946455 4.1999998
6.7801247 6.0689087 0.0022970701 3
6.7772317 -1.0431871 0.72206289 6
6.5581813 1.7620066 0.79285473 7
6.5226011 1.8622525 1.0165104 8
6.4950695 2.0169299 0.98782635 8
6.5705638 1.8429987 1.2306796 9
6.8455057 -6.8499947 -0.23110677 3
6.9367776 -1.2571973 -0.0009294062 3
6.892045 -1.1387366 -0.0019334872 3
6.9174585 -0.6649068 -0.014953161 3
7.1387906 0.17766845 -0.2615028 2
6.8052163 4.0778413 -0.14542401 3
6.840661 -1.2807688 0.20190442 4
6.9088812 5.6379089 0.0053628869 3
6.8414421 -1.2666713 0.61907059 6
6.8300729 -1.1128653 0.56906545 6
7.3726692 -0.34886536 -0.14546916 2.5
7.8587222 -1.5368583 -0.066918649 3
7.6890268 5.5344419 0.27640089 4
7.7113976 5.7138672 0.19387665 3.5
7.7063947 5.5862827 0.57239413 5
7.6351714 5.7727866 0.59636623 5
7.7492328 24.690863 23.458652 25
8.1150398 5.3397212 0.35343909 4
8.1319399 5.3332415 0.61644042 5
8.2045774 5.4443355 0.88342714 6
8.2531881 24.422432 23.325706 25
8.8230724 0.021896502 0.0090103336 3
10.179765 -11.735801 10.545176 21
10.309792 -11.499557 10.912706 22
10.673462 -11.710417 10.57671 21
10.752369 -11.431899 10.964239 21.5
10.600845 24.694756 19.692245 22
10.81039 -11.542542 10.705733 21
11.076867 24.573378 19.591778 22
12.758988 6.0975809 0.53743929 4
12.76447 6.0955997 0.83693957 5
12.57083 6.7302446 0.83335757 5
12.460382 7.0097699 0.93531996 5
12.532735 6.7790995 1.2723507 6
12.475054 7.1158919 1.2843065 6
12.702448 6.6315961 1.7103723 7
12.516475 6.8867278 1.7063367 7
12.705904 5.8974509 2.1394627 8
12.54039 6.6466269 2.1213672 8
12.485858 7.0098147 2.1893201 8
12.421844 7.3635769 2.2062733 8
12.751489 5.8406754 2.4644699 8
12.716932 6.0677943 2.5994422 9
12.57728 6.7178674 2.6113594 9
12.516003 6.9258752 2.5408313 8.5
12.503565 7.4238372 2.6447673 9
12.873615 5.5666599 0.3915047 4
12.805265 5.8266301 0.32647285 4
12.876243 5.5029263 0.5975123 5
12.822933 5.7753396 0.53797925 4.5
12.846482 5.7051229 0.82848787 5
12.883335 6.0228772 1.6934503 7
16.162619 0.77623022 0.021972893 3
16.662109 -11.203804 13.865018 21
16.544233 -11.217867 14.367014 22
16.981058 -11.243408 13.417027 21
17.528767 -11.020876 15.292055 22
17.863459 -10.99275 15.120067 22
29.204142 2.7713895 -0.29013926 3
29.993263 6.8000445 -0.3634674 3
29.881571 7.4918261 -0.38653255 3
29.962154 7.0707979 0.47750735 4
29.948162 7.0668459 1.7935077 5
29.959276 6.7901444 2.0945332 5
30.072746 6.3183031 -0.53942335 3
30.087074 6.0923748 -0.33840325 3
30.369278 4.3153872 0.64574701 4
30.247108 5.0374141 0.57868779 4
30.16596 5.7111974 0.54663026 4
30.064001 6.3969522 0.5115695 4
30.071142 6.4437342 0.68556529 4
30.172373 5.8575087 0.87661767 4
30.123016 6.7343745 1.0585392 4
30.040749 6.6348515 1.4105481 5
30.374094 4.2342911 1.7817533 5
30.295853 4.9408917 1.7826959 5
30.184799 5.6524944 1.7866354 5
30.055882 6.3531837 1.7885733 5
30.28433 4.7348876 2.1687126 5
30.04611 6.0914249 2.1185961 5
30.361797 4.104928 2.6327631 6
30.245489 4.7906265 2.6417079 6
30.453867 3.7028496 0.64079481 4
40.760963 4.0460567 0.89679587 4
44.259056 17.642181 8.6055479 9
44.378937 17.393259 9.9135771 9
44.517937 17.435959 6.9555736 8
44.741879 16.982866 7.2996259 8
44.962734 16.739923 8.6586533 9
44.846794 16.978903 8.5696268 9
45.304512 16.510809 7.0126829 8
45.527527 16.045822 7.359735 8
45.578625 16.076715 8.6877327 9
45.269039 16.365591 11.335698 10
45.647484 15.792955 8.7047625 9
