# .PCD v0.7 - Point Cloud Data file format
VERSION 0.7
FIELDS x y z intensity
SIZE 4 4 4 4
TYPE F F F F
COUNT 1 1 1 1
WIDTH 77
HEIGHT 1
VIEWPOINT 0 0 0 1 0 0 0
POINTS 77
DATA ascii
-22.563929 -6.6431351 5.6762662 10
-21.596991 -1.435915 2.3723688 7
-11.861418 7.4087033 0.41757613 4
-5.1949902 26.142757 28.319334 28
-2.2787266 -0.81590343 0.26378372 6.5
-2.0351138 -0.8487218 -0.05574327 2
-2.0310938 -0.86274862 0.089260735 4
-1.975147 -13.147138 14.579944 28
-1.7351848 4.8955269 0.46718022 6
-1.4405978 -1.0095091 0.38721684 10
-1.5923163 -0.97392625 0.235229 7
-1.4042479 -1.0123891 0.41221204 11
-1.4830194 -0.99534714 0.49821889 12
-1.4206467 -0.99454236 0.68120861 15
-1.3770242 -1.0566722 0.16022284 6
-1.2033024 4.8525844 0.37918359 6
-1.3283443 -1.0531538 0.52421373 13
-1.305581 -1.0394007 0.61620528 14
-1.0392042 -1.1063372 0.31168446 9.5
-1.0790727 -1.0955367 0.57768738 14.5
-0.96894675 -1.123775 0.34917864 11
-0.90951973 -1.1661198 0.46418342 13
-0.69495434 -1.2336993 0.30316955 10
-0.20064996 -1.364012 0.63612086 17
0.19517139 -1.3465592 0.34098282 11
0.23879541 -1.4207987 0.1029768 5
0.32972282 3.9549119 0.041338507 4
0.34341949 -1.3743707 0.29998973 10
0.36647373 -1.4020747 0.71398813 17
0.59678352 -1.461292 0.16399577 6
0.42533785 -1.4212558 0.27298972 9
0.41000277 3.9133356 0.22934772 5
0.47850496 -1.409687 0.44599432 12
0.46113634 -1.3793043 0.53899658 14
0.72843629 -1.4714372 -0.071664892 2
0.67977577 -1.4532523 0.11200108 5.3333335
0.7466085 -1.4829186 0.27200165 8
0.97318912 -1.5430335 -0.061993029 2
0.94317752 -1.5203519 0.022007596 4
0.98082578 3.8723965 0.38538155 6
1.3264532 -1.5821249 0.34201762 8
1.3608842 -1.5829973 0.40301871 9
1.8029667 21.231819 23.065054 28
2.3913801 4.5018668 0.16636665 4
2.2466629 11.402691 3.3513937 12
2.9919443 3.8903179 0.33848795 5
3.0878186 3.8609507 0.19449708 4
3.7025611 -2.9663246 0.34750858 5.5
3.9057612 -2.3178446 0.28704324 5
3.8886046 -2.3564067 0.7630415 8
3.9678619 -2.2921426 0.83104509 9
4.0051699 -2.2130978 0.42604801 6
5.1077394 9.8492851 5.0927286 16
6.0740352 -0.60026526 0.53403938 6
6.1417155 -0.18105744 0.70301872 7
6.1551051 -0.45413297 1.1155329 8.5
6.2248201 -0.20664404 0.39302012 5
6.2226596 -0.17023531 0.62901807 6
6.269249 -0.79319191 1.0200474 8
7.1829519 2.7911923 0.25876439 4
7.2452698 2.7142611 0.49677384 5
7.2550998 2.8168306 0.72976261 6
9.2695608 -15.27115 8.8771839 17
11.794424 0.91557384 0.42496076 4
11.784389 1.583172 1.8949136 8
11.829497 1.0169849 0.52995396 5
11.847633 1.6846141 2.2019055 9
12.066431 2.2518959 0.81186157 5
12.061673 2.0430887 1.1038789 6
12.056062 2.8232906 1.5038121 7
12.131663 3.4323261 2.2457564 9
12.344959 4.4113436 2.2966607 8
12.424484 4.3679132 1.6226665 7
14.795289 20.750494 11.934596 16
19.246771 16.822287 12.537288 17
27.50091 -6.8391438 3.1492178 7
27.712273 -6.1354384 2.2892146 6
