# .PCD v0.7 - Point Cloud Data file format
VERSION 0.7
FIELDS x y z intensity
SIZE 4 4 4 4
TYPE F F F F
COUNT 1 1 1 1
WIDTH 153
HEIGHT 1
VIEWPOINT 0 0 0 1 0 0 0
POINTS 153
DATA ascii
-10.185797 1.2414975 11.125197 28
-9.6306372 1.353779 11.27319 29
-9.3767014 -3.23016 0.34876236 4
-9.350481 -3.142303 0.57477385 5
-9.2534733 1.604236 2.6396894 11.5
-9.3114023 1.6456504 4.2421918 16
-9.0122681 1.0032458 0.035160009 3
-9.0273733 0.92231947 0.35515645 4
-9.0383425 0.94430548 0.41315779 5
-9.0203009 0.96421677 1.0691583 7
-9.1131964 1.82829 3.9031932 15
-9.0266638 2.3547029 4.1442022 16
-9.1372099 1.8042922 4.6131926 17
-9.1453581 4.3268981 10.615205 28
-8.958003 1.1899433 0.82216716 6
-8.969039 1.155954 1.3031658 8
-8.8651848 2.9380527 3.636204 14
-8.8341532 2.974977 3.9172034 15
-8.8722744 2.8041289 4.5292039 17
-8.9564857 4.013938 11.234203 29
-8.7199879 3.2497184 2.1452 10
-8.7731886 2.9480014 2.7162018 12
-8.6476698 3.8161559 2.7381938 12
-8.6222401 5.4988742 3.24915 12
-8.7382221 5.2560425 6.6171641 21
-8.6332092 5.6706681 7.7551436 23
-8.6242895 4.8531861 7.9581709 24
-8.7681713 5.5227833 10.895157 28
-8.4985428 4.136775 2.5931835 11
-8.534255 5.9485259 2.7031279 11
-8.4153147 4.7559972 10.966167 29
-8.2500544 3.1764274 0.079186492 3
-8.2901287 3.0615506 0.356188 4
-8.3031397 3.0385611 0.79718834 6
-8.2169533 3.3362374 0.64018464 5
-8.3131065 3.0825195 1.1001886 7
-8.2009134 3.3861415 1.5661837 8
-3.8852711 4.9528255 0.25492901 4
-3.2893853 4.7569208 2.514904 16
-2.8774142 -1.1281767 2.8518126 26
-2.6234822 4.5510855 1.1118746 10
-2.7745275 -1.4043798 2.8347564 26
-2.7015004 -1.1134979 2.9343059 27
-2.4064851 4.4531493 0.073867187 4
-2.2855151 4.4252458 1.0468611 9
-2.0415275 4.3213997 1.2188522 11
-1.9075278 4.283443 -0.081154026 3
-1.9045308 4.2764673 0.48284632 6
-1.6785566 4.2116637 0.79483587 8
-1.6194761 -1.4609293 2.1551461 26.5
-1.5985677 4.1917448 0.95483196 10
-1.4165751 4.1269345 1.1768246 11
-1.5169591 -1.5142169 1.8826207 25
-1.5401754 -1.3600982 2.2366621 28
-1.5112399 4.3379889 3.6668146 23.5
-1.2045677 4.050148 0.73481637 8
-1.3215717 4.0940199 0.83482075 9
-1.2085776 4.054172 1.2518162 12
-1.3536671 -1.37166 2.1676362 29
-1.0635512 3.9972851 0.078811094 4
-1.109737 -1.8684907 0.23246825 6.5
-1.198791 4.2703476 3.5507987 24
-1.1327574 4.1994357 3.7547996 25
-0.8080653 -1.9496553 -0.048607893 3
-0.81711811 -1.9706534 0.066888131 4.5
-0.8056255 -1.965737 0.24538727 6.5
-0.76078647 -1.8696855 1.680905 24.5
-0.57309765 -1.7595794 -0.07860294 2
-0.52379346 -1.8950803 0.8073498 15
-0.22340479 1.525328 -0.047038652 2
-0.20885772 1.487873 0.086463958 5
-0.3379322 -2.0207303 1.6267756 23.5
-0.34655836 -1.9341897 1.7533007 25
-0.17377891 -1.7816198 -0.039698418 3
-0.18282379 1.5059572 -0.059537832 2
-0.15928623 1.5025548 0.17496209 7
-0.10337541 1.7004476 0.11794512 5
-0.17462859 1.4771684 0.28463092 9
-0.17427093 1.4395086 0.51346725 13.5
-0.065247931 1.6179301 0.46645126 11.5
-0.13920031 1.4276401 0.62296784 16
-0.004189624 1.6272279 1.3789495 24
-0.019973332 -1.9799944 1.9372132 27
-0.015548427 -1.8545476 2.0522447 28.5
0.070202045 -1.7830023 -0.039757654 3
0.012065658 1.434253 0.94596601 21
0.0048445347 1.6082617 1.3859512 25
0.12754905 3.6145651 1.5597708 15.5
0.28704187 2.4560099 0.38386765 8
0.28951332 3.5751872 3.8567662 28
0.50739652 2.2987509 0.093876936 4
0.44708386 -2.0276191 1.5480897 23
0.75693589 -1.7503238 -0.074251287 2
0.75641948 2.3705602 -0.11313473 2
0.79409671 3.1704743 1.4847835 16
0.73401654 3.2222812 1.5707803 17
0.67362195 -1.9162365 1.9690627 26
0.67077476 -1.8642797 2.0180755 27
0.74955994 -1.8478718 2.2280605 29
0.81760168 2.2818737 0.15087405 5
0.82910603 3.1685634 1.3117825 15
0.81026578 -1.8802181 2.1740386 28
1.0107468 2.2635949 0.036875021 4
1.0567886 3.3284643 3.48576 27
1.3514028 1.3404087 -0.025987022 3
1.3002965 1.6904833 -0.098045871 2
1.3379127 1.3313904 0.10401391 5
1.3150274 1.4430438 0.095993675 5
1.2966092 1.6941572 0.080953553 4.3333335
1.2474951 1.7169442 0.31794867 8
1.2360599 3.2197402 0.52076697 8
1.3173395 1.3374002 0.77901191 15
1.2510568 3.2178152 0.72076684 9
1.3068004 1.3448545 0.88401014 16.5
1.2314421 1.7842103 1.0294386 16.5
1.3800896 3.1813881 1.6277685 16.5
1.4331068 1.2115844 -0.048106752 2
1.4666034 1.6313099 -0.072030932 2
1.4579383 1.2632843 0.06841626 4.5
1.4014081 1.6740198 0.34995994 8
1.5963072 3.0910306 0.38177621 7
1.4073455 1.2361509 0.91790897 17
1.496224 3.124716 0.80377328 10
1.5751953 3.1290765 1.4697721 15
1.6624025 3.0482609 0.11178076 4
1.7830476 1.4850315 0.41398779 8
1.6553224 3.0812693 0.55677688 8
1.6042885 3.0960906 0.6407755 9
1.706857 1.2735397 1.105891 17
1.7767572 -1.4676031 2.7179344 29
1.8699622 1.4576032 0.52696282 9.5
2.0645385 1.3751068 -0.054102391 3
2.0855315 1.3689588 0.058892068 4
2.3252339 1.2858101 0.30782345 7
2.423058 1.2464378 0.23179343 6
2.6721818 1.1589123 0.10222433 4.5
2.6632593 1.1652611 0.48272827 8.5
3.6817501 -2.0619602 4.2474694 27
3.8764341 -2.1050541 4.2094293 26
4.1919856 -1.5987573 3.4635363 23
4.4186721 1.7420162 1.5187936 13
5.7741833 -2.0461042 0.38319099 5
5.7472286 -2.0420227 0.56219572 6
5.8470435 -2.0684209 0.1981746 4
6.8249311 -1.8446138 2.6461265 14
6.8952217 1.1378152 7.2802486 27
9.1394339 -1.2445773 3.3120675 14
9.1660042 -1.1259238 3.2361073 13
9.474637 -1.7777576 1.4368372 8
9.9823599 -0.21542743 1.0543607 6
10.121553 -0.3597503 0.56028926 5
44.794811 6.3176632 15.814272 13
44.715439 5.578908 16.599958 14
