# .PCD v0.7 - Point Cloud Data file format
VERSION 0.7
FIELDS x y z intensity
SIZE 4 4 4 4
TYPE F F F F
COUNT 1 1 1 1
WIDTH 484
HEIGHT 1
VIEWPOINT 0 0 0 1 0 0 0
POINTS 484
DATA ascii
-12.44875 -1.6908398 0.029036481 3
-11.490936 -4.7518501 -0.13237809 3
-11.233579 -2.5195236 0.83391547 5
-11.16054 -2.4855576 -0.0020827185 3
-11.016002 -2.225991 -0.17705715 3
-11.187592 -2.5125105 0.12691495 4
-11.092598 -2.2808745 0.15943883 3.5
-11.18394 -2.4486294 0.56342226 4.5
-11.104041 -2.2599237 0.53944153 4.5
-10.274879 -2.5645688 -0.2091188 3
-10.160736 1.2954447 10.793199 28
-9.7485161 0.84574538 -0.15583193 3
-9.7706079 0.77330393 0.38216484 4
-9.729414 0.91412753 0.17617109 4
-9.6078596 -2.923173 0.61581331 5
-9.7776613 0.73133212 0.67616266 5
-9.7945175 0.82721579 1.148168 7
-9.8190346 1.1436883 4.2776837 15.5
-9.691864 1.2704163 4.3751864 16
-9.7611876 1.0197158 4.6861768 17
-9.6339016 1.141973 11.255179 29
-9.4820433 -3.3718445 -0.013253986 3
-9.3097544 -2.8395529 -0.13018587 3
-9.4497595 -3.0642133 0.32378837 4
-9.5031824 -3.041698 0.60429335 5
-9.220417 1.6556653 2.4241898 11
-9.3136368 1.4649174 2.9101858 12
-9.2604036 1.6616701 2.9091911 12
-9.3225403 1.5307919 3.9511883 15
-9.2764235 1.6306469 3.9571908 15
-9.3285398 1.8245069 4.150198 15.666667
-9.2673359 1.6990288 4.6051922 17
-9.2597132 4.0397072 10.695711 28
-9.5620527 1.0249976 11.281174 29
-9.5337992 1.2197924 11.274183 29
-8.9692259 1.036182 -0.19483942 3
-8.8682766 1.3788594 -0.2360774 2.75
-9.0316429 3.903559 -0.21079473 3
-8.9581585 4.265522 -0.2658028 2.6666667
-8.9716387 1.0976036 0.079496652 3.6666667
-8.8729258 1.386863 0.27517295 4
-9.0586004 3.9865005 0.089205123 4
-9.0071878 4.1719651 0.059867252 3.3333333
-8.913929 4.4339991 0.079192407 3.5
-8.9856157 1.1085761 0.51616418 5
-8.8787766 1.3681961 0.6314224 5
-9.1086369 3.8931081 0.55870801 4.5
-8.9975138 4.1825933 0.61286664 4.6666665
-8.867733 4.5326943 0.61752194 4.6666665
-8.9700232 1.1719568 1.0661664 7
-8.8702765 1.4653215 0.9406758 6.5
-9.0916052 3.9515231 1.0332066 6.5
-9.009799 4.2091317 1.0662999 6.5999999
-8.8817167 4.5664973 1.0831882 6.6666665
-8.8756609 1.4535639 1.3011755 8
-9.0065041 4.1882315 1.4677004 8
-8.8733635 4.6302605 1.4836864 8
-9.1260595 1.9792578 2.3971968 11
-9.001647 2.3987384 2.3952026 11
-8.8428354 2.7597523 2.3897026 11
-8.8253059 4.849525 2.333179 10
-9.0376616 2.2496541 2.5519507 11.5
-8.9001369 2.5967758 2.6448689 11.666667
-8.8043146 4.8075261 2.7431796 11
-8.8352308 5.2642198 2.666167 11
-9.0738878 2.1405187 2.9436998 12
-8.8814411 2.6233852 2.8892026 12
-8.8209438 4.9744091 2.9955089 12
-9.0910883 1.9291737 3.892195 15
-9.0838022 2.2116547 3.9217014 15
-8.8963423 2.7282526 3.9047039 15
-8.842207 2.9020481 3.9022036 15
-9.16819 1.831327 4.1971936 16
-9.0983143 2.1959183 4.187201 16
-8.9013071 2.7692101 4.1302037 16
-9.1190519 1.9551418 4.4881959 17
-9.059226 2.2807786 4.5527015 17
-9.0138922 2.6598995 4.4749565 16.5
-8.8781834 2.9240322 4.527204 17
-8.9422855 4.7475619 6.5791874 21
-8.8712511 4.9430304 6.6078458 21
-9.1753864 4.2419834 10.699207 28
-9.0651979 4.5971332 10.716363 28
-8.9552116 4.9363074 10.768184 28
-8.8601818 5.2160492 10.786171 28
-8.8911934 5.0871553 10.823176 28
-8.8181791 5.3039579 10.867166 28
-9.1560297 3.0256231 11.261213 29
-9.0399485 3.415627 11.240378 29
-8.9429436 3.7419593 11.240371 29
-8.8634176 4.2067204 11.218196 29
-8.7320595 1.7709557 -0.22706768 2.75
-8.5935078 2.1471007 -0.1776121 2.8
-8.4512606 2.5756631 -0.19855955 2.75
-8.7925196 1.5844316 0.057178155 3.5
-8.7176466 1.8205166 0.18578333 3.8
-8.5793152 2.237582 0.16818914 3.75
-8.4768782 2.5298717 0.27319059 4
-8.5484171 4.5825653 0.0061753108 3
-8.7425404 1.7761568 0.63043267 5
-8.6056843 2.1937056 0.63127244 5
-8.4826946 2.5406752 0.74335766 5.6666665
-8.7314806 1.8257039 0.93380874 6.5
-8.5933905 2.2523377 0.93908983 6.5999999
-8.4575624 2.6465456 0.93756616 6.5
-8.767313 1.746168 1.2971826 8
-8.593791 2.2438536 1.3788564 8
-8.4619665 2.6055667 1.295691 8
-8.7606525 3.001709 2.3914516 11
-8.7170029 3.2197287 2.3972001 11
-8.6296721 3.8296518 2.1806929 10
-8.5025415 4.1487846 2.1871834 10
-8.6912451 5.3420582 2.3691583 10
-8.7100315 3.1722493 2.6782002 12
-8.6909742 3.2656574 2.5621996 11
-8.6506872 3.78619 2.5862942 11.4
-8.508419 4.1371603 2.5876837 11.5
-8.7852812 4.9788861 2.6196737 11
-8.6872339 5.4589653 2.6621537 11
-8.4182882 6.061377 2.4211173 10
-8.7841301 3.0259371 2.8712022 12
-8.6837444 3.6593101 2.8691964 12
-8.7325592 5.4440064 2.8771565 11.333333
-8.5592518 5.8256211 2.9181337 11.5
-8.4332838 6.0598788 3.0011179 12
-8.7632637 5.0692859 3.2121699 12
-8.6982441 5.2860799 3.2311606 12
-8.7961588 2.9639394 4.1062021 16
-8.7911329 2.9948883 4.5052018 17
-8.4462442 5.6515436 7.8641362 23
-8.4302549 5.3607035 8.1661472 24
-8.6503086 4.6432467 11.172179 29
-8.7951708 5.4468517 10.85316 28
-8.7264423 4.1676307 11.235191 29
-8.6125937 4.5240455 11.23368 29
-8.3783598 2.7579248 -0.15381011 3
-8.3075294 2.9769998 -0.19181159 3
-8.1669216 3.406173 -0.27981749 2
-8.3853369 2.7818987 0.079190195 3
-8.3497562 2.8860152 0.22468959 4
-8.3963375 2.7728891 0.63619041 5
-8.3174028 3.0254657 0.71681368 5.5
-8.2329807 3.2852879 0.79718548 6
-8.3131342 3.0443039 1.0661885 7
-8.2144175 3.3889265 1.006184 6.75
-8.3481913 2.9571443 1.4279397 8
-8.2454185 3.3866937 1.3121852 8
-8.3848066 6.1602874 2.7131112 11
-8.3827562 5.5540509 8.1576376 24
-7.3810992 7.7669024 0.74896586 5
-7.285284 8.068737 0.44193998 4
-7.3921132 7.8078914 1.0149637 6
-7.3821096 7.7898951 1.3199645 7
-7.3971076 7.7988982 1.6189649 8
-6.8057027 4.0545263 -0.00087836897 3
-6.1294861 5.8061843 0.68401051 5.5
-6.1888423 5.802712 1.0365139 7
-6.1703482 5.8012037 1.272513 8
-6.0049739 6.0500345 1.2829891 8
-6.0599017 5.8751225 1.9920026 10
-6.1645026 5.7528834 2.1536822 10.666667
-6.1018615 5.7771778 2.4430108 12
-5.9419551 5.9290543 0.72299266 6
-5.9749703 6.008038 0.59398973 5
-5.9999728 6.0410347 1.0439892 7
-4.8540564 -3.2067959 -0.02645869 3
-5.0894728 -1.8191156 -0.18619913 2
-4.4108367 -1.8221312 -0.15923002 2
-4.5963488 2.4778142 -0.26892233 2
-4.066309 2.4404912 -0.2489399 2
-4.107234 5.0348234 0.078937568 4
-4.0622525 5.030838 1.5459353 10
-4.1186771 -1.1173649 3.9558675 26
-4.089932 -1.2004033 4.1658545 27
-4.1548629 -1.0587258 4.1033764 26.5
-3.8637142 -2.8267174 -0.014454447 3
-3.7745249 -1.8961347 -0.11277685 2.5
-3.6079144 -1.0826423 -0.20214716 2
-3.6708379 -0.74366504 -0.20409654 2
-3.7558682 0.66341287 -0.24646603 1
-3.7052305 1.0232356 -0.25045243 1
-3.9461973 2.624366 -0.25494891 2
-3.7479942 3.7680116 -0.18500675 2
-3.6580472 4.0559468 -0.078028038 3
-3.6746883 -3.3069842 0.016424984 3
-3.7557864 -3.0888665 0.017480507 3
-3.8452816 4.949821 0.077926718 4
-3.9279366 4.9801602 0.5879299 6
-3.9357691 4.9778333 1.0464307 8.5
-3.9352825 5.0068336 1.3709288 10
-3.9627624 4.974844 1.7179325 11
-3.439683 -3.7543981 -0.086701579 3
-3.4925931 -3.4833212 -0.075632855 3
-3.4643667 -2.0586433 -0.024326991 3
-3.3445508 -1.7998997 -0.11328442 2
-3.2436192 -1.515117 -0.20623709 1
-3.5953472 -0.9017188 -0.20012091 2
-3.2233524 2.1311467 -0.25496241 1
-3.234019 3.5889709 -0.22502443 2
-3.5461359 4.3248982 -0.080051057 3
-3.4682746 4.660861 -0.082077824 3
-3.5554605 -2.3884308 0.15661293 4
-3.2613838 4.7553949 0.95040238 8.5
-3.2752197 4.7642341 1.393903 10.333333
-3.3075759 -2.6291165 1.6785419 15
-3.3403816 4.7938952 1.7119049 12
-3.2314012 4.7529283 2.3299007 15
-3.2294025 4.7529325 2.4909005 16
-3.0018852 -1.7975308 -0.10230681 2
-2.8124743 1.0180408 -0.22997078 1
-3.0290015 3.0540023 -0.27700609 1
-2.9409988 3.2579885 -0.28102142 1
-2.8870661 3.6834776 -0.2320496 2
-2.8434443 4.6189871 0.46188447 6
-2.8239505 4.6115079 0.98488367 9
-3.1650705 4.729588 1.3082312 10
-3.1224086 4.7059388 1.655897 12
-2.8135717 -1.3366249 2.7644379 25
-3.163419 4.7379532 2.7908971 17
-2.8092613 -1.3423095 2.8337705 25
-2.8571336 -1.1385469 2.8608103 26
-2.5494068 -1.7879311 -0.1608398 2
-2.740247 1.1409941 -0.22896989 1
-2.6741309 1.3844668 -0.23346983 1
-2.546474 4.5027742 0.58153969 6.6666665
-2.6821368 4.5630627 1.1105442 9.333333
-2.6544707 4.5422831 1.4534775 11.4
-2.7014735 4.5720716 1.6938784 13
-2.7440217 -1.3023319 2.8669233 26.25
-2.6770861 -1.1055371 2.9318063 27
-2.2089202 -1.7901853 -0.14637062 2
-2.0621705 -0.85720032 -0.19618215 1
-2.148885 -0.62370253 -0.19838554 1
-2.1416504 0.7665984 -0.2169905 0
-2.0748107 0.91262394 -0.21748731 0
-2.0989046 2.6936076 -0.24503358 1
-2.3389926 4.4321795 -0.061135832 3
-2.2155128 4.3972611 0.37885839 6
-2.3474987 4.4418535 0.30786404 5
-2.2654998 4.3962402 0.63086182 7
-2.3244996 4.4242129 0.76086378 8
-2.0898645 4.3543653 1.0256864 9.666667
-2.2915115 4.4227414 1.0403615 9.5
-1.8435905 -1.7886044 -0.14040934 2
-1.8046782 -1.3967767 -0.18031943 1
-1.9676566 -1.173532 -0.18925363 1
-1.7722418 -0.57809085 -0.1936453 0
-1.9900032 1.050656 -0.21598655 0
-1.6767955 2.531297 -0.23204547 1
-1.7515379 4.232069 -0.062410731 3
-1.8501785 -1.9316609 0.03505674 4
-1.7816265 4.2461419 0.25750691 5
-1.6615539 4.205668 0.53033513 6.5
-1.749293 4.2429528 1.0219048 10
-1.7104677 -1.4413335 2.1649945 26.4
-1.3345296 -2.1928198 -0.00058181991 3
-1.5691592 -1.5637401 -0.17138545 1
-1.4504035 -0.63780171 -0.19067666 0
-1.4593458 1.7066294 -0.21301186 0
-1.2846146 2.146503 -0.22404146 1
-1.3562921 4.0865602 -0.1081763 2.5
-1.3952236 4.1131368 0.25426871 5
-1.4046042 4.1162138 0.64040798 7.5
-1.3906296 4.1206789 0.96179557 10
-1.3819107 4.11448 1.3136566 12
-1.5058151 -1.4779762 1.8948786 25.5
-1.5673898 -1.6356748 2.0570962 25.5
-1.503096 -1.4676888 2.1575055 27.25
-1.2477938 4.2932901 3.5967999 24
-1.4614017 4.3092642 3.669369 23.666666
-1.0017509 -1.7552626 -0.10185311 1.6666666
-0.81436038 -1.3571929 -0.14644332 0
-0.88542658 1.4143353 -0.1937672 0
-1.0502666 2.3078654 -0.21581288 1
-0.87448585 2.4541836 -0.21208167 1
-1.0125425 3.9753392 -0.11719053 2.5
-1.1375456 4.0161829 -0.056685485 3
-1.0165519 -1.9112302 0.30160645 7.6666665
-1.0398844 3.9864924 0.2588104 5
-1.1692271 4.0391636 0.24131481 5
-1.0260575 3.9843609 0.54030961 7.5
-1.1295632 4.022233 0.61631346 7.5
-1.1367973 4.2524281 3.5527954 24
-0.65494555 -2.0338655 -0.027661391 3
-0.4983311 -1.7557591 -0.10811787 1.5
-0.73357874 -1.4441186 -0.14398284 1
-0.62738883 1.7496655 -0.19854379 0
-0.58064318 2.6192691 -0.14860913 1.6666666
-0.70864707 2.8065836 -0.010116819 3
-0.74949908 3.8567028 -0.22019811 2
-0.53229868 -2.0809786 0.16780066 5.5
-0.70579398 -1.9825635 0.1335298 5.3333335
-0.57752472 -1.8775644 0.78386581 15
-0.78616053 -1.8600591 1.6294127 24
-0.22555129 -1.7591394 -0.10178185 1.5
-0.18903771 1.5187738 -0.062983155 2
-0.10102721 1.6924413 -0.044554275 2.5
-0.0033964517 3.6191125 -0.11922281 2
-0.39595976 -2.1483283 0.29058722 7
-0.18995011 1.4888411 0.18670809 6.8666668
-0.09369608 1.6748887 0.20866136 7
-0.051331408 2.5030012 0.14787576 5
-0.15049537 1.4392616 0.53303361 13.8
-0.064748891 1.619432 0.4694511 12
-0.36085618 -2.0221004 1.5632802 23
-0.016729278 1.6476787 1.3374479 23.5
-0.19691436 -2.0090117 1.7637463 25
-0.035804417 -1.9499145 1.9752249 27
0.19685942 -1.7630439 -0.077572495 2
0.20030519 1.8342941 -0.16507278 0.5
0.25038624 2.2079058 -0.19377451 0.66666669
0.16165373 3.5574956 -0.1232261 2
0.3361935 -2.4084191 0.067020491 4
0.3230913 2.3702078 0.0753031 4
0.17429808 2.4642982 0.2075374 5.625
0.21407959 2.399797 0.41687518 8
0.21352226 2.4417291 0.47467136 8.8000002
0.018564563 1.4457779 0.93396503 21
0.010855513 1.606286 1.4009513 25
0.1005602 3.61099 1.4427725 14.5
0.13154991 3.6115823 1.6427709 16
0.3400231 3.5628142 3.7797649 28
0.69520873 -2.3394818 -0.0010451737 3
0.56546885 -1.7503902 -0.080416106 2
0.56604612 1.8117254 -0.185323 0
0.63708621 2.1857402 -0.16286358 1.3333334
0.69655317 2.4205766 -0.064888999 2.5
0.77714324 3.1712439 -0.089216188 2
0.54458863 2.3255229 0.11578824 4.7142859
0.71588165 2.4413531 0.15524738 5
0.42912814 -2.0345075 1.5490921 23
0.45223629 -1.9696866 1.5631026 23
0.77608502 3.179409 1.4220331 15.5
0.6470179 3.3786817 1.4386258 15.285714
0.66314012 -1.9221551 1.9380636 26.5
0.62271547 3.4358997 1.6627641 17
0.7286396 -1.8444586 2.1383164 28.166666
0.97797942 -1.2206773 -0.13984866 1
1.1955907 0.77795345 -0.17028975 0
1.1728768 0.84683335 -0.17225528 0
0.94747138 1.9006853 -0.17708181 1
0.9223482 2.274075 -0.058459189 2.5
0.8081485 3.1673462 -0.026216779 3
0.93265504 2.2875907 0.11467258 4.5
0.8191061 3.165549 1.4447832 16
0.81694669 -1.9901149 2.065011 26
0.98509443 3.3485613 3.4989269 27
1.0538028 3.3164778 3.6257608 28
1.5224957 -2.096828 -0.01716858 3
1.3139259 -1.7335224 -0.072538763 2
1.5484579 -1.0087175 -0.13341191 1
1.2181598 0.6712181 -0.16734016 0
1.5725801 1.0917891 -0.16718216 1
1.3833228 1.2868708 -0.065469578 2
1.3749038 1.6653028 -0.067264572 2.2
1.3334982 2.2273498 -0.13861933 1.5
1.4383597 3.0659413 -0.10338613 2.3333333
1.3502657 1.3646472 0.17773092 6.1999998
1.3041451 1.6927035 0.19599195 6.125
1.502497 3.1234124 0.24610668 5.5
1.2270637 3.2206905 0.36976704 6
1.4022559 1.2242709 0.78690356 15
1.2782263 1.7004606 0.46745193 9.5
1.4106479 3.1581917 0.60422492 8.5
1.2417294 3.2157767 0.64210063 8.666667
1.3342184 1.3250732 0.89037418 16.5
1.2492803 1.7563263 0.99694294 16.5
1.4231042 3.1765258 1.5194353 15.666667
1.4591346 3.1575134 1.6417704 17
1.853857 -1.2635744 -0.12202813 2
1.7633615 -1.0041685 -0.13044688 1.5
1.6453216 -0.7651065 -0.13236594 1
1.7994864 -0.065526307 -0.1446797 1
1.7799606 0.23299949 -0.14957239 1
1.6778895 0.93919808 -0.16426636 1
1.8881046 1.4366133 -0.088116795 2
1.6406718 3.0411623 -0.090468317 2.5
1.8638346 1.4573077 0.23718566 6.3333335
1.6268387 3.0801117 0.13477723 4.5
1.9364448 1.4300389 0.51494062 9.5
1.6122839 3.1010969 0.5207749 8
1.7200021 1.3282107 1.0402498 16.333334
1.7703178 3.0673344 1.5777783 16
1.7514181 3.064784 1.6737118 16.666666
1.7603401 -1.5147246 2.7332587 29
2.1711338 -1.7355939 -0.050702486 3
2.0803568 -0.94738299 -0.13098058 2
2.0565736 -0.60550052 -0.13437946 1
2.1466873 -0.30176711 -0.14029725 1
2.1870608 1.330482 -0.043038543 2.5999999
2.1496549 1.3498976 0.21717973 6
2.1909995 1.3336846 0.51279104 8.8571424
2.6499832 -1.7266469 -0.038279589 3
2.6287432 -0.98922241 -0.1230702 2
2.6557338 1.0794173 -0.088559657 2.25
2.4839287 1.2229573 -0.0042246347 3
2.6799014 1.1566063 0.218532 5.7142859
2.4951503 1.2206551 0.11887304 4.5
2.6941614 1.1557918 0.57500619 9
3.1409388 -1.728704 -0.025355751 3
3.0500939 -0.21610492 -0.13587199 2
3.5116241 -1.7259876 -0.025408838 3
3.3109972 -0.94401449 -0.10964578 2
3.5721209 -0.75155538 -0.11811585 2
3.352493 -2.5285473 0.12539241 4
3.5783148 -1.9266517 4.3735232 28
3.6687222 -0.59351808 -0.12107427 2
3.6971517 0.61429912 -0.1356236 2
3.6838553 -2.0320501 4.2894783 27
3.7794039 -1.9936993 4.2419748 27
4.0563011 -1.7083228 -0.059479114 3
4.2581482 -1.5467687 3.4555438 23
4.0104289 -1.5109121 3.6195877 24
4.5900664 -1.6925668 -0.062545061 3
4.4263144 1.6811033 1.5117646 12.5
4.4027872 1.7559335 1.815802 14
4.7924428 2.0069346 2.5618742 17
5.1790576 1.8194165 -0.070259102 3
4.9342995 1.9873663 2.1968479 15
4.826396 2.000814 2.449867 16
5.3357658 -1.6890329 -0.036639135 3
5.3891439 0.7584359 -0.081747629 3
5.3003669 0.98844945 -0.088641137 3
5.5080833 -2.3448522 0.11113209 4
5.5061054 -2.1000068 0.6367085 6.5
5.344317 1.7597834 0.63869464 7
5.3504486 1.7467865 0.97118807 8.333333
5.6968713 1.6049775 -0.11641564 3
5.6748919 -2.1884599 0.29815876 4.5
5.710566 1.6316988 0.20459484 4.5
5.7515621 -2.0850039 0.65818155 6.5
5.8908916 1.5875548 0.68655473 7
5.7800212 1.6156951 0.52257985 6
5.8290248 -2.0945766 0.98816866 8
5.7764974 1.6302904 1.0155867 8.333333
5.7549314 1.5860643 1.2345695 9
6.641408 -1.0140623 -0.071565464 3
6.536294 -0.4066855 -0.068331882 3
6.5922318 -1.7264129 0.031194171 3
6.7039299 1.2666278 7.2773247 28
6.8934908 -1.4267402 -0.024739549 3
6.9196625 -0.74122906 -0.073498607 3
6.8007436 -1.8873601 2.5771151 14
6.8839736 1.2715981 7.2868075 27
9.0494556 -1.2359565 3.0400805 13
9.1228476 -1.3693074 3.4620235 14
9.1288748 -1.15774 3.4560997 14
9.2579994 -1.8917925 0.23482196 4
9.575511 -1.7921342 0.98932028 6.5
9.4770126 -1.9115601 1.5157899 8
9.4341326 -1.8903999 1.6408021 8
9.7869978 -0.26175556 -0.014635934 3
9.8882217 -0.22452176 0.2503674 4
9.996213 -0.23224963 0.52835256 5
9.9962082 -0.43709388 1.0492734 6
9.9754725 -0.28770828 0.94933331 6
11.873806 -1.8760604 0.31152675 4
16.725954 0.43792099 0.41388056 4
16.696226 0.29761934 0.89532733 5
16.709858 0.59054339 0.90094417 5
16.891794 0.38964283 1.3478429 6
17.147419 -1.9464054 2.5559068 8
17.147303 -1.5952247 3.1000388 9
17.21447 -1.7461821 2.6819744 8
17.278828 -1.3029509 3.0376356 8.5
17.246548 -1.3648305 3.4401159 9
17.886457 2.6086254 0.4886606 4
17.790211 0.42463505 3.1517589 9
17.967937 0.72494406 3.5248611 9
17.759575 0.47438985 3.9247823 10
17.867273 0.86559969 3.9469302 10
18.169807 0.35772276 2.7916901 8
18.692131 -0.070337467 -0.038539208 3
44.384968 3.8090248 8.7692394 9
44.399429 4.2069063 9.7164078 10
44.676586 4.6290622 6.5735559 8
44.439613 4.124083 6.8293672 8
44.433598 4.2520537 8.782423 9
44.610359 5.7241077 16.998032 14
44.80426 5.2362561 6.8998008 8
44.839764 5.3015079 7.894825 8
45.007805 5.8078017 7.8250246 8
44.951508 5.9024673 8.9640713 9
44.883709 6.1374855 15.689182 13
