# .PCD v0.7 - Point Cloud Data file format
VERSION 0.7
FIELDS x y z intensity
SIZE 4 4 4 4
TYPE F F F F
COUNT 1 1 1 1
WIDTH 92
HEIGHT 1
VIEWPOINT 0 0 0 1 0 0 0
POINTS 92
DATA ascii
-6.4122472 -15.323527 17.463175 28
-5.8502073 10.632544 2.6046515 10
-4.423748 -13.541302 6.638216 16
-4.4123106 -13.483625 6.8531928 17
-3.4358037 23.747616 24.624796 27
-2.8868506 -2.0376019 0.10275059 4
-2.8991575 -2.0247917 0.20874825 5
-2.9538701 -13.481602 6.4869671 17
-2.6651387 -2.1623011 0.10775699 4
-2.6316483 -2.213814 0.23376939 5
-2.4584575 -7.22892 0.31257322 4
-2.5163999 3.8830371 0.2023807 5
-2.55843 -13.414884 6.0258803 16
-2.5532677 -13.154276 11.649784 25
-2.2515392 -13.390804 5.7058234 15
-2.2026196 -13.779213 14.54796 28
-2.1210308 -7.2776413 0.48853821 5
-1.9402963 4.2852221 0.16729377 4
-1.9746772 4.1909924 0.35230786 6
-1.8699145 4.3553848 0.25128135 5
-1.8169556 -14.005383 14.517459 27
-1.7135208 -13.164863 5.8945613 16
-1.5712494 -13.132396 6.4595861 17
-1.2963051 -1.8500588 -0.069584124 2
-1.3201653 -1.8433117 0.10175107 5
-1.2595828 -1.7295873 0.91886693 16.5
-1.0935653 -1.8921841 0.31139442 8
-1.1038854 -1.7613095 0.89434999 17
-0.52922118 -7.3996987 0.38132751 5
-0.24170323 3.6853435 0.28533763 6
-0.12614517 3.693876 0.16333763 5
0.08428368 -1.7044613 0.17699 6
0.12179439 -1.6803221 0.25949529 7.5
0.017960949 -1.6829139 0.4849866 12
0.14898781 -1.6560161 0.75249994 15.5
0.148487 -1.6570122 0.80699986 17
0.2339012 -1.6348938 0.43000817 11
0.33603445 -12.826279 11.222899 25
0.49553722 -1.5911974 0.11502766 5
0.52498806 -1.5717828 0.25803053 8
0.59055352 -1.573952 0.52303332 12
0.50168306 23.777557 21.864725 26
0.7183286 -1.5410396 -0.081626154 2
0.79343641 -1.5751393 0.533041 12
0.94313926 -1.554161 0.090546504 4.5
0.80027503 -1.6191393 0.47903863 11
1.0133619 -1.5360451 -0.056950923 2
1.0802075 -1.5363073 0.060550421 4.5
1.0978756 -1.528024 0.22405106 7
1.0512562 -13.049269 10.960975 24
1.0503806 -12.891267 11.16099 25
1.3105955 -1.5380732 0.35105404 8
1.3482707 -14.121631 14.634907 27
1.4878942 3.9471557 0.27684405 5.5
1.5028629 -1.520614 0.59705633 11
1.5887794 -1.5192007 0.67405701 12
1.4088509 -13.66238 14.655959 28
1.7992809 -1.500409 0.40105814 8
1.9302164 -1.5360521 0.11405833 5
1.8576828 -1.5006976 0.3140583 7
2.1709952 3.7174566 0.34540156 6
2.2358057 3.7311544 0.33140185 5
2.7804346 -1.4754459 0.12105653 4
2.7136497 -1.452768 0.27155635 5.5
3.2990987 -13.141834 11.072242 24
3.5870013 -1.3748149 0.23704907 5
3.6941671 -12.834675 11.784314 25
3.89698 -1.3778837 0.13704708 4
4.1238847 4.0510993 0.29241395 5
4.149806 4.0693283 0.46541196 6
4.4782319 -12.844811 11.962396 25
4.7601323 0.69810367 0.70487791 8
4.7666965 0.72830832 0.98087472 9
4.6692185 23.609779 25.336744 28
4.8745713 0.94789702 1.2088499 10
5.0320311 0.52354544 0.24189562 5
5.1273751 23.559546 13.067754 18
5.5257621 24.027365 25.065695 27
6.3312941 4.6991448 0.63936955 6
6.3842335 4.7265658 1.6193665 9
6.5205417 4.3592825 0.39542022 5
6.5564556 3.6104646 0.64152312 6
6.5434699 4.6066871 1.8653864 10
9.3002748 -13.395266 14.276738 25
9.3019571 -13.319243 17.35474 28
9.547493 20.627207 12.274209 18
11.786597 20.880571 24.114216 27
13.414911 20.974529 13.272235 18
18.066484 -14.88719 20.796043 25
20.564102 23.576679 31.737013 27
37.811016 13.948099 9.4964104 10
38.849766 12.355621 8.1765852 9
