# .PCD v0.7 - Point Cloud Data file format
VERSION 0.7
FIELDS x y z intensity
SIZE 4 4 4 4
TYPE F F F F
COUNT 1 1 1 1
WIDTH 1337
HEIGHT 1
VIEWPOINT 0 0 0 1 0 0 0
POINTS 1337
DATA ascii
-3.77 -1.909 -0.20999999 0
-3.7395368 -1.8933301 -0.20967126 0
-3.659183 -1.8519971 -0.20880413 0
-3.5788295 -1.8106642 -0.207937 0
-3.4582989 -1.7486646 -0.20663631 0
-3.3377686 -1.6866651 -0.20533563 0
-3.2574148 -1.6453321 -0.2044685 0
-3.1770611 -1.603999 -0.20360138 0
-3.0565305 -1.5419996 -0.2023007 0
-2.9360001 -1.48 -0.20100001 0
-1.655 -0.35699999 -0.20200001 0
-3.9760513 -0.21741876 -0.20701186 0
-3.8749926 -0.21205378 -0.20712136 0
-3.7848823 -0.20727003 -0.20721897 0
-3.694772 -0.20248626 -0.20731661 0
-3.6046617 -0.19770251 -0.20741424 0
-3.5145514 -0.19291876 -0.20751187 0
-3.4244411 -0.18813501 -0.20760949 0
-3.3343308 -0.18335126 -0.20770712 0
-3.2442205 -0.1785675 -0.20780475 0
-3.1541102 -0.17378375 -0.20790237 0
-3.0639999 -0.169 -0.208 0
-3.9648368 -0.03387551 -0.207 0
-3.8665063 -0.032375917 -0.207 0
-3.7763391 -0.031000813 -0.207 0
-3.6861715 -0.02962571 -0.207 0
-3.5509205 -0.027563058 -0.207 0
-3.4156694 -0.025500406 -0.207 0
-3.3255022 -0.024125304 -0.207 0
-3.2353349 -0.022750203 -0.207 0
-3.1451674 -0.021375101 -0.207 0
-3.0550001 -0.02 -0.207 0
-2.5769999 0.69199997 -0.20900001 0
-2.9246333 0.79558206 -0.20750961 0
-2.8377249 0.76968658 -0.20788221 0
-2.7508166 0.74379104 -0.20825481 0
-2.6639082 0.71789551 -0.2086274 0
-3.2722669 0.8991642 -0.20601922 0
-3.1853585 0.87326866 -0.20639181 0
-3.054996 0.83442533 -0.20695072 0
-2.7810614 0.89948773 -0.208 0
-2.6520307 0.85574389 -0.208 0
-2.523 0.81199998 -0.208 0
-3.51 0.97000003 -0.205 0
-3.4460835 0.95095527 -0.20527403 0
-3.3591752 0.92505974 -0.20564662 0
-3.0391228 0.98697549 -0.208 0
-2.9531024 0.95781291 -0.208 0
-2.8670819 0.92865032 -0.208 0
-3.2541738 1.0598819 -0.208 0
-3.1251431 1.0161381 -0.208 0
-3.461 1.13 -0.208 0
-3.3832047 1.1036259 -0.208 0
-1.98 2.0704999 -0.21250001 0
-2.1268964 2.1678319 -0.21236126 0
-2.042922 2.1344867 -0.21234031 0
-2.253793 2.2936637 -0.21172252 0
-2.1687665 2.2624602 -0.21202093 0
-2.0847919 2.2291148 -0.212 0
-2.3172412 2.3565798 -0.21140315 0
-2.209584 2.3592298 -0.212 0
-1.827 2.3800001 -0.214 0
-2.4441376 2.4824116 -0.21076441 0
-2.3575325 2.4544201 -0.21154189 0
-2.2719798 2.4242871 -0.212 0
-1.8827118 2.4517083 -0.214 0
-2.5075858 2.5453277 -0.21044503 0
-2.3967719 2.5544019 -0.212 0
-1.9662793 2.5592704 -0.214 0
-2.562866 2.6419201 -0.21070854 0
-2.4591677 2.6194594 -0.212 0
-2.0498469 2.6668327 -0.214 0
-2.58848 2.7542872 -0.212 0
-2.1055584 2.7385406 -0.214 0
-1.827172 2.7610753 -0.2128077 0
-2.2169819 2.8819571 -0.214 0
-2.1612701 2.8102489 -0.214 0
-1.8966879 2.8603013 -0.2122308 0
-2.2726936 2.953665 -0.214 0
-1.9662037 2.9595273 -0.2116539 0
-2.3562613 3.0612273 -0.214 0
-2.04036 3.0653768 -0.2110385 0
-3.549 3.188 -0.211 0
-2.4330001 3.1600001 -0.214 0
-3.668 3.21 -0.20200001 0
-3.5055463 3.2990716 -0.20079678 0
-3.4419999 3.2360001 -0.214 0
-0.16599999 -3.3039999 -0.16 0
-3.1974909 -3.2517514 -0.10857114 0
-2.924994 -3.2378094 -0.10572337 0
-2.8098035 -3.2808862 -0.11010271 0
-2.7529743 -3.2120454 -0.12080233 0
-0.3495 -3.2309999 -0.162 0
-0.16408363 -3.2618964 -0.15977454 0
0.24827865 -3.2566123 -0.15578794 0
-3.1353047 -3.1862826 -0.11887475 0
-3.0731182 -3.1208136 -0.12917835 0
-2.8354239 -3.1390646 -0.12313979 0
-2.6961453 -3.1432045 -0.13150194 0
-0.52499998 -3.141 -0.164 0
-0.35371849 -3.1531305 -0.16179435 0
-0.16007318 -3.1737843 -0.15930273 0
0.23840159 -3.1318021 -0.15501831 0
0.31639847 -3.1697545 -0.15578763 0
-3.010932 -3.0553448 -0.13948196 0
-2.7458537 -3.0403197 -0.14055622 0
-2.6393163 -3.0743637 -0.14220154 0
-2.5824871 -3.0055227 -0.15290117 0
-1.4901733 -3.0202274 -0.17499027 0
-1.243 -3.0309999 -0.17200001 0
-0.72100002 -3.007 -0.16599999 0
-0.65092731 -3.0251637 -0.16485626 0
-0.5496881 -3.0658224 -0.16406596 0
-0.36246842 -3.0156467 -0.16126609 0
-0.29739067 -3.0737185 -0.16014469 0
-0.15606272 -3.0856724 -0.15883091 0
0.23124585 -3.0413795 -0.15446073 0
0.30451724 -3.0544579 -0.15481773 0
0.44499999 -3.036 -0.15700001 0
-2.9487455 -2.9898758 -0.14978556 0
-2.8865592 -2.9244068 -0.16008918 0
-2.6562836 -2.9415748 -0.15797263 0
-2.5256581 -2.9366817 -0.16360077 0
-1.4517524 -2.9378486 -0.17453825 0
-1.2146703 -2.9570215 -0.17154123 0
-0.8432042 -2.9544525 -0.16789025 0
-0.74073154 -2.9495027 -0.16576414 0
-0.61993539 -2.9288678 -0.1640389 0
-0.56933916 -2.9748089 -0.16411135 0
-0.48910862 -2.9193182 -0.16215265 0
-0.35225862 -2.9269829 -0.1605138 0
-0.28919199 -2.9853303 -0.15969545 0
-0.15004703 -2.9535041 -0.1581232 0
0.25966382 -2.9576821 -0.15398167 0
0.45493662 -2.9429348 -0.15557374 0
-2.8243728 -2.8589377 -0.17039278 0
-2.5667133 -2.8428299 -0.17538905 0
-2.4688289 -2.867841 -0.17430039 0
-1.4141583 -2.8572423 -0.17409597 0
-1.1834317 -2.875447 -0.17103533 0
-1.0294518 -2.8096304 -0.16996434 0
-0.94000006 -2.8709998 -0.16850001 0
-0.84068376 -2.8434267 -0.16724898 0
-0.73545355 -2.8539085 -0.16521797 0
-0.64916694 -2.8459594 -0.1641193 0
-0.57642233 -2.8815701 -0.16339676 0
-0.47480738 -2.830987 -0.16141656 0
-0.3746258 -2.8509266 -0.16041334 0
-0.276894 -2.8527477 -0.15902159 0
-0.14403136 -2.821336 -0.15741545 0
0.25144613 -2.8674455 -0.15332411 0
0.44835669 -2.8260965 -0.15389737 0
-2.7621865 -2.793469 -0.1806964 0
-2.7 -2.7279999 -0.191 0
-2.507 -2.777 -0.18700001 0
-2.4119999 -2.799 -0.185 0
-1.3765643 -2.7766364 -0.17365369 0
-1.1365738 -2.7530851 -0.17027649 0
-1.0812721 -2.7534223 -0.17162898 0
-0.9534083 -2.733968 -0.16849524 0
-0.83446777 -2.7590961 -0.16714036 0
-0.74999774 -2.7667551 -0.16510278 0
-0.66726607 -2.7744284 -0.16407108 0
-0.56172335 -2.7542281 -0.16239758 0
-0.46050614 -2.7426558 -0.16068047 0
-0.35702902 -2.7559814 -0.15933079 0
-0.26459599 -2.720165 -0.15834773 0
-0.14953122 -2.741317 -0.15698873 0
-0.035274833 -2.7223291 -0.15575404 0
0.0070000002 -2.7019999 -0.156 0
0.15448809 -2.7339735 -0.1542886 0
0.24322841 -2.7772088 -0.15266655 0
0.35848486 -2.7553251 -0.15244859 0
0.46827838 -2.7432508 -0.15260611 0
0.55895549 -2.7356002 -0.15148275 0
0.6505 -2.7305 -0.15099999 0
-1.3201733 -2.6557271 -0.17299026 0
-1.063562 -2.6384284 -0.16998056 0
-0.96772289 -2.6354084 -0.16854297 0
-0.8636592 -2.6393986 -0.16674563 0
-0.76755959 -2.6606119 -0.1658054 0
-0.67580843 -2.6658375 -0.16367005 0
-0.54592943 -2.6401365 -0.16151984 0
-0.44620493 -2.6543245 -0.15994437 0
-0.35541293 -2.6563816 -0.15836103 0
-0.25639734 -2.6317768 -0.15789849 0
-0.14500348 -2.6733706 -0.15682395 0
-0.038266875 -2.6500692 -0.15528855 0
0.15451488 -2.6430612 -0.15337341 0
0.24271338 -2.6593826 -0.15168272 0
0.3552742 -2.6617603 -0.15123616 0
0.4753108 -2.6678126 -0.15037213 0
0.56822395 -2.6526213 -0.15081462 0
0.6854552 -2.6562557 -0.14607649 0
-1.2637821 -2.5348182 -0.17232685 0
-1.0328747 -2.5607858 -0.16932037 0
-0.9376325 -2.5504823 -0.16785009 0
-0.83716643 -2.5588841 -0.16613656 0
-0.73269349 -2.5459554 -0.16450316 0
-0.63220924 -2.5493739 -0.16250665 0
-0.55096769 -2.5656838 -0.16076945 0
-0.45989043 -2.5507736 -0.16006252 0
-0.31141955 -2.5723276 -0.1575046 0
-0.24819866 -2.5433884 -0.15744925 0
-0.132 -2.5569999 -0.156 0
-0.072999999 -2.5969999 -0.155 0
0.16819145 -2.5782058 -0.15233733 0
0.27125835 -2.5099225 -0.14987612 0
0.34803751 -2.5620492 -0.14958502 0
0.46343586 -2.5552876 -0.1487101 0
0.54416311 -2.5500333 -0.14806837 0
0.63885635 -2.542273 -0.1448652 0
-1.2261881 -2.4542122 -0.17188457 0
-1.0272386 -2.4675744 -0.16850589 0
-0.94389272 -2.4630892 -0.16799057 0
-0.83700001 -2.4779999 -0.16599999 0
-0.74701869 -2.4567721 -0.16462569 0
-0.56274706 -2.4524083 -0.16103874 0
-0.44459361 -2.4626822 -0.15937501 0
-0.30120978 -2.4836638 -0.1567523 0
-0.23999999 -2.4549999 -0.15700001 0
0.1547552 -2.4477358 -0.15158559 0
0.26290882 -2.4220607 -0.14893739 0
0.3535063 -2.4503214 -0.14799696 0
0.43857232 -2.4480879 -0.14779532 0
0.52613544 -2.4431286 -0.14701781 0
0.62459856 -2.4559634 -0.14338529 0
1.6735494 -2.4065266 -0.13989635 0
1.702 -2.447 -0.14 0
-1.1885941 -2.373606 -0.17144229 0
-0.99599999 -2.3859999 -0.168 0
-0.87745178 -2.3806303 -0.16646436 0
-0.74524319 -2.3498173 -0.16413851 0
-0.68551737 -2.3481038 -0.16339727 0
-0.5301044 -2.3448231 -0.16011769 0
-0.42929682 -2.3745914 -0.1586875 0
-0.389 -2.3010001 -0.15700001 0
-0.29100001 -2.395 -0.156 0
0.17399999 -2.3180001 -0.15000001 0
0.25455925 -2.3341987 -0.14799868 0
0.34675947 -2.3732324 -0.14774545 0
0.42375785 -2.3600702 -0.14673626 0
0.53964233 -2.3507457 -0.14471821 0
0.6186924 -2.3283832 -0.13957487 0
1.567 -2.3050001 -0.13500001 0
1.6214945 -2.332474 -0.13970672 0
3.5350001 -2.3329999 -0.109 0
-1.151 -2.293 -0.171 0
-0.83231628 -2.2532411 -0.16542505 0
-0.70613897 -2.2208958 -0.163222 0
-0.66134489 -2.2614026 -0.16259818 0
-0.5461809 -2.2503469 -0.15972443 0
-0.46200001 -2.2445002 -0.15899999 0
0.24620971 -2.2463365 -0.14705995 0
0.36685178 -2.2650344 -0.14616692 0
0.46997714 -2.264312 -0.14424302 0
0.5629707 -2.229619 -0.14123969 0
0.6006602 -2.2407753 -0.13919367 0
1.5428953 -2.2449057 -0.13055357 0
1.6212877 -2.2293849 -0.13270025 0
1.955 -2.243 -0.13500001 0
-0.78718072 -2.1258521 -0.16438574 0
-0.65862095 -2.1548245 -0.16220504 0
-0.52600002 -2.1630001 -0.15899999 0
0.264 -2.1630001 -0.145 0
0.32922098 -2.1406891 -0.14448307 0
0.45034358 -2.1515858 -0.14443533 0
0.55470914 -2.150739 -0.13998498 0
1.4655159 -2.134048 -0.12365896 0
1.551518 -2.1511993 -0.13509098 0
1.6529938 -2.1721714 -0.13183683 0
1.775 -2.1559999 -0.133 0
1.8444259 -2.1138248 -0.13586117 0
1.9034733 -2.1828053 -0.13540131 0
-1.605 -2.0940001 -0.17299999 0
-1.5620406 -2.0357642 -0.17309257 0
-0.75709033 -2.040926 -0.16369288 0
-0.63349998 -2.0685 -0.16150001 0
0.37160957 -2.0516894 -0.14295869 0
0.46895897 -2.0332322 -0.14228046 0
0.55679613 -2.0788651 -0.1395162 0
0.68400002 -2.02 -0.134 0
1.4495468 -2.0525496 -0.13616095 0
1.5438793 -2.0488045 -0.13358854 0
1.6606336 -2.0491531 -0.13249339 0
1.7362779 -2.0513794 -0.13336861 0
-3.1289999 -1.954 -0.155 0
-3.0782282 -1.9231232 -0.16168466 0
-1.5094105 -1.9644186 -0.173206 0
-0.727 -1.956 -0.163 0
0.384 -1.982 -0.142 0
0.44889987 -1.947566 -0.14126667 0
0.52389807 -1.9574325 -0.13975811 0
0.65700167 -1.9447494 -0.12193692 0
1.3821545 -1.9436439 -0.1367705 0
1.4598351 -1.9512098 -0.13525736 0
1.5813638 -1.9674244 -0.13289191 0
1.6513819 -1.9352316 -0.13344955 0
1.7421104 -1.9476212 -0.13259363 0
1.8998988 -1.9226274 -0.13392599 0
1.9664409 -1.986616 -0.1321235 0
2.1219311 -1.9267553 -0.13511312 0
-3.224 -1.823 -0.184 0
-3.197701 -1.8075165 -0.18456924 0
-3.0111713 -1.8823425 -0.1705135 0
-2.9441142 -1.8415616 -0.17934233 0
-2.8770571 -1.8007808 -0.18817116 0
-1.4304655 -1.8574004 -0.17337614 0
0.47350001 -1.858 -0.14050001 0
0.63000333 -1.8694987 -0.10987385 0
1.2696037 -1.8100706 -0.13779426 0
1.339159 -1.8615342 -0.13718957 0
1.4646131 -1.8349656 -0.13571896 0
1.5443779 -1.877952 -0.13439129 0
1.6480123 -1.8404008 -0.13502546 0
1.7726688 -1.8462242 -0.13318568 0
1.8379157 -1.8630228 -0.13560499 0
2.0445759 -1.8551595 -0.13590361 0
-3.1250842 -1.7647637 -0.18614104 0
-3.0524673 -1.722011 -0.18771283 0
-2.8099999 -1.76 -0.197 0
-1.3515203 -1.7503821 -0.17354628 0
1.2414253 -1.7381138 -0.13791272 0
1.3412024 -1.7564012 -0.13704532 0
1.431199 -1.7424589 -0.13641571 0
1.5519104 -1.7578156 -0.13704827 0
1.6540189 -1.745893 -0.13377765 0
1.737697 -1.7558903 -0.13481928 0
1.8345001 -1.762 -0.132 0
1.9451466 -1.7631329 -0.13691968 0
2.167747 -1.7387497 -0.13304028 0
2.2160001 -1.777 -0.132 0
-2.943542 -1.6578819 -0.19007051 0
-1.2725751 -1.6433638 -0.17371643 0
1.1605079 -1.6523056 -0.13843378 0
1.2454349 -1.6507925 -0.13873418 0
1.3482984 -1.6508392 -0.13796023 0
1.4694122 -1.668301 -0.14023356 0
1.5533352 -1.6229588 -0.13841806 0
1.6361313 -1.6557046 -0.13721284 0
1.7546411 -1.6513672 -0.13512991 0
1.8581364 -1.6480143 -0.13433097 0
2.0637321 -1.6562966 -0.13528273 0
2.2534318 -1.642632 -0.1340798 0
2.3249469 -1.6414295 -0.13327104 0
-2.8346169 -1.5937527 -0.19242822 0
-2.7620001 -1.551 -0.19400001 0
-1.726666 -1.551033 -0.175 0
-1.1936301 -1.5363456 -0.17388657 0
-1.0497371 -1.5652838 -0.17059517 0
1.0794961 -1.5413041 -0.13992572 0
1.1462076 -1.5446701 -0.13985112 0
1.2512443 -1.5476345 -0.13935241 0
1.3691511 -1.5561901 -0.13869877 0
1.4744476 -1.5423082 -0.14002965 0
1.5460263 -1.5631362 -0.14169137 0
1.6416516 -1.5431619 -0.13637033 0
1.7431707 -1.5429989 -0.13779117 0
1.8815762 -1.5505463 -0.13580295 0
1.9439057 -1.5516146 -0.13517506 0
2.0730107 -1.5115638 -0.13758574 0
2.1544719 -1.5334966 -0.13635235 0
2.2373028 -1.5541455 -0.13516723 0
2.4354901 -1.531505 -0.13422816 0
-1.6517133 -1.4870566 -0.175 0
-1.5860944 -1.4310472 -0.175 0
-1.141 -1.465 -0.17399999 0
0.99999619 -1.4308041 -0.14242573 0
1.0755993 -1.4723213 -0.14123024 0
1.1545727 -1.4444146 -0.14108925 0
1.342 -1.4553334 -0.14033334 0
1.4348316 -1.4548473 -0.14140691 0
1.5589517 -1.4475405 -0.14059563 0
1.6525558 -1.4586109 -0.1400661 0
1.7480856 -1.4422601 -0.13853419 0
1.8341274 -1.4650484 -0.13743226 0
1.9396417 -1.4479046 -0.13633373 0
2.0359194 -1.4372371 -0.13869768 0
2.2736712 -1.4121289 -0.13757682 0
2.3501513 -1.4604487 -0.1368601 0
2.4000001 -1.475 -0.138 0
-1.8579288 -1.3111453 -0.17702481 0
-1.5204755 -1.3750377 -0.175 0
-1.4548566 -1.3190283 -0.175 0
0.96939957 -1.3448808 -0.14415349 0
1.0471226 -1.3455155 -0.14346273 0
1.1421162 -1.3633668 -0.14240146 0
1.2917587 -1.316377 -0.14598106 0
1.3749743 -1.3803607 -0.14323816 0
1.4515859 -1.3475868 -0.14089242 0
1.5251184 -1.3408908 -0.14097521 0
1.6522385 -1.3602452 -0.14015305 0
1.7636119 -1.3434591 -0.1397658 0
1.8440561 -1.3450139 -0.13836542 0
1.955229 -1.3558475 -0.13701196 0
2.0050001 -1.3430001 -0.13600001 0
2.1438363 -1.335495 -0.13854663 0
2.2042966 -1.3521109 -0.13896763 0
2.4465194 -1.3367516 -0.13739055 0
2.549655 -1.3499899 -0.12856184 0
2.6246204 -1.3709594 -0.10624734 0
-1.92 -1.224 -0.178 0
-1.8946911 -1.2083929 -0.17804687 0
-1.7375309 -1.2295854 -0.17725326 0
-1.3564284 -1.2350142 -0.175 0
0.92550004 -1.2820001 -0.1455 0
1.0218216 -1.2511556 -0.1448686 0
1.1388805 -1.2658178 -0.14426962 0
1.2315691 -1.2530328 -0.14648579 0
1.4844999 -1.244 -0.142 0
1.5749352 -1.2571239 -0.14117816 0
1.6572415 -1.256689 -0.14130364 0
1.7532768 -1.2590648 -0.14137083 0
1.8563052 -1.2673233 -0.14006594 0
1.9453777 -1.2380118 -0.1386053 0
2.0234768 -1.2548872 -0.13705339 0
2.2476389 -1.2200136 -0.13911933 0
2.3268168 -1.2641263 -0.1383779 0
2.4530389 -1.2666627 -0.13802946 0
2.8476188 -1.2057439 -0.10880051 0
-1.8211639 -1.163051 -0.17818303 0
-1.7476366 -1.1177092 -0.1783192 0
-1.6302043 -1.1568804 -0.17745692 0
-1.5586532 -1.1084102 -0.17759269 0
-1.258 -1.151 -0.175 0
0.97600001 -1.196 -0.146 0
1.0445762 -1.1619636 -0.14725393 0
1.1412845 -1.1580164 -0.1472429 0
1.2466733 -1.1445794 -0.14515989 0
1.532867 -1.1422906 -0.14264663 0
1.6275887 -1.1707741 -0.1436228 0
1.7471603 -1.1681902 -0.14061585 0
1.8570576 -1.1489357 -0.14065634 0
1.9365475 -1.1652328 -0.13857365 0
2.0648344 -1.1232737 -0.14043221 0
2.1684608 -1.1759009 -0.13986075 0
2.2587442 -1.1153544 -0.14130832 0
2.3651614 -1.1303326 -0.13956206 0
2.4616501 -1.1515822 -0.13778384 0
2.5366089 -1.1458249 -0.13517202 0
2.6441813 -1.1688209 -0.13534467 0
2.7648094 -1.1713719 -0.12240026 0
-1.6373456 -1.0496964 -0.17852344 0
-1.4513266 -1.0357051 -0.17779635 0
1.051 -1.063 -0.148 0
1.1591733 -1.0655793 -0.14665988 0
1.2612032 -1.0514526 -0.14656658 0
1.4373004 -1.0284359 -0.14496993 0
1.5598145 -1.0235161 -0.14345594 0
1.6434647 -1.0578123 -0.14344747 0
1.7321659 -1.069517 -0.14226186 0
1.8293178 -1.0467317 -0.1415711 0
1.9309273 -1.0435627 -0.14208499 0
2.0504026 -1.0536079 -0.14276467 0
2.1776381 -1.0767324 -0.14212142 0
2.2493839 -1.0260558 -0.13697009 0
2.3481367 -1.0576109 -0.13808219 0
2.4394071 -1.0635042 -0.13876945 0
2.5120504 -1.0475839 -0.13802926 0
2.7295523 -1.0128353 -0.13600001 0
-1.5270545 -0.98168367 -0.17872769 0
-1.4535273 -0.93634182 -0.17886384 0
-1.344 -0.963 -0.178 0
1.081 -0.995 -0.148 0
1.1594453 -0.93721509 -0.14893708 0
1.2468283 -0.94334722 -0.14714254 0
1.3221276 -0.95121288 -0.14667478 0
1.4427217 -0.94127423 -0.14668392 0
1.5756407 -0.95809776 -0.14234386 0
1.664 -0.98699999 -0.146 0
1.7486435 -0.94637448 -0.14291804 0
1.8491747 -0.95189852 -0.1450856 0
1.9586533 -0.93664169 -0.142809 0
2.0476367 -0.96291995 -0.14010639 0
2.1469369 -0.96109492 -0.13997209 0
2.2653947 -0.95510912 -0.14007995 0
2.3399208 -0.95180124 -0.13907021 0
2.4476054 -0.94523877 -0.13771591 0
2.5399392 -0.95904571 -0.13735878 0
2.6469662 -0.98246175 -0.13600001 0
-2.0779762 -0.85703987 -0.18503508 0
-1.9631301 -0.83787835 -0.185 0
-1.8829417 -0.80456525 -0.185 0
-1.38 -0.89099997 -0.17900001 0
1.136 -0.861 -0.149 0
1.2431977 -0.85127175 -0.14858004 0
1.3386844 -0.84475869 -0.14740631 0
1.4381456 -0.87840533 -0.14542212 0
1.5412035 -0.8429395 -0.14398679 0
1.6547998 -0.86199999 -0.1442 0
1.7721063 -0.88362205 -0.1461869 0
1.8402088 -0.82641035 -0.14359981 0
1.9223132 -0.86336553 -0.14289972 0
2.0412943 -0.84900016 -0.14164032 0
2.1710739 -0.83699679 -0.13869949 0
2.26753 -0.83588105 -0.13871695 0
2.3511624 -0.86677104 -0.13824794 0
2.4442961 -0.85796088 -0.13740693 0
2.533 -0.86399996 -0.13749999 0
-2.1158371 -0.7583915 -0.18657477 0
-2.019522 -0.75160974 -0.18685025 0
-1.9516983 -0.76174784 -0.1864922 0
-1.82033 -0.75275981 -0.18589723 0
-1.7401226 -0.72031987 -0.18617293 0
-1.6423767 -0.70462608 -0.185 0
1.1735001 -0.76400006 -0.1505 0
1.2601845 -0.77525866 -0.14940631 0
1.378 -0.75999999 -0.148 0
1.4531691 -0.75411272 -0.14654505 0
1.5618378 -0.7459113 -0.14530416 0
1.6591078 -0.74261183 -0.14550123 0
1.758108 -0.76196188 -0.14370286 0
1.8412302 -0.74195027 -0.14201756 0
1.9290211 -0.75294536 -0.14152461 0
2.0440123 -0.75328112 -0.14012398 0
2.1143978 -0.77565205 -0.14148244 0
2.2395256 -0.75236493 -0.13983311 0
2.3844943 -0.75073898 -0.13839389 0
2.4742675 -0.74811697 -0.13768353 0
2.5309999 -0.76499999 -0.13699999 0
-2.1299639 -0.67933297 -0.18799999 0
-2.0247149 -0.67229456 -0.18777448 0
-1.9425123 -0.64507878 -0.18797874 0
-1.8602426 -0.6678046 -0.18829975 0
-1.778932 -0.63897842 -0.18884981 0
-1.6627382 -0.63597953 -0.18927412 0
-1.558805 -0.63962668 -0.18748288 0
-1.482 -0.63800001 -0.185 0
1.396 -0.68400002 -0.148 0
1.4580089 -0.63870764 -0.14871036 0
1.5524292 -0.65129536 -0.14683405 0
1.6604909 -0.6442849 -0.14336012 0
1.7522529 -0.63682032 -0.14519766 0
1.8644762 -0.6565513 -0.14298441 0
1.9567227 -0.66600788 -0.14270347 0
2.0427473 -0.64186954 -0.14169696 0
2.1281841 -0.66908687 -0.14087118 0
2.2187917 -0.64366579 -0.1404407 0
2.3494973 -0.65021479 -0.13862859 0
2.4805796 -0.65542185 -0.13702339 0
2.533 -0.66949999 -0.1365 0
-2.1465163 -0.54793912 -0.18755531 0
-2.0473135 -0.52246708 -0.18809479 0
-1.9420922 -0.52037483 -0.18733898 0
-1.857816 -0.5925234 -0.18799999 0
-1.7751119 -0.56614256 -0.18799999 0
-1.6548036 -0.54982364 -0.18869361 0
-1.5350001 -0.55250001 -0.19049999 0
1.4385159 -0.54140979 -0.14849615 0
1.5451273 -0.5526939 -0.14677376 0
1.6697061 -0.54652971 -0.14344823 0
1.7351748 -0.54688692 -0.1442697 0
1.8742639 -0.54522192 -0.14481357 0
1.9603958 -0.56983292 -0.14372036 0
2.0506902 -0.52638429 -0.13930322 0
2.1345444 -0.5623455 -0.14056855 0
2.2185073 -0.52921224 -0.13968056 0
2.3338859 -0.54782748 -0.13845778 0
2.4783244 -0.53225768 -0.13612232 0
2.5235 -0.542 -0.13550001 0
-2.1514776 -0.46952173 -0.18719451 0
-2.0632958 -0.44953623 -0.18982418 0
-1.9560704 -0.4580518 -0.19091122 0
-1.8587033 -0.45048794 -0.19121905 0
-1.7543471 -0.44805983 -0.1899655 0
-1.6493582 -0.42792413 -0.18958907 0
-1.525 -0.44749999 -0.18799999 0
1.4499089 -0.43853045 -0.14657055 0
1.5452473 -0.45761076 -0.14570609 0
1.6526078 -0.44638738 -0.14368291 0
1.7427695 -0.44893849 -0.1438909 0
1.8641777 -0.44658032 -0.14190225 0
1.9502136 -0.46754387 -0.14072807 0
2.0338612 -0.45623025 -0.1400284 0
2.1284025 -0.45703202 -0.14095685 0
2.2157855 -0.44856143 -0.13940743 0
2.3458562 -0.4462322 -0.13752568 0
2.4765763 -0.44081506 -0.13565046 0
2.5220001 -0.449 -0.13500001 0
-1.8183184 -0.39401448 -0.19712968 0
-1.7366592 -0.37550724 -0.19956484 0
-1.567 -0.38 -0.19400001 0
1.439131 -0.34271353 -0.14699464 0
1.564343 -0.35481289 -0.14589833 0
1.6715167 -0.35188752 -0.14645244 0
1.7508984 -0.34993175 -0.1448245 0
1.862695 -0.35329524 -0.14447351 0
1.9505424 -0.37019286 -0.14321026 0
2.0362561 -0.36147338 -0.14195576 0
2.1243203 -0.37734169 -0.14069471 0
2.2123842 -0.39321005 -0.13943364 0
2.3757091 -0.30879441 -0.13582714 0
2.4642978 -0.32076871 -0.13455553 0
2.503 -0.32600001 -0.134 0
1.4425327 -0.24420199 -0.14699429 0
1.5351393 -0.2542915 -0.14667657 0
1.6620578 -0.24960671 -0.14502026 0
1.7359349 -0.24363951 -0.14241178 0
1.8409736 -0.23043947 -0.14129525 0
1.9281193 -0.22854608 -0.14070021 0
2.0200644 -0.24188291 -0.13854352 0
2.1521981 -0.25274503 -0.13897847 0
2.2852063 -0.26917553 -0.1370635 0
2.3720486 -0.25146392 -0.1357466 0
2.476234 -0.23394626 -0.1342207 0
1.4578303 -0.15759274 -0.14624265 0
1.5758212 -0.17287102 -0.14397058 0
1.6630754 -0.1592887 -0.14425787 0
1.7503297 -0.16048807 -0.14471571 0
1.83678 -0.14734048 -0.14342554 0
1.9243705 -0.13211659 -0.14212996 0
2.0419018 -0.13316129 -0.14040475 0
2.1626666 -0.15922736 -0.13869511 0
2.2801981 -0.16027206 -0.13696989 0
2.3691549 -0.16731091 -0.13567989 0
2.4675462 -0.14615567 -0.13418093 0
1.4686667 -0.0469037 -0.14606434 0
1.5725 -0.040711094 -0.14419302 0
1.6554 -0.056026656 -0.14371581 0
1.7397879 -0.037986241 -0.14324936 0
1.825561 -0.010257036 -0.14120829 0
1.939284 -0.014228272 -0.14002419 0
2.0416012 -0.014863005 -0.13805035 0
2.1704426 -0.022871211 -0.13792083 0
2.2596829 -0.025016416 -0.13674097 0
2.3489232 -0.027161617 -0.13556111 0
2.4525819 -0.029653409 -0.13419062 0
1.41 0.001 -0.147 0
1.623 0.067000002 -0.146 0
1.7122781 0.068924561 -0.14471696 0
1.8461952 0.071811393 -0.1427924 0
1.9801123 0.074698232 -0.14086784 0
2.0693903 0.076622784 -0.13958481 0
2.1586683 0.078547344 -0.13830177 0
2.2479463 0.080471903 -0.13701874 0
2.3372245 0.082396455 -0.13573571 0
2.4422512 0.084660508 -0.13422632 0
1.3835 0.13499999 -0.146 0
1.4524555 0.13788331 -0.14599112 0
1.5558887 0.14220825 -0.14597782 0
1.62125 0.1435 -0.1435 0
1.7246643 0.14868683 -0.14027846 0
1.8133285 0.15487365 -0.13955691 0
1.9150763 0.11710966 -0.13864535 0
2.0481143 0.1231645 -0.13746801 0
2.1811526 0.12921932 -0.13629068 0
2.2698445 0.13325588 -0.13550581 0
2.3585367 0.13729244 -0.13472092 0
2.4400001 0.141 -0.134 0
1.5470001 0.29100001 -0.14399999 0
1.647069 0.26125634 -0.14067072 0
1.7792755 0.28002542 -0.13968287 0
1.8781614 0.24877471 -0.13902488 0
1.977546 0.21334839 -0.13836724 0
2.0661824 0.22168548 -0.13770905 0
2.154819 0.23002258 -0.13705085 0
2.2434554 0.23835967 -0.13639267 0
2.3320918 0.24669677 -0.13573447 0
2.4258642 0.25551695 -0.13503814 0
1.331 0.398 -0.146 0
1.6248573 0.3044309 -0.1429507 0
1.7416432 0.32457727 -0.14137676 0
1.8584292 0.34472361 -0.13980284 0
1.9367754 0.3300254 -0.13868287 0
2.0436888 0.31756353 -0.13770719 0
2.1318264 0.33007622 -0.13704862 0
2.2199643 0.34258893 -0.13639006 0
2.3521709 0.36135799 -0.13540222 0
2.4059999 0.36899999 -0.13500001 0
-1.473 0.48800001 -0.19 0
1.3930287 0.42126077 -0.14364021 0
1.4550574 0.44452155 -0.14128043 0
1.5309589 0.47768247 -0.14209239 0
1.6005368 0.49175203 -0.13845238 0
1.887 0.442 -0.139 0
1.9682184 0.45786431 -0.13831025 0
2.0494368 0.47372863 -0.13762049 0
2.1306553 0.48959294 -0.13693075 0
-1.7143611 0.57619792 -0.19172093 0
-1.6339074 0.54679859 -0.19114728 0
-1.5399084 0.5546633 -0.19027933 0
-1.447 0.55900002 -0.189 0
1.489 0.537 -0.14 0
1.5731841 0.56572425 -0.13933714 0
1.6670378 0.5434708 -0.13977271 0
1.7515588 0.54072291 -0.1392329 0
1.8298302 0.56464249 -0.13842927 0
1.9426841 0.59076005 -0.13626194 0
2.2524829 0.51338947 -0.13589612 0
2.358 0.53399998 -0.13500001 0
-2.0339999 0.69300002 -0.19400001 0
-1.9557221 0.66439581 -0.19344187 0
-1.8752685 0.63499653 -0.19286823 0
-1.779634 0.64815331 -0.1926173 0
-1.6454082 0.64131832 -0.19146252 0
-1.4310895 0.6757887 -0.19002412 0
-1.353 0.63700002 -0.189 0
1.2555001 0.65900004 -0.14649999 0
1.3417727 0.6659531 -0.14512113 0
1.7415525 0.62317276 -0.1380114 0
1.8257365 0.65189701 -0.13734853 0
1.9099207 0.68062127 -0.13668567 0
2.0282209 0.61551207 -0.13571434 0
2.1565261 0.6526401 -0.13489291 0
2.2904158 0.69138408 -0.13403575 0
-2.0067716 0.79124558 -0.19594751 0
-1.9231796 0.7565639 -0.19491002 0
-1.8438164 0.72363663 -0.19392502 0
-1.6653578 0.79215473 -0.19309649 0
-1.5482236 0.73397171 -0.1915603 0
-1.4397192 0.76722151 -0.19039166 0
-1.326 0.704 -0.189 0
-1.288 0.76599997 -0.18799999 0
1.199 0.78500003 -0.146 0
1.2480367 0.7556386 -0.14491963 0
1.3462296 0.76928777 -0.14124982 0
1.4533887 0.74089956 -0.14130378 0
1.5570906 0.77981234 -0.13948454 0
1.7528621 0.78104496 -0.13859722 0
1.9941049 0.70934552 -0.13602279 0
2.078289 0.73806977 -0.13535993 0
2.1624732 0.76679403 -0.13469706 0
2.2488286 0.79625916 -0.13401711 0
-1.8215367 0.86973214 -0.19514474 0
-1.7434472 0.83094341 -0.19412062 0
-1.6292512 0.87259072 -0.19271111 0
-1.5534384 0.83044302 -0.19178334 0
-1.436336 0.85722405 -0.19032583 0
-1.3453908 0.84681576 -0.18897784 0
-1.257 0.833 -0.18799999 0
1.14975 0.85600001 -0.1445 0
1.2630638 0.85088795 -0.14102475 0
1.3234694 0.86179739 -0.14267908 0
1.4479414 0.84865767 -0.1396248 0
1.5484532 0.85578948 -0.13828708 0
1.637193 0.83514118 -0.13738066 0
1.7278447 0.86477596 -0.13633759 0
1.8350689 0.86736584 -0.13653201 0
1.9421725 0.87126946 -0.13658327 0
3.425 0.82499999 -0.131 0
3.5130267 0.84547579 -0.12784252 0
3.6450667 0.87618947 -0.1231063 0
-1.9630001 0.94 -0.197 0
-1.8781579 0.95377725 -0.19583166 0
-1.7429705 0.93581223 -0.19410278 0
-1.6588402 0.99406016 -0.19381456 0
-1.5475881 0.92564213 -0.19207019 0
-1.4360335 0.95554876 -0.18998192 0
-1.3358055 0.93475711 -0.18772817 0
-1.2630478 0.94469756 -0.18793519 0
1.0735 0.97299999 -0.14300001 0
1.1454498 0.94354707 -0.14279869 0
1.2382463 0.93970579 -0.14038773 0
1.3480105 0.93544227 -0.13978101 0
1.4532329 0.96400845 -0.13859478 0
1.5606679 0.94171113 -0.13709542 0
1.6603577 0.95031124 -0.13680117 0
1.7475364 0.96713638 -0.13644692 0
1.8636756 0.9629634 -0.13542339 0
1.955379 0.96910393 -0.1343504 0
2.055759 0.92540419 -0.1353749 0
2.1771727 0.98326945 -0.13408327 0
3.4435177 0.91601896 -0.1283243 0
3.57407 0.949076 -0.12329718 0
3.6611049 0.97111404 -0.11994579 0
3.7626233 0.95002759 -0.11748223 0
3.8651333 0.92737889 -0.1152126 0
3.95316 0.9478547 -0.11205512 0
4.0411868 0.96833044 -0.10889764 0
4.1292133 0.98880625 -0.10574016 0
-1.8525882 1.053642 -0.19607019 0
-1.7330081 1.0396723 -0.19497748 0
-1.6150669 1.0780975 -0.19196384 0
-1.5266435 1.0438102 -0.19126999 0
-1.4251782 1.0507752 -0.18972212 0
-1.3388754 1.0368031 -0.18843909 0
-1.2293457 1.0492296 -0.18674737 0
-1.141 1.021 -0.186 0
-1.099 1.0829999 -0.186 0
1.0484265 1.0368952 -0.14181453 0
1.1488892 1.0556036 -0.13980554 0
1.2483257 1.0406379 -0.14060558 0
1.3466125 1.0535241 -0.1390354 0
1.4479115 1.0405648 -0.13769151 0
1.5678693 1.0616739 -0.13691677 0
1.661167 1.0561723 -0.13557231 0
1.7271953 1.0214323 -0.13556843 0
1.8223153 1.0580201 -0.13488361 0
1.9251196 1.0345321 -0.13513964 0
2.0168233 1.0406725 -0.13406666 0
2.1085343 1.0393279 -0.1330128 0
3.3710001 1.073 -0.13 0
3.4563839 1.0979904 -0.12638296 0
3.8351748 1.0151901 -0.11324298 0
3.9222097 1.0372281 -0.10989157 0
4.052762 1.0702851 -0.10486446 0
4.2172403 1.009282 -0.10258268 0
-1.862 1.119 -0.197 0
-1.7582936 1.1761365 -0.19354938 0
-1.6678679 1.142344 -0.19351906 0
-1.5468748 1.1422322 -0.19168735 0
-1.4580096 1.1593368 -0.18955922 0
-1.3576708 1.1601034 -0.18874083 0
-1.2723223 1.1404713 -0.18737359 0
-1.1681937 1.1530474 -0.18619512 0
-1.061 1.151 -0.186 0
0.95888329 1.1673361 -0.14135875 0
1.0476941 1.136591 -0.13953972 0
1.1570903 1.1624393 -0.13897648 0
1.2577986 1.1430463 -0.13902409 0
1.3271905 1.1566032 -0.13874841 0
1.4533495 1.1502782 -0.1371161 0
1.5362782 1.1395725 -0.13653995 0
1.6340852 1.1538889 -0.13555266 0
1.7397975 1.1552424 -0.13454744 0
1.8564343 1.1419523 -0.1338359 0
1.9570462 1.1424495 -0.13335449 0
2.0306084 1.1481601 -0.13291878 0
3.5417676 1.1229807 -0.12276594 0
3.6271515 1.1479712 -0.11914891 0
3.7552271 1.1854568 -0.11372337 0
-1.7491341 1.2427466 -0.19487533 0
-1.6369042 1.2513881 -0.19231242 0
-1.5440438 1.2597158 -0.19054422 0
-1.4534321 1.2431769 -0.18936169 0
-1.3616174 1.2604671 -0.18878295 0
-1.2366806 1.2399349 -0.18715353 0
-1.13383 1.25081 -0.18660362 0
-1.0353742 1.2385349 -0.18537396 0
-0.96700001 1.277 -0.186 0
0.52999997 1.275 -0.146 0
0.88944954 1.2734365 -0.1401922 0
0.94747281 1.2254727 -0.13948768 0
1.052 1.2244999 -0.14 0
1.1700118 1.2437595 -0.13804901 0
1.2592584 1.2456996 -0.13734445 0
1.3452516 1.2415352 -0.13667005 0
1.4561163 1.254586 -0.135837 0
1.5666943 1.2511036 -0.13534698 0
1.6602182 1.2489618 -0.13464633 0
1.7685875 1.2652851 -0.13385327 0
1.8629341 1.2569356 -0.13256288 0
1.9478257 1.2531351 -0.13295379 0
2.0303988 1.2156478 -0.1331989 0
2.1253581 1.2410119 -0.13237655 0
2.247647 1.2793024 -0.13157853 0
3.8833029 1.2229422 -0.10829782 0
3.9686866 1.2479327 -0.1046808 0
4.0540705 1.272923 -0.10106377 0
-1.704 1.325 -0.193 0
-1.6364261 1.3684335 -0.19187215 0
-1.5369914 1.3463349 -0.1921275 0
-1.4324847 1.3478905 -0.18994714 0
-1.3323665 1.3474255 -0.18797162 0
-1.2385793 1.3455095 -0.18743603 0
-1.1394923 1.3302975 -0.18660523 0
-1.0187601 1.3443031 -0.18690543 0
-0.94904375 1.338819 -0.18563624 0
-0.889 1.368 -0.185 0
0.45499998 1.3610001 -0.148 0
0.5587613 1.345596 -0.14576229 0
0.787 1.381 -0.141 0
0.84899998 1.339 -0.141 0
0.96000004 1.3280001 -0.138 0
1.0517933 1.348547 -0.13739869 0
1.134451 1.3832958 -0.13651763 0
1.2333461 1.3458191 -0.13622533 0
1.3448139 1.3488203 -0.1353977 0
1.4515376 1.3519346 -0.13522667 0
1.5382736 1.3618257 -0.13371861 0
1.6306098 1.3336889 -0.13452412 0
1.7320883 1.3466418 -0.13388878 0
1.8475592 1.3583988 -0.13186133 0
1.9450974 1.3474067 -0.13196009 0
2.0472512 1.3375883 -0.13270289 0
2.162746 1.3311765 -0.13229652 0
2.2770491 1.3669858 -0.13114917 0
2.346 1.336 -0.131 0
-1.605 1.439 -0.19499999 0
-1.5507531 1.4596066 -0.1915649 0
-1.4649572 1.4469901 -0.18918742 0
-1.3645136 1.4468796 -0.18857706 0
-1.2628146 1.4381838 -0.18818337 0
-1.1472628 1.4400595 -0.18798003 0
-1.0414213 1.4435405 -0.18729649 0
-0.95057756 1.4236724 -0.1862798 0
-0.84674227 1.4491062 -0.18354943 0
-0.76499999 1.467 -0.182 0
0.375 1.46 -0.15099999 0
0.45124134 1.4665085 -0.14855517 0
0.54197365 1.4314581 -0.14627878 0
0.61628395 1.4867879 -0.1452869 0
0.73500001 1.469 -0.14399999 0
0.86546195 1.4356366 -0.13998505 0
0.97359467 1.451916 -0.13799547 0
1.0652111 1.4690752 -0.13620031 0
1.1906766 1.4504437 -0.13527645 0
1.3547212 1.4360796 -0.13433821 0
1.4573736 1.4555467 -0.13460298 0
1.5410993 1.4365108 -0.13373265 0
1.6508105 1.4440138 -0.13208911 0
1.7595377 1.4528086 -0.13097239 0
1.8359419 1.4488436 -0.13264175 0
1.9407369 1.4455999 -0.13314945 0
2.0671797 1.4437509 -0.13138786 0
2.1374214 1.4451011 -0.13170804 0
2.22579 1.4067128 -0.1320594 0
-1.4403266 1.5389532 -0.18954062 0
-1.3469604 1.5585054 -0.18930632 0
-1.2817422 1.5313494 -0.18873964 0
-1.1572824 1.5620203 -0.18912829 0
-1.0606195 1.5451349 -0.18780166 0
-0.94739884 1.5330067 -0.18602788 0
-0.80503964 1.5405952 -0.18313472 0
-0.7580117 1.5407271 -0.18243209 0
-0.671 1.5470001 -0.18000001 0
0.25299999 1.598 -0.155 0
0.34714523 1.5474454 -0.15127356 0
0.44507763 1.5646452 -0.14857846 0
0.54869914 1.5635912 -0.14615586 0
0.65834844 1.555128 -0.14468306 0
0.77375066 1.5499775 -0.14318204 0
0.87850857 1.5348436 -0.13911106 0
0.99650896 1.5620543 -0.13774373 0
1.140359 1.5566702 -0.13491838 0
1.246902 1.5175916 -0.13403527 0
1.3403184 1.5530965 -0.13278395 0
1.4501904 1.5536982 -0.13123481 0
1.543064 1.5371367 -0.13267264 0
1.6637889 1.5549872 -0.1319163 0
1.7345552 1.5441189 -0.13052304 0
1.9514756 1.5501045 -0.13312335 0
2.0295 1.5244999 -0.13249999 0
-1.4119999 1.607 -0.19 0
-1.374 1.641 -0.19 0
-1.2516803 1.6471674 -0.19097984 0
-1.1529409 1.6492466 -0.18907301 0
-1.0766574 1.6491764 -0.18871599 0
-0.95545352 1.6296376 -0.18629666 0
-0.84841496 1.6509614 -0.18446732 0
-0.72225815 1.6585138 -0.18109059 0
-0.62225986 1.6430026 -0.17919949 0
-0.53833336 1.6583333 -0.17833333 0
0.16499999 1.6775 -0.15700001 0
0.23827367 1.6611772 -0.15474445 0
0.34619895 1.6763999 -0.15159482 0
0.45741096 1.6416451 -0.1479118 0
0.5659337 1.6555586 -0.14614013 0
0.72096723 1.6593438 -0.14176926 0
0.81250131 1.6309551 -0.14236408 0
0.94713998 1.6502262 -0.13769436 0
1.0456786 1.6364057 -0.13665831 0
1.1554 1.6295164 -0.13464712 0
1.2388051 1.6607308 -0.1331927 0
1.3593531 1.6518874 -0.1315529 0
1.4957132 1.6500349 -0.12948336 0
1.5718722 1.6553385 -0.12936947 0
1.6401209 1.6461312 -0.13150731 0
1.7420231 1.6427125 -0.13300282 0
1.8150001 1.609 -0.132 0
-1.3099999 1.723 -0.192 0
-1.2353078 1.7507613 -0.19030897 0
-1.1470289 1.7546175 -0.19010948 0
-1.0424225 1.7740628 -0.18849443 0
-0.96204829 1.7316153 -0.18696722 0
-0.87208176 1.7610898 -0.18502459 0
-0.7735163 1.7700274 -0.18218119 0
-0.63488317 1.7346451 -0.17974928 0
-0.54661596 1.7516327 -0.17832863 0
-0.45537934 1.7520349 -0.17624046 0
-0.37099999 1.7655001 -0.175 0
0.15156871 1.7449837 -0.15801024 0
0.25854734 1.7600209 -0.15382221 0
0.36179841 1.7545998 -0.15139222 0
0.52899998 1.727 -0.147 0
0.60180956 1.7495794 -0.14451508 0
0.76014304 1.7611806 -0.14041764 0
0.8578136 1.7724607 -0.14056857 0
0.95599997 1.756 -0.139 0
1.0574535 1.7422366 -0.13622582 0
1.1440179 1.7851086 -0.13448747 0
1.2528386 1.7343658 -0.13300361 0
1.4541277 1.7650728 -0.12946075 0
1.549 1.7079999 -0.12800001 0
-1.1470001 1.8475001 -0.19049999 0
-1.0859071 1.8462753 -0.18959332 0
-0.9471575 1.8531234 -0.18699723 0
-0.80768836 1.8443699 -0.18290827 0
-0.66273099 1.838138 -0.18056671 0
-0.55113441 1.8445185 -0.17828679 0
-0.42989653 1.8500793 -0.17348918 0
-0.34277493 1.8466301 -0.17303061 0
-0.26171359 1.8538523 -0.17290489 0
-0.189 1.8660001 -0.171 0
0.14797404 1.8313363 -0.15918414 0
0.24916801 1.8619359 -0.15635891 0
0.37739789 1.8327998 -0.15118963 0
0.51700002 1.899 -0.147 0
0.63923812 1.8422896 -0.14325754 0
0.75238454 1.8213296 -0.13952747 0
0.83819079 1.8675086 -0.14071026 0
0.94340557 1.8547992 -0.13889806 0
1.0490329 1.8708961 -0.13609748 0
1.1587881 1.8543105 -0.13425377 0
1.3517885 1.8380321 -0.13123684 0
1.416 1.893 -0.13 0
-1.0086188 1.9147854 -0.18890417 0
-0.95899999 1.929 -0.18700001 0
-0.85043025 1.9373562 -0.18381765 0
-0.7495591 1.9516826 -0.18086351 0
-0.63809073 1.9655492 -0.18010086 0
-0.55453825 1.9311583 -0.17790937 0
-0.34734771 1.9164194 -0.17143118 0
-0.25231674 1.9542094 -0.17000757 0
-0.19496347 1.9230789 -0.16972211 0
0.14586969 1.9486165 -0.16076237 0
0.21724905 1.9702201 -0.15797855 0
0.3365458 1.9387082 -0.15366666 0
0.54053807 1.9850913 -0.14657009 0
0.64551193 1.9337957 -0.14321059 0
0.75574136 1.9451095 -0.14048645 0
0.85113835 1.9440775 -0.13880639 0
0.95494545 1.9463115 -0.1383992 0
1.0768101 1.9708923 -0.13579266 0
1.1426325 1.9445227 -0.13399708 0
1.2265673 1.9600667 -0.13276382 0
1.3719001 1.9265164 -0.13114712 0
-0.71663398 2.0563977 -0.18250327 0
-0.6417737 2.046514 -0.17964315 0
-0.55287898 2.0390491 -0.17809166 0
-0.20299999 2 -0.168 0
0.31600001 2.0009999 -0.155 0
0.56407613 2.0711825 -0.14614016 0
0.67466676 2.0181568 -0.14253485 0
0.75163722 2.0810566 -0.1407849 0
0.86628199 2.0495915 -0.13872471 0
0.96050102 2.0445976 -0.13809891 0
1.0115144 2.0616789 -0.13684328 0
1.1579344 2.0579095 -0.13361166 0
1.2704996 2.0456884 -0.13183166 0
1.302 2.0239999 -0.131 0
-0.74536079 2.1416774 -0.18320392 0
-0.69705683 2.1680336 -0.18194357 0
-0.57484871 2.1225615 -0.17836459 0
0.58761418 2.1572738 -0.14571024 0
0.68221444 2.1142974 -0.14217301 0
0.73297632 2.1868789 -0.14118341 0
0.83531046 2.1461251 -0.13879716 0
0.93227178 2.1467121 -0.13856794 0
1.0472398 2.1626384 -0.136686 0
1.1696751 2.1360769 -0.13332722 0
1.223 2.1140001 -0.132 0
-0.74882692 2.2399979 -0.18325269 0
-0.61878818 2.2895861 -0.17891042 0
-0.59681845 2.2060738 -0.1786375 0
0.61115223 2.243365 -0.14528033 0
0.76213109 2.27124 -0.14050767 0
0.86713809 2.2265315 -0.13812146 0
0.95631057 2.2608111 -0.13717823 0
1.0698094 2.2485304 -0.13554478 0
1.114 2.2609999 -0.13600001 0
-0.81717777 2.354876 -0.18495557 0
-0.72903788 2.3680224 -0.18312904 0
-0.62599999 2.3169999 -0.17900001 0
0.63469028 2.3294563 -0.1448504 0
0.76442891 2.3645947 -0.14034602 0
0.84441739 2.3306785 -0.1386835 0
0.95516586 2.3685813 -0.13618997 0
1.0089999 2.3410001 -0.13500001 0
-0.86000001 2.4820001 -0.186 0
-0.76357025 2.4472306 -0.18395512 0
-0.66219902 2.4479926 -0.18083107 0
0.65822834 2.4155474 -0.14442049 0
0.7918337 2.4480271 -0.13973702 0
0.86102384 2.4649487 -0.13828772 0
0.92000002 2.444 -0.13699999 0
-0.76025099 2.5712833 -0.18490003 0
-0.69839811 2.5789855 -0.18266216 0
0.68176639 2.5016387 -0.14399058 0
0.70530444 2.5877299 -0.14356066 0
0.82211924 2.5402298 -0.13906401 0
-0.75445366 2.6621194 -0.18486647 0
0.7288425 2.6738212 -0.14313073 0
-0.81250197 2.7445664 -0.18680008 0
-0.74666357 2.7536423 -0.18510361 0
0.736 2.7 -0.14300001 0
-0.83862746 2.8312082 -0.18775009 0
-0.7707963 2.840971 -0.18632433 0
-0.86475301 2.9178498 -0.18870011 0
-0.79492897 2.9282994 -0.18754505 0
-0.14662275 2.9544537 -0.15967302 0
-0.91700399 3.0911331 -0.19060014 0
-0.8549701 3.0100598 -0.18920794 0
-0.151491 3.0878143 -0.13769211 0
-0.94312948 3.1777749 -0.19155017 0
-0.85526073 3.1466205 -0.19059685 0
-0.15473652 3.1767216 -0.12303816 0
-3.7362232 3.265357 -0.18664709 0
-3.6140106 3.2497365 -0.19762373 0
-0.96925497 3.2644165 -0.19250019 0
-0.88300002 3.247 -0.192 0
-0.15798202 3.2656288 -0.10838421 0
-3.838558 3.3483925 -0.1636177 0
-3.7440314 3.3732097 -0.17087123 0
-3.6790209 3.3114731 -0.18424748 0
-3.5690928 3.362143 -0.18759358 0
-0.98299998 3.3099999 -0.193 0
-4.0091162 3.4867852 -0.12523538 0
-3.9408927 3.431428 -0.14058831 0
-3.8415473 3.4658146 -0.15080683 0
-3.6644125 3.4567504 -0.16778874 0
-0.70599997 3.4679999 -0.192 0
-4.0773392 3.5421422 -0.10988245 0
-3.9390628 3.5584195 -0.13074245 0
-3.759732 3.5513575 -0.14798394 0
-0.72214854 3.5533736 -0.17727633 0
-4.0365782 3.6510243 -0.11067806 0
-3.8550515 3.6459646 -0.12817912 0
-0.73829705 3.638747 -0.16255265 0
-3.9503713 3.7405717 -0.1083743 0
-0.75444561 3.7241206 -0.14782898 0
-0.146 3.7869999 -0.17399999 0
-0.77866846 3.852181 -0.12574348 0
-0.41 3.846 -0.192 0
-0.1470401 3.8708019 -0.1589929 0
-0.80289125 3.9802413 -0.10365796 0
-0.41908535 3.9352105 -0.18107823 0
-0.14808019 3.9546039 -0.14398579 0
-0.42817074 4.0244212 -0.17015645 0
-0.14912029 4.0384059 -0.1289787 0
-0.4372561 4.1136317 -0.15923467 0
-0.15016039 4.1222081 -0.11397159 0
-0.45088416 4.247448 -0.14285202 0
-0.46451223 4.3812637 -0.12646936 0
-3.0265493 4.4603171 -0.12195212 0
-0.47359759 4.4704742 -0.11554759 0
-3.1030328 4.5645447 -0.14463475 0
-0.48268294 4.5596848 -0.10462581 0
-3.154022 4.6340299 -0.1597565 0
0.093330003 4.6601729 -0.11116786 0
-3.2305055 4.7382574 -0.18243912 0
0.092863999 4.7497382 -0.12533429 0
0.092398003 4.8393035 -0.13950072 0
0.091931999 4.9288692 -0.15366714 0
0.091466002 5.0184345 -0.16783357 0
0.090999998 5.1079998 -0.182 0
-3.382 -3.4460001 -0.078000002 0
-3.0444999 -3.4075 -0.046000004 0
-2.9438202 -3.4588559 -0.063234501 0
-2.8735888 -3.4105046 -0.0062262528 0
-3.3200107 -3.3831625 -0.076627314 0
-3.2569966 -3.3192461 -0.075424477 0
-3.044421 -3.3694692 -0.082501478 0
-2.9690976 -3.3224196 -0.049036853 0
-2.8666325 -3.3497272 -0.099403098 0
-3.1904738 -3.2589073 -0.03987211 0
-3.1266317 -3.1965432 -0.027162813 0
-3.0627897 -3.1341789 -0.014453515 0
-2.9989476 -3.0718148 -0.0017442182 0
3.3877654 -2.2295129 -0.08455278 0
3.4613826 -2.2812564 -0.096776389 0
3.2405305 -2.1260257 -0.060105555 0
3.3141479 -2.1777692 -0.072329164 0
1.3644037 -2.01056 -0.081360221 0
1.4150528 -2.0841701 -0.094770171 0
3.0932958 -2.0225387 -0.035658337 0
3.166913 -2.0742822 -0.047881946 0
1.3137547 -1.9369502 -0.067950286 0
2.9460609 -1.9190515 -0.011211112 0
3.0196784 -1.9707952 -0.023434721 0
1.2631056 -1.8633401 -0.054540344 0
0.57600671 -1.7189975 -0.085747682 0
0.60300505 -1.7942481 -0.09781076 0
1.1618075 -1.7161202 -0.027720459 0
1.2124566 -1.7897302 -0.041130401 0
0.54600418 -1.6353734 -0.072342306 0
0.86388463 -1.6278903 -0.0013153609 0
1.1111584 -1.6425102 -0.014310509 0
3.0944819 -1.622838 -0.010989368 0
0.64600003 -1.569 -0.0040000002 0
0.82300001 -1.552 -0.0099999998 0
1.0605094 -1.5689003 -0.00090056658 0
2.9378614 -1.5388784 -0.042742021 0
3.0161717 -1.5808582 -0.026865691 0
2.7420859 -1.4339291 -0.082432851 0
2.8595512 -1.4968987 -0.058618352 0
3.3444753 -1.4119757 -0.027202018 0
3.4272847 -1.4463477 -0.013602272 0
3.5100942 -1.4807197 -2.5182962e-06 0
3.0960472 -1.3088598 -0.068001263 0
3.1788566 -1.3432318 -0.054401517 0
3.2616661 -1.3776038 -0.040801764 0
2.9304283 -1.2401159 -0.095200762 0
3.0132377 -1.2744879 -0.081601009 0
4.3251333 1.0343789 -0.098712601 0
4.1833148 1.1033422 -0.099837363 0
4.257 1.122 -0.097000003 0
4.1394544 1.2979134 -0.09744674 0
4.1500001 1.301 -0.097000003 0
-0.16122752 3.3545358 -0.093730263 0
-0.16447303 3.4434431 -0.07907632 0
-4.1455622 3.5974991 -0.094529532 0
-0.16771853 3.5323501 -0.064422376 0
-4.2137856 3.6528561 -0.079176605 0
-0.17096403 3.6212573 -0.049768433 0
-4.2905045 3.7151065 -0.061911844 0
-4.1340942 3.7436292 -0.090613686 0
-0.1758323 3.7546179 -0.027787521 0
-4.244 3.848 -0.068000004 0
-4.1991048 3.8053658 -0.077237427 0
-4.0456905 3.8351789 -0.08856947 0
-0.178 3.8139999 -0.018000007 0
-4.1110001 3.9000001 -0.075000003 0
-0.81903982 4.0656147 -0.088934287 0
-0.8385942 4.1689939 -0.071105309 0
0.096000001 4.1469998 -0.030000001 0
-2.8650551 4.2402415 -0.074057914 0
-0.15172052 4.247911 -0.091460943 0
0.095660008 4.2123461 -0.04033573 0
-2.9500659 4.3560896 -0.099269502 0
-0.153 4.3509998 -0.072999999 0
0.09496101 4.346694 -0.06158537 0
0.094262004 4.4810424 -0.082835019 0
0.093796007 4.5706077 -0.097001441 0
5.506 4.5380001 -0.0070000002 0
-0.49176833 4.6488953 -0.093704037 0
-0.50242686 4.7535529 -0.080891132 0
-2.8141775 -3.3440094 0.0095474944 0
0.57300001 -3.3299999 0.0060000001 0
0.73500001 -3.348 0.016000001 0
-2.9009757 -3.2794001 0.0090774409 0
-2.8484635 -3.2176001 0.022116166 0
-2.7547662 -3.277514 0.025321238 0
-2.6953549 -3.2110188 0.041094989 0
0.55747896 -3.2485144 0.018125834 0
0.63999999 -3.2650001 0.011 0
0.71576047 -3.265111 0.024679488 0
-2.7959516 -3.1558001 0.035154883 0
-2.6359434 -3.1445234 0.056868732 0
0.54195786 -3.1670287 0.030251667 0
0.64236134 -3.1584618 0.024009844 0
-2.9351056 -3.0094504 0.010965079 0
-2.7277198 -3.0755 0.052096799 0
-2.5468264 -3.0447805 0.080529347 0
0.5426386 -3.0392544 0.041517135 0
0.66766167 -3.0578883 0.046378206 0
-2.8712635 -2.9470863 0.023674376 0
0.49539468 -2.9225719 0.066629171 0
0.57408422 -2.9492173 0.03322741 0
0.63880235 -2.9335546 0.059397437 0
-2.8074214 -2.884722 0.036383681 0
-2.7387896 -2.8176789 0.050046496 0
0.4784368 -2.8335433 0.079877496 0
0.5558027 -2.8616357 0.039392129 0
0.6195628 -2.8506653 0.068076923 0
0.602 -2.7750001 0.075999998 0
0.875 -2.1159999 0.057999998 0
1.1289999 -2.1199999 0.055 0
0.84334767 -2.0403938 0.049430378 0
1.0683076 -2.0073423 0.042107835 0
1.1091923 -2.0832326 0.050792471 0
0.8104564 -1.9618281 0.040525313 0
1.020254 -1.93216 0.042341877 0
1.493 -1.9170001 0.0089999996 0
1.627 -1.905 0.011 0
0.76111948 -1.8439797 0.027167723 0
0.97490478 -1.844692 0.02981025 0
1.387 -1.801 0.028000001 0
1.4314392 -1.8496317 0.020034473 0
1.5681015 -1.8461018 0.023443306 0
1.6674967 -1.8687724 0.016962811 0
1.8660001 -1.8200001 0.021 0
2.7988262 -1.8155644 0.013236105 0
2.8724437 -1.867308 0.0010124967 0
2.9271264 -1.8305683 0.017778179 0
3.036 -1.8494999 0.0039999997 0
0.71178257 -1.7261313 0.013810126 0
0.92487544 -1.7483562 0.016528219 0
1.5463222 -1.7489079 0.040542707 0
1.7497118 -1.7252467 0.04684183 0
1.8172117 -1.7802466 0.031841829 0
2.0803032 -1.7016889 0.04053935 0
2.1610758 -1.7649221 0.024384838 0
2.3925881 -1.708234 0.03516721 0
2.447 -1.752 0.026000001 0
2.5532508 -1.7404718 0.031768657 0
2.6640313 -1.7276415 0.037204899 0
2.7611473 -1.7474102 0.030971527 0
2.8566265 -1.7690684 0.027278179 0
2.9582982 -1.7439678 0.027669329 0
3.0703511 -1.7035536 0.038463727 0
3.145 -1.742 0.025 0
3.2650344 -1.7142658 0.023587765 0
0.6788913 -1.6475656 0.0049050632 0
0.86560166 -1.6533084 0.013080729 0
2.0197275 -1.6542666 0.052654516 0
2.2733822 -1.6123509 0.055250816 0
2.3613403 -1.6486497 0.054973178 0
2.4530637 -1.6382266 0.064447112 0
2.559078 -1.6641035 0.057012249 0
2.6663387 -1.6300272 0.06441427 0
2.7464373 -1.6620812 0.055637639 0
2.8470664 -1.6837411 0.048668146 0
2.9583778 -1.645884 0.058659311 0
3.1556554 -1.6512347 0.023799066 0
3.2052593 -1.6778259 0.03385558 0
0.80699998 -1.545 -9.832824e-14 0
1.0420001 -1.5420001 0.0039999932 0
2.2387536 -1.5398595 0.094843283 0
2.3505807 -1.5739913 0.084586874 0
2.4898849 -1.5519788 0.094447255 0
2.5728793 -1.5852052 0.071334541 0
2.6176822 -1.5707726 0.079845935 0
2.7367585 -1.5696065 0.085477263 0
2.8464046 -1.5882144 0.078854896 0
2.9630001 -1.5319999 0.066 0
3.0384073 -1.5773907 0.055994533 0
3.5710001 -1.506 0.010000005 0
4.8189135 3.9355686 0.077655412 0
4.8974438 4.0044231 0.067979738 0
4.9650612 4.0637097 0.059648655 0
5.0326786 4.1229959 0.051317576 0
5.1002955 4.1822824 0.042986494 0
5.167913 4.2415686 0.034655411 0
5.2355304 4.3008547 0.026324328 0
5.3031478 4.3601413 0.017993245 0
5.3707652 4.4194274 0.0096621634 0
5.4383826 4.478714 0.0013310816 0
-2.4577096 -2.9450374 0.10418998 0
-2.3685927 -2.8452945 0.12785059 0
-2.3039999 -2.773 0.145 0
2.326 -1.523 0.10100001 0
2.424 -1.51 0.106 0
2.5336325 -1.5190912 0.10710999 0
2.6971068 -1.5113215 0.10578234 0
2.5339999 -1.499 0.11 0
2.6459999 -1.485 0.115 0
