# .PCD v0.7 - Point Cloud Data file format
VERSION 0.7
FIELDS x y z intensity
SIZE 4 4 4 4
TYPE F F F F
COUNT 1 1 1 1
WIDTH 62
HEIGHT 1
VIEWPOINT 0 0 0 1 0 0 0
POINTS 62
DATA ascii
-16.968792 18.506433 10.908944 16
-10.123072 23.107117 15.420361 20
-4.1080189 24.000376 10.469923 16
-3.9554334 24.0527 14.780911 20
-3.0032547 -0.99690944 0.065674379 4
-2.9760394 -0.92297006 0.37163684 7
-2.8734944 -0.93122905 0.46611854 8.5
-2.8410637 -0.95134109 0.75062025 11
-2.5349536 10.908028 3.40606 12
-1.8991528 -1.2976284 0.27257383 7
-1.6708173 -1.2490808 0.20750242 6
-1.4544526 4.0251489 0.50817186 7
-1.4636477 4.0112305 0.69017452 8
-1.2194613 -1.111379 0.63533819 15
-1.0871191 -1.0937231 0.16829889 7
-1.1012496 -1.0792615 0.33379546 9.5
-1.1948863 -1.1247227 0.51133865 13
-0.98078603 -1.0652024 0.14825991 6
-0.96289504 -1.0421706 0.53124475 14
-0.70672512 -0.97521639 0.26364666 9.5
-0.65079671 10.814813 2.954046 11
-0.54510105 -0.93899047 0.12908408 6.5
-0.33286875 10.827548 3.1270437 12
-0.036401656 4.4951935 0.15409119 4
0.33434996 4.4076891 0.17111541 4
0.30075625 -1.220032 0.3415249 12
0.22205365 -1.2275814 0.46801692 15
0.53180045 -1.1356052 0.29204959 11
0.48041502 -1.1576071 0.40204477 13
0.6247068 -1.1367462 0.24905337 9.5
0.78896481 -1.0671885 0.69206321 19
0.94056368 -1.0105305 0.72906798 19
0.89890414 24.863495 15.312731 20
1.3033885 -0.99033779 0.17357002 6.5
1.5650476 10.901338 2.9240551 11
2.1454194 5.4901199 0.89100063 8
2.3564038 5.3927283 0.28802747 5
2.2189031 5.433547 0.81501383 7
2.342802 5.4170704 1.5610226 11
2.3769505 5.3918118 1.6970285 12
2.4536724 5.3199449 0.46404499 6
2.7778966 3.998332 0.75130129 8
2.6454515 4.2284102 2.2652521 16
2.9780543 21.664408 8.9632797 15
3.0435889 -1.6459399 0.35058102 6.5
3.0584683 -1.6493974 0.53608114 8
3.3325093 -1.030817 0.29906961 6
3.2623417 -1.0148294 0.51506889 8
3.2152743 21.703922 9.6372766 16
3.4535222 4.0011516 0.29633287 5
3.7885756 1.5042167 0.73478752 9
3.7729223 1.6348076 1.2857661 12
3.8421566 1.6130067 0.18077108 5
3.8238497 1.6559236 0.68176377 8
3.8342566 1.4203944 1.0548016 11
5.130249 22.108582 10.172249 16
15.61314 -10.583869 10.50211 19
20.215546 2.7869554 1.4617113 5
31.585161 19.702509 10.914471 12
31.936457 19.219223 5.9665542 8
32.578026 18.517397 16.943672 16
34.624821 15.934903 17.177095 16
