# .PCD v0.7 - Point Cloud Data file format
VERSION 0.7
FIELDS x y z intensity
SIZE 4 4 4 4
TYPE F F F F
COUNT 1 1 1 1
WIDTH 1247
HEIGHT 1
VIEWPOINT 0 0 0 1 0 0 0
POINTS 1247
DATA ascii
-2.187 0.26499999 -0.20299999 0
-2.1559999 0.36500001 -0.20299999 0
-3.8269999 0.676 -0.213 0
-3.7672391 0.67002392 -0.21257314 0
-3.6571195 0.65901196 -0.21178657 0
-3.5469999 0.648 -0.211 0
-3.7133467 0.83890855 -0.2110098 0
-3.6464622 0.82954472 -0.21201307 0
-3.5440769 0.84313202 -0.21334977 0
-3.471 0.88599998 -0.214 0
-3.652667 0.91887313 -0.21140476 0
-3.6100116 1.0952315 -0.21946812 0
-3.5390058 1.0766157 -0.21973406 0
-3.4679999 1.058 -0.22 0
-3.7349999 1.128 -0.219 0
-3.6810174 1.1138473 -0.21920218 0
-3.3611398 1.1963035 -0.21522929 0
-3.2880001 1.1720001 -0.215 0
-3.6070001 1.278 -0.21600001 0
-3.5439889 1.2570622 -0.21580248 0
-3.4342794 1.2206069 -0.21545856 0
-3.3574033 1.2843635 -0.22046244 0
-3.5542095 1.3550909 -0.21738735 0
-3.4606125 1.3214545 -0.21884979 0
-3.1371312 1.3696893 -0.21190302 0
-3.062 1.337 -0.211 0
-3.3625247 1.4677572 -0.21461208 0
-3.2498279 1.4187232 -0.21325755 0
-3.0100627 1.4854968 -0.20108804 0
-3.457828 1.5092232 -0.21575755 0
-3.1650939 1.5627451 -0.20563208 0
-3.0875783 1.5241209 -0.20336005 0
-3.2613049 1.6106846 -0.20845205 0
-2.2795608 2.6499352 -0.20090431 0
-2.1633868 2.6413972 -0.20095015 0
-1.9781799 2.6647668 -0.20065305 0
-1.7704892 2.6446903 -0.20031141 0
-2.2306592 2.7218318 -0.20275009 0
-2.0329199 2.7364478 -0.20231777 0
-1.8471727 2.7548242 -0.20267817 0
-2.1482 2.8874049 -0.2058236 0
-2.0876598 2.8081288 -0.2039825 0
-1.9238561 2.8649578 -0.20504494 0
-1.6908175 2.8375747 -0.20120127 0
-1.9749784 2.9383805 -0.20662279 0
-1.7414107 2.9638526 -0.20402087 0
-1.663089 2.9085526 -0.20161609 0
-2.0390503 3.0304017 -0.20860033 0
-1.824508 3.0695198 -0.20732205 0
-1.7547247 3.0603735 -0.20546253 0
-1.5590008 3.049149 -0.20003849 0
-1.8508712 3.1513729 -0.20891602 0
-1.600801 3.1249788 -0.20164619 0
-1.839 3.2 -0.20900001 0
-1.6523006 3.2184043 -0.20362695 0
1.24 4.3990002 -0.215 0
1.2641962 4.4857106 -0.20492613 0
-1.8444127 -2.7595344 -0.15547949 0
-1.7583916 -2.7049427 -0.15642819 0
-1.303834 -2.7823319 -0.1490048 0
-1.2682867 -2.7009978 -0.14915109 0
-1.0646381 -2.7487993 -0.14702529 0
-0.92400002 -2.7609999 -0.146 0
-0.8499459 -2.7461007 -0.14501584 0
-2.006 -2.664 -0.155 0
-1.9915578 -2.6444795 -0.155 0
-1.8111778 -2.6368017 -0.154 0
-1.7107642 -2.6312366 -0.15593845 0
-1.2339056 -2.6223314 -0.14929257 0
-1.0305223 -2.6520846 -0.14718622 0
-0.90144712 -2.6854279 -0.14619783 0
-0.85283095 -2.6351609 -0.14587906 0
-1.9384959 -2.5727596 -0.155 0
-1.8854339 -2.5010395 -0.155 0
-1.7607238 -2.564116 -0.154 0
-1.6631368 -2.5575304 -0.1554487 0
-1.3894007 -2.5057161 -0.15791479 0
-1.1995244 -2.5436652 -0.14943406 0
-1.0017687 -2.5705705 -0.14732185 0
-0.83049238 -2.5565076 -0.14614336 0
-0.78344595 -2.5001006 -0.14601585 0
-0.42057943 -2.5076818 -0.14098443 0
-0.017000001 -2.5009999 -0.13500001 0
0.097999997 -2.5109999 -0.132 0
0.156 -2.5109999 -0.131 0
-2.0109999 -2.418 -0.145 0
-1.832372 -2.4293196 -0.155 0
-1.7102699 -2.4914298 -0.154 0
-1.6376626 -2.4512842 -0.15447947 0
-1.5678821 -2.4101181 -0.15446922 0
-1.3512411 -2.4281459 -0.15666364 0
-1.1651434 -2.464999 -0.14957555 0
-0.95863807 -2.4482994 -0.1475253 0
-0.83286178 -2.4556069 -0.14679946 0
-0.76163059 -2.4194005 -0.1463439 0
-0.55504018 -2.4526927 -0.14156587 0
-0.40883827 -2.4277787 -0.13439636 0
-0.3536495 -2.4162567 -0.14002022 0
-0.26333335 -2.4360001 -0.13933332 0
-0.17394421 -2.4615214 -0.13782325 0
-0.051583223 -2.4486425 -0.13304693 0
0.080520116 -2.4356444 -0.13319415 0
0.1516289 -2.4631362 -0.13143711 0
0.38300002 -2.4299998 -0.12800001 0
0.428 -2.431 -0.126 0
0.55356783 -2.4346638 -0.12376861 0
0.62099999 -2.4389999 -0.123 0
0.71899998 -2.461 -0.121 0
-1.9643021 -2.358911 -0.14643371 0
-1.77931 -2.3575997 -0.155 0
-1.6093619 -2.3460579 -0.154 0
-1.5202547 -2.3364122 -0.15397948 0
-1.3156809 -2.3558593 -0.15549773 0
-1.1307622 -2.3863325 -0.14971703 0
-1.0963812 -2.3076663 -0.14985852 0
-0.91550744 -2.3260283 -0.14772874 0
-0.81 -2.3789999 -0.147 0
-0.73981529 -2.3387001 -0.14667195 0
-0.53686988 -2.3449349 -0.13347112 0
-0.40257943 -2.3656821 -0.14031775 0
-0.35858002 -2.3316908 -0.12712808 0
-0.24997167 -2.3485148 -0.13240403 0
-0.15351881 -2.3562868 -0.12304638 0
-0.04578197 -2.3378134 -0.12770681 0
0.035315387 -2.3458719 -0.13155496 0
0.14484398 -2.3396142 -0.13191666 0
0.24699999 -2.3410001 -0.13 0
0.35693154 -2.3548636 -0.12496731 0
0.45485336 -2.3391199 -0.12390327 0
0.54893696 -2.3417773 -0.11966904 0
0.68695307 -2.3542247 -0.12301192 0
0.75309497 -2.3491471 -0.12152869 0
-2.1619701 -2.2599754 -0.14763251 0
-1.8824416 -2.2553287 -0.14894696 0
-1.7262479 -2.2858799 -0.155 0
-1.6731859 -2.2141597 -0.155 0
-1.5336809 -2.2370291 -0.154 0
-1.4726273 -2.262706 -0.15348974 0
-1.387 -2.244 -0.15099999 0
-1.2623403 -2.2474296 -0.15374887 0
-1.062 -2.2290001 -0.15000001 0
-0.88675374 -2.2445142 -0.14786437 0
-0.71799999 -2.2579999 -0.147 0
-0.54598492 -2.2609813 -0.12068653 0
-0.4860459 -2.2392294 -0.12317061 0
-0.3580035 -2.2590456 -0.12363765 0
-0.24398796 -2.2497642 -0.12081522 0
-0.17683116 -2.2771573 -0.12523955 0
-0.03782396 -2.2472136 -0.13725738 0
0.04496843 -2.2559593 -0.12615852 0
0.14302196 -2.2541714 -0.1280127 0
0.24972787 -2.2447274 -0.12013827 0
0.35208705 -2.2361042 -0.1149684 0
0.45557457 -2.2395673 -0.11915419 0
0.52483732 -2.2440882 -0.11953796 0
0.6647464 -2.2269156 -0.11684415 0
0.74179381 -2.2591016 -0.11708623 0
0.83200002 -2.2479999 -0.122 0
0.9218955 -2.2403734 -0.1065551 0
-2.0453889 -2.13446 -0.15046531 0
-1.827868 -2.1862738 -0.15062247 0
-1.7732944 -2.1172192 -0.15229797 0
-1.620124 -2.1424398 -0.155 0
-1.4469999 -2.1483333 -0.15366666 0
-1.3328528 -2.1606853 -0.15189746 0
-1.209 -2.1389999 -0.152 0
-0.85799998 -2.1630001 -0.148 0
-0.53799999 -2.198 -0.145 0
-0.47436112 -2.1658266 -0.14469294 0
-0.32237938 -2.1715081 -0.14182428 0
-0.22073413 -2.1549854 -0.14056554 0
-0.16934711 -2.1432607 -0.13978663 0
-0.071999997 -2.181 -0.139 0
0.15504625 -2.142411 -0.11411695 0
0.23947953 -2.1509345 -0.11745314 0
0.35109207 -2.1528451 -0.12919708 0
0.45711428 -2.1471756 -0.12792103 0
0.54024333 -2.1656871 -0.12207793 0
0.63384783 -2.150526 -0.1260238 0
0.74498707 -2.1228423 -0.12477779 0
0.86926782 -2.1444204 -0.11990429 0
4.255744 -2.124208 -0.12085418 0
4.3558593 -2.16202 -0.11913545 0
4.4219999 -2.187 -0.118 0
-1.9548376 -2.0369692 -0.15266563 0
-1.7187208 -2.0481644 -0.15397348 0
-1.567062 -2.07072 -0.155 0
-1.4121509 -2.0625525 -0.1547192 0
-1.2618099 -2.0513732 -0.15307496 0
-0.45824075 -2.0818844 -0.14512862 0
-0.30709484 -2.051877 -0.14270607 0
-0.214 -2.0769999 -0.141 0
0.15000001 -2.0880001 -0.134 0
0.27415562 -2.0618556 -0.13194767 0
0.38310316 -2.0281696 -0.13143532 0
0.47434989 -2.0607255 -0.12851487 0
0.57630038 -2.0578804 -0.12761706 0
0.66339254 -2.0587151 -0.12708583 0
0.74525201 -2.0187116 -0.12667936 0
0.85249841 -2.0392973 -0.12041784 0
4.1890001 -2.099 -0.122 0
-1.8642864 -1.9394784 -0.15486594 0
-1.6368604 -1.9445822 -0.15648673 0
-1.5140001 -1.999 -0.155 0
-1.3347924 -1.9521272 -0.15593266 0
-1.214448 -1.9784987 -0.15385997 0
-1.167086 -1.905624 -0.15464498 0
-0.43406019 -1.9559711 -0.14578216 0
0.257 -1.973 -0.134 0
0.36855158 -1.9450848 -0.13221766 0
0.43569061 -1.9471499 -0.13091823 0
0.53072852 -1.9559032 -0.1303639 0
0.63642132 -1.9555525 -0.1290091 0
0.70770079 -1.9390845 -0.12767175 0
0.81485009 -1.9470162 -0.12595162 0
-2 -1.823 -0.126 0
-1.773735 -1.8419877 -0.15706624 0
-1.5549999 -1.841 -0.15899999 0
-1.2574339 -1.8417017 -0.15714614 0
-1.1197239 -1.8327494 -0.15542999 0
0.3725 -1.842 -0.133 0
0.46226931 -1.8452855 -0.13218367 0
0.55033332 -1.8459746 -0.13228853 0
0.65073729 -1.8561997 -0.12718056 0
0.7842555 -1.8724692 -0.12775174 0
0.81599998 -1.847 -0.12800001 0
-1.9309616 -1.7536991 -0.13597512 0
-1.8927143 -1.7403058 -0.1057812 0
-1.7133676 -1.7769939 -0.15853313 0
-1.653 -1.712 -0.16 0
-1.2058616 -1.7680848 -0.15795511 0
-1.0723619 -1.7598747 -0.156215 0
-0.99299997 -1.726 -0.156 0
0.46099997 -1.7493334 -0.134 0
0.570894 -1.7477278 -0.13329358 0
0.64585519 -1.7740216 -0.11976688 0
0.75266433 -1.7550529 -0.12738058 0
1.9672786 -1.7453464 -0.13865572 0
2.0020001 -1.72 -0.14 0
-2.2473478 -1.6246207 -0.11153716 0
-1.8391033 -1.6785506 -0.13260537 0
-1.7802231 -1.6240059 -0.14233081 0
-1.603996 -1.662549 -0.16062596 0
-1.1285031 -1.6576593 -0.15916857 0
-1.0273635 -1.6557446 -0.15719417 0
-0.9554317 -1.6583771 -0.15720218 0
0.56 -1.6466666 -0.13500001 0
0.65498912 -1.6621385 -0.13410586 0
0.72438538 -1.6432146 -0.10490602 0
1.8486643 -1.6405473 -0.12977152 0
1.930541 -1.6574974 -0.13355467 0
2.0387855 -1.6424999 -0.14195366 0
-3.507 -1.554 -0.19 0
-3.4258447 -1.5173334 -0.17552891 0
-2.1627393 -1.5664926 -0.1210637 0
-2.0917826 -1.5177438 -0.12905309 0
-1.9663836 -1.5698396 -0.11054963 0
-1.7237811 -1.5596614 -0.1580811 0
-1.6433429 -1.5264612 -0.15155624 0
-1.5416216 -1.5996053 -0.16142271 0
-1.4792471 -1.5366617 -0.16221946 0
-1.1226822 -1.5313987 -0.1607389 0
-1.0731903 -1.5455568 -0.16036618 0
-0.94987947 -1.559099 -0.15875411 0
-0.86799997 -1.501 -0.16 0
0.65399998 -1.553 -0.13699999 0
1.5760728 -1.5108347 -0.13515428 0
1.6508 -1.5605997 -0.13112971 0
1.7771282 -1.5499563 -0.12629147 0
1.8637064 -1.563073 -0.14028174 0
1.9587369 -1.5648389 -0.14211771 0
2.0586839 -1.5662608 -0.14426054 0
2.1010001 -1.559 -0.145 0
-3.3446891 -1.4806668 -0.16105783 0
-3.2635338 -1.4440002 -0.14658673 0
-3.1823783 -1.4073336 -0.13211565 0
-2.0208261 -1.4689951 -0.13704246 0
-1.9498696 -1.4202464 -0.14503185 0
-1.8368797 -1.4739109 -0.13563868 0
-1.7678047 -1.434934 -0.16222222 0
-1.6511991 -1.4862695 -0.16484326 0
-1.5839796 -1.4524078 -0.16423731 0
-1.4168725 -1.4737182 -0.16301623 0
-1.354498 -1.4107745 -0.16381298 0
-1.223 -1.4170001 -0.16500001 0
-1.1593397 -1.4515193 -0.16276333 0
-1.0504224 -1.4530033 -0.16172048 0
-0.95961517 -1.4659649 -0.16067541 0
-0.89600003 -1.467 -0.16 0
1.4600242 -1.4056116 -0.13905142 0
1.5287246 -1.4658138 -0.12352173 0
1.6328087 -1.4349036 -0.13918275 0
1.7515866 -1.4576718 -0.14001063 0
1.8394037 -1.4297148 -0.14334714 0
1.9426776 -1.4659659 -0.14341968 0
2.0515361 -1.4486947 -0.14507189 0
2.1336319 -1.4553632 -0.14727691 0
2.4571445 -1.408742 -0.13591523 0
2.5179999 -1.4450001 -0.133 0
-3.553 -1.3660001 -0.17399999 0
-3.4729357 -1.3331252 -0.15883632 0
-3.3928716 -1.3002503 -0.14367265 0
-3.101223 -1.370667 -0.11764456 0
-3.0200675 -1.3340003 -0.10317347 0
-1.8434348 -1.3471231 -0.15701592 0
-1.7038853 -1.3915313 -0.16684268 0
-1.6560541 -1.3471124 -0.16723707 0
-1.5227194 -1.3773617 -0.16610596 0
-1.4584796 -1.3229078 -0.1667373 0
-1.2422435 -1.368543 -0.16495793 0
-1.1564213 -1.3381199 -0.16488652 0
-1.053907 -1.3414695 -0.16398448 0
-0.97399998 -1.367 -0.16266666 0
1.4399002 -1.3448563 -0.13905907 0
1.575421 -1.354062 -0.13905345 0
1.6803896 -1.3414383 -0.14101756 0
1.7746565 -1.3498242 -0.14222649 0
1.8609736 -1.3508075 -0.14241873 0
1.9597728 -1.3482137 -0.14526105 0
2.0514064 -1.3739805 -0.14734764 0
2.3547153 -1.3477137 -0.14082202 0
2.5644028 -1.3164325 -0.13625099 0
2.8656893 -1.3027575 -0.14736436 0
2.9300001 -1.3329999 -0.147 0
-3.3128073 -1.2673755 -0.12850897 0
-3.232743 -1.2345006 -0.1133453 0
-2.0190001 -1.28 -0.17200001 0
-1.9618988 -1.2444942 -0.17207685 0
-1.737 -1.274 -0.169 0
-1.5369427 -1.2632656 -0.16842134 0
-1.3621199 -1.2412269 -0.16768432 0
-1.2297491 -1.2848873 -0.16540648 0
-1.1381083 -1.2521303 -0.16587019 0
-1.0535001 -1.245 -0.16500001 0
1.4326432 -1.2575339 -0.13930221 0
1.5344537 -1.252026 -0.14078055 0
1.6326429 -1.241606 -0.14120948 0
1.7437958 -1.2570465 -0.14102472 0
1.8279376 -1.2206537 -0.14589843 0
1.9024272 -1.2717626 -0.1463815 0
2.184 -1.2460001 -0.149 0
2.2522862 -1.2866855 -0.14572881 0
2.451364 -1.2553055 -0.14055139 0
2.7453725 -1.2461779 -0.14804605 0
2.8369999 -1.214 -0.15000001 0
-1.8475823 -1.1734118 -0.17223072 0
-1.7332659 -1.1023295 -0.17238458 0
-1.4367771 -1.1863062 -0.16936854 0
-1.37 -1.135 -0.17 0
-1.105 -1.159 -0.167 0
-1.09 -1.198 -0.167 0
1.3518215 -1.1477671 -0.14190111 0
1.4794194 -1.1555918 -0.13946164 0
1.5729947 -1.1469615 -0.13888374 0
1.6655841 -1.1458105 -0.14240906 0
1.753448 -1.1695447 -0.14541537 0
2.2384806 -1.1401865 -0.1486502 0
2.3449223 -1.197746 -0.14460079 0
2.4646335 -1.1141591 -0.14963663 0
2.5448446 -1.1518787 -0.14918219 0
2.6264584 -1.1544404 -0.14970955 0
2.7466192 -1.1730672 -0.15029879 0
-2.6099999 -1.086 -0.14 0
-2.5361965 -1.0553722 -0.14539695 0
-2.4573305 -1.0226436 -0.15116413 0
-1.6570549 -1.0549413 -0.17248714 0
-1.5808439 -1.007553 -0.1725897 0
1.345 -1.035 -0.142 0
1.4156291 -1.0913877 -0.14219245 0
1.5184896 -1.0446088 -0.14098307 0
1.6044688 -1.0673268 -0.14444922 0
2.224 -1.001 -0.15099999 0
2.3596592 -1.0422907 -0.1507044 0
2.4695165 -1.0475695 -0.15121482 0
2.5486889 -1.083426 -0.1509531 0
-2.3784645 -0.98991483 -0.15693131 0
-2.2601652 -0.94082177 -0.16558206 0
-1.5046329 -0.96016479 -0.17269228 0
-1.428422 -0.91277653 -0.17279485 0
1.381 -0.91399997 -0.14300001 0
1.4554896 -0.96510893 -0.14348307 0
2.2320001 -0.94 -0.152 0
2.3111722 -0.97585648 -0.15173827 0
2.4672816 -0.91495204 -0.1426392 0
2.5621877 -0.95530128 -0.1380928 0
-2.141866 -0.89172876 -0.17423283 0
-2.063 -0.85900003 -0.18000001 0
-1.9441016 -0.81697035 -0.17886922 0
-1.352211 -0.86538827 -0.17289743 0
-1.276 -0.81800002 -0.17299999 0
1.9576995 -0.80368686 -0.1416564 0
2.0611582 -0.84490061 -0.14029956 0
2.1497478 -0.84333301 -0.15202358 0
2.2494998 -0.85300004 -0.153 0
2.3591409 -0.868976 -0.14781961 0
-2.3295646 -0.79817325 -0.18698084 0
-2.2428923 -0.76875246 -0.18629929 0
-2.1586556 -0.74015838 -0.18563688 0
-2.0417097 -0.72328216 -0.18298723 0
-1.9749656 -0.72277242 -0.18105634 0
-1.8367456 -0.77294922 -0.17834723 0
-1.7562879 -0.73995763 -0.17795603 0
-1.6758304 -0.7069661 -0.17756481 0
1.7561581 -0.72340059 -0.14429957 0
1.8679085 -0.74870765 -0.1459226 0
1.9547986 -0.7307204 -0.1462789 0
2.0375152 -0.76184046 -0.14624205 0
2.1206894 -0.73602062 -0.14670378 0
2.2425253 -0.7593357 -0.15366673 0
-2.046 -0.64099997 -0.184 0
-1.9550943 -0.65150464 -0.18375473 0
-1.8424567 -0.66118914 -0.18183477 0
-1.7306947 -0.63501281 -0.18146077 0
-1.649271 -0.60575962 -0.18159558 0
-1.5551441 -0.65747881 -0.17697802 0
-1.4344575 -0.60799152 -0.1763912 0
1.4683505 -0.63408059 -0.14570527 0
1.5529066 -0.66353267 -0.14439146 0
1.6456558 -0.65302396 -0.14667232 0
1.7617115 -0.63626987 -0.14743632 0
1.8539788 -0.64939827 -0.14584322 0
1.9580338 -0.65978092 -0.15055566 0
2.042706 -0.68941104 -0.1514816 0
-2.060112 -0.57505465 -0.18498187 0
-1.9621779 -0.5318175 -0.18431167 0
-1.8474621 -0.55651236 -0.18273391 0
-1.7287959 -0.54603344 -0.18189 0
-1.6442943 -0.54111862 -0.18096745 0
-1.5684236 -0.55825323 -0.18136519 0
-1.4457119 -0.53262663 -0.1819326 0
-1.354 -0.57499999 -0.176 0
1.4584999 -0.54400003 -0.14649999 0
1.539035 -0.55395681 -0.14628409 0
1.6554445 -0.53414208 -0.14426424 0
1.7510164 -0.53657663 -0.14565527 0
1.8825197 -0.52557844 -0.14291592 0
1.9670236 -0.54889411 -0.1422991 0
2.0515275 -0.57220984 -0.14168228 0
2.1405158 -0.59676278 -0.14103273 0
-2.0592303 -0.463368 -0.18654668 0
-1.9536681 -0.44008884 -0.18687466 0
-1.8591934 -0.44181779 -0.18595618 0
-1.7584161 -0.44030792 -0.18419465 0
-1.6671127 -0.43970528 -0.18312119 0
-1.5662107 -0.45299673 -0.18084586 0
-1.4684505 -0.46188104 -0.1787575 0
-1.385 -0.43599999 -0.178 0
1.4660001 -0.44866669 -0.14666666 0
1.5485622 -0.45181867 -0.14602576 0
1.6231244 -0.47163734 -0.14455152 0
1.7135118 -0.47894704 -0.14414954 0
-1.8157989 -0.38742918 -0.18953058 0
-1.7358994 -0.3707146 -0.1902653 0
-1.6324999 -0.36949998 -0.18799999 0
-1.4511828 -0.38105702 -0.18125564 0
1.4825001 -0.35800001 -0.1485 0
1.5571393 -0.35627189 -0.14711405 0
1.6398189 -0.34989172 -0.14415565 0
1.709 -0.301 -0.14300001 0
2.0165462 -0.3136847 -0.1457697 0
2.1614552 -0.33707058 -0.14430808 0
2.4332027 -0.30172414 -0.14478041 0
2.5228531 -0.31206465 -0.14487797 0
2.6237516 -0.32370257 -0.14498776 0
1.485 -0.24650002 -0.1495 0
1.5630569 -0.25906068 -0.14832902 0
1.6520307 -0.25234041 -0.14562416 0
1.7297578 -0.23661411 -0.1454616 0
1.8482161 -0.25160381 -0.1452686 0
1.9575365 -0.2748794 -0.14546704 0
2.0746014 -0.26036209 -0.1443902 0
2.1642518 -0.2707026 -0.14448775 0
2.253902 -0.28104311 -0.14458531 0
2.3435526 -0.29138362 -0.14468285 0
1.472 -0.154 -0.1485 0
1.5400252 -0.16124436 -0.14913017 0
1.6461931 -0.14550948 -0.14662845 0
1.7170166 -0.15860525 -0.1451256 0
1.8519275 -0.14715263 -0.14514762 0
1.986855 -0.15630527 -0.14529525 0
2.0768068 -0.16240703 -0.14539365 0
2.1667585 -0.16850878 -0.14549208 0
2.2567101 -0.17461053 -0.14559048 0
2.3466618 -0.1807123 -0.14568891 0
2.4366136 -0.18681405 -0.14578731 0
2.5265653 -0.19291581 -0.14588574 0
2.6237586 -0.19950879 -0.14599207 0
1.473 -0.046999998 -0.15000001 0
1.5385611 -0.049510218 -0.15122339 0
1.6451902 -0.053941704 -0.14769199 0
1.716324 -0.05114124 -0.14583094 0
1.8544397 -0.038190126 -0.14630088 0
1.9893796 -0.039380249 -0.14660178 0
2.0793395 -0.040173668 -0.14680237 0
2.1692996 -0.040967084 -0.14700297 0
2.2592592 -0.041760501 -0.14720356 0
2.3492193 -0.042553917 -0.14740416 0
2.4391792 -0.043347336 -0.14760476 0
2.529139 -0.044140752 -0.14780535 0
2.617439 -0.05530056 -0.14799654 0
1.4785 0.076000005 -0.1525 0
1.5485332 0.078219496 -0.150841 0
1.6185664 0.080438986 -0.14918198 0
1.7106509 0.063813642 -0.1472609 0
-2.3493505 0.11148997 -0.19276506 0
-2.2178156 0.13410294 -0.19418883 0
-2.1705 0.134 -0.199 0
1.472 0.14750001 -0.15349999 0
1.5589814 0.16007949 -0.15097903 0
1.6705052 0.14421248 -0.1484412 0
1.7171344 0.11280718 -0.14895193 0
1.8175375 0.12722875 -0.15080772 0
1.9529407 0.13415033 -0.15066352 0
2.0883439 0.14107189 -0.15051934 0
2.1786127 0.14568627 -0.1504232 0
2.2688813 0.15030065 -0.15032707 0
2.3591502 0.15491502 -0.15023094 0
2.449419 0.1595294 -0.1501348 0
2.5578437 0.16507187 -0.15001935 0
-2.3561549 0.222883 -0.19305401 0
-2.2414346 0.23696671 -0.19580221 0
-2.1530001 0.20999999 -0.199 0
1.447 0.234 -0.153 0
1.5521979 0.2467646 -0.15123937 0
1.6567985 0.25350976 -0.15015958 0
1.750792 0.25879514 -0.1505321 0
1.8745842 0.27959025 -0.14906421 0
1.9571122 0.29345366 -0.14808562 0
-2.2320001 0.366 -0.19499999 0
-2.1990774 0.36556682 -0.19846553 0
-2.0396893 0.39148915 -0.18758152 0
-1.972 0.382 -0.186 0
-1.4715533 0.37911046 -0.18477775 0
-1.386 0.35499999 -0.184 0
1.431 0.303 -0.153 0
1.5350323 0.31952015 -0.15121403 0
1.631613 0.34940806 -0.15128562 0
1.7434137 0.36467209 -0.15127581 0
1.8676676 0.36964306 -0.14956282 0
1.9495567 0.38719076 -0.14875042 0
2.0396402 0.30731708 -0.14710703 0
2.127584 0.32209024 -0.14606422 0
-2.2717087 0.49049097 -0.19249195 0
-2.160315 0.42348301 -0.1902864 0
-2.0469441 0.46965143 -0.18762571 0
-1.9375 0.44749999 -0.185 0
-1.8565432 0.48760766 -0.18827766 0
-1.7282132 0.45144191 -0.18711103 0
-1.6426599 0.42733145 -0.18633327 0
-1.5571066 0.40322095 -0.18555552 0
1.414 0.48300001 -0.15700001 0
1.6436429 0.43119821 -0.15150805 0
1.7655981 0.48160192 -0.15134776 0
1.8639873 0.41504538 -0.15054046 0
1.9453166 0.43439385 -0.14972059 0
2.0290458 0.42924035 -0.14841938 0
2.1158621 0.4540754 -0.14764132 0
2.2018769 0.49185085 -0.14874893 0
2.4979999 0.461 -0.152 0
2.5826466 0.48032153 -0.1543659 0
2.6672933 0.49964306 -0.1567318 0
-2.1552358 0.5440284 -0.19081618 0
-2.0562115 0.57227194 -0.18929361 0
-1.954957 0.55403447 -0.18754227 0
1.391 0.55199999 -0.15700001 0
1.4858888 0.54878449 -0.1564185 0
1.5811701 0.55244941 -0.1544085 0
1.6643598 0.55858994 -0.15384214 0
1.7489078 0.56831527 -0.15269212 0
1.8371294 0.54943788 -0.1512799 0
1.9261962 0.52720386 -0.14969552 0
2.0688224 0.56770265 -0.14822817 0
2.1754706 0.59423089 -0.14878821 0
2.2877541 0.50870174 -0.14949785 0
2.373631 0.52555263 -0.15024678 0
2.4595079 0.54240346 -0.15099572 0
2.5453851 0.55925435 -0.15174463 0
2.6312623 0.57610524 -0.15249357 0
2.7345395 0.55596036 -0.1561701 0
2.8365867 0.53828609 -0.1614636 0
2.9212334 0.55760765 -0.16382951 0
3.0482035 0.58658993 -0.16737837 0
-2.1229973 0.61849499 -0.18977386 0
-1.9623945 0.67841125 -0.18667859 0
-1.855 0.667 -0.1855 0
1.3535 0.634 -0.15700001 0
1.433996 0.67153376 -0.15642756 0
1.5694407 0.65287578 -0.15452057 0
1.6474419 0.65880871 -0.15515676 0
1.7360554 0.64263791 -0.15467396 0
1.8227764 0.63637042 -0.15256368 0
1.946476 0.65804547 -0.15114503 0
2.0713615 0.67447293 -0.15003818 0
2.2599413 0.61446178 -0.14957644 0
2.3444118 0.63469273 -0.15036465 0
2.4288824 0.65492362 -0.15115286 0
2.5555882 0.68526995 -0.1523352 0
2.803508 0.60990351 -0.15399571 0
3.142 0.60799998 -0.17 0
-2.1040001 0.72600001 -0.189 0
-2.0690815 0.75168544 -0.18801476 0
-1.9541963 0.74605936 -0.18677394 0
-1.8405222 0.75299072 -0.18527246 0
-1.3284081 0.79899192 -0.18411674 0
-1.253 0.75300002 -0.184 0
1.2869999 0.78299999 -0.15700001 0
1.345017 0.73245192 -0.1556192 0
1.4748454 0.76044542 -0.15447554 0
1.5617175 0.7428124 -0.15485571 0
1.6255248 0.74268961 -0.15579095 0
1.7114571 0.75185746 -0.15440311 0
1.8326091 0.73533469 -0.15320219 0
1.9477911 0.77076578 -0.15370636 0
2.059 0.72500002 -0.15000001 0
2.1411326 0.75002146 -0.15084819 0
2.2232652 0.77504295 -0.15169637 0
2.4382882 0.75627905 -0.15424591 0
2.5441518 0.79611635 -0.15498364 0
2.6822941 0.71561629 -0.15351751 0
2.734 0.72799999 -0.154 0
-2.0412304 0.84537327 -0.18771011 0
-1.9252278 0.85190201 -0.18606994 0
-1.8485166 0.84289891 -0.18518998 0
-1.7593333 0.85333329 -0.18466668 0
-1.4415202 0.86797976 -0.18429182 0
-1.3030454 0.87232935 -0.185 0
-1.2155 0.85650003 -0.185 0
1.255 0.84899998 -0.15700001 0
1.3345288 0.85947794 -0.15868756 0
1.4067615 0.86485535 -0.15754937 0
1.5351011 0.83971143 -0.15371519 0
1.628691 0.8428908 -0.15295106 0
1.7634954 0.82224733 -0.15348648 0
1.8419956 0.85853696 -0.15268081 0
1.9409026 0.88134438 -0.15248276 0
2.0450895 0.81307954 -0.15239701 0
2.1562014 0.83905393 -0.15451826 0
2.2412238 0.87094879 -0.15424252 0
2.3312321 0.85578758 -0.15348433 0
2.4696629 0.85010731 -0.15424094 0
2.5517955 0.87512875 -0.15508911 0
2.6633439 0.84096909 -0.15581425 0
-2.0205002 0.94849998 -0.186 0
-1.9584428 0.94702333 -0.18570645 0
-1.8558484 0.93338203 -0.185266 0
-1.7462871 0.95075667 -0.18413624 0
-1.6605202 0.97847974 -0.18479183 0
-1.5546323 0.93696767 -0.18446693 0
-1.4491361 0.97098804 -0.185 0
-1.3591133 0.95833385 -0.185 0
-1.2637839 0.95925224 -0.185 0
-1.164 0.95300001 -0.184 0
1.239 0.95966667 -0.16133332 0
1.3527606 0.9446137 -0.15841645 0
1.4389973 0.94753039 -0.15711363 0
1.5135348 0.9564203 -0.15769443 0
1.6871684 0.92551911 -0.15219198 0
1.7632021 0.96842289 -0.15143037 0
1.8796823 0.92179108 -0.15065998 0
1.9560001 0.93199998 -0.14950001 0
2.0374427 0.90720743 -0.154944 0
2.1206231 0.94273335 -0.15456201 0
2.2299345 0.98941976 -0.15406001 0
2.3787394 0.9275744 -0.15368941 0
2.441479 0.95614886 -0.15337881 0
2.5111091 0.98786163 -0.15303412 0
2.6369641 0.90107512 -0.15596865 0
-1.9479078 1.0355133 -0.18527247 0
-1.8370471 1.0562506 -0.18511049 0
-1.7363113 1.0522605 -0.18484633 0
-1.656 1.034 -0.18450001 0
-1.5587041 1.044982 -0.185 0
-1.4127038 1.0475135 -0.185 0
-1.3388934 1.0588342 -0.18488117 0
-1.2260995 1.0272847 -0.18456015 0
-1.1567783 1.0442642 -0.18312117 0
1.165 1.063 -0.16 0
1.2368536 1.0482173 -0.16060215 0
1.3442686 1.0593522 -0.16092907 0
1.4474134 1.0332158 -0.15818578 0
1.594426 1.0284541 -0.15618515 0
1.6667825 1.0760677 -0.15498143 0
1.8392358 1.0113267 -0.15066877 0
1.906 1.049 -0.15000001 0
2.3382554 1.0421908 -0.15443695 0
2.4335108 1.0893815 -0.15487391 0
-1.9320195 1.1448734 -0.18589705 0
-1.8656218 1.1544993 -0.18521526 0
-1.7538471 1.1484033 -0.18476564 0
-1.6600459 1.145071 -0.185 0
-1.5577388 1.1574469 -0.18517907 0
-1.4601167 1.1372198 -0.18496136 0
-1.3467178 1.1562781 -0.18436265 0
-1.2597407 1.1347933 -0.1844949 0
-1.1495 1.1394999 -0.184 0
0.83899999 1.135 -0.16049999 0
0.90901428 1.1723621 -0.16 0
1.1412734 1.1462888 -0.16115433 0
1.2505871 1.141413 -0.16027164 0
1.3467004 1.1344125 -0.15890388 0
1.4178864 1.1606694 -0.15815699 0
1.5325556 1.1511087 -0.15668738 0
1.6218269 1.1594315 -0.15437157 0
1.7391391 1.1236812 -0.15377772 0
1.8287477 1.1826473 -0.15228701 0
2.461 1.103 -0.155 0
-1.962 1.2029999 -0.18700001 0
-1.8267876 1.2472115 -0.185 0
-1.7430484 1.2329149 -0.185 0
-1.6472781 1.2551165 -0.18529566 0
-1.5544146 1.2423842 -0.18499866 0
-1.4610348 1.2556311 -0.185 0
-1.3505174 1.2554587 -0.18465646 0
-1.2430085 1.2916116 -0.18327716 0
-1.1491817 1.2336451 -0.18375921 0
-1.0734999 1.26 -0.18450001 0
-0.96499997 1.2539999 -0.1825 0
0.75650001 1.2595 -0.163 0
0.84399372 1.2636988 -0.16126209 0
0.96002853 1.2407241 -0.16 0
1.0487499 1.24675 -0.16075 0
1.140347 1.2636044 -0.16035466 0
1.2359897 1.2353837 -0.15954955 0
1.3577472 1.2378634 -0.1576155 0
1.4390976 1.2504561 -0.15721555 0
1.5575491 1.258507 -0.15555915 0
1.6915923 1.2099178 -0.15284589 0
1.7686789 1.265702 -0.15116009 0
-2.7775156 1.3696241 -0.19427201 0
-2.7 1.331 -0.192 0
-1.7478813 1.3538858 -0.18550545 0
-1.6319039 1.3581421 -0.18540791 0
-1.5367247 1.3436074 -0.18499075 0
-1.4392219 1.327426 -0.1846059 0
-1.3030127 1.3534173 -0.18341573 0
-1.2332468 1.3657632 -0.18465872 0
-1.1298219 1.3249474 -0.18471034 0
-1.0411682 1.3387198 -0.18299402 0
-0.90499997 1.334 -0.182 0
0.68199998 1.3430001 -0.163 0
0.7735486 1.3559096 -0.16323918 0
0.86221617 1.354038 -0.1610484 0
0.95975566 1.3619949 -0.16066666 0
1.0552094 1.3557804 -0.1606444 0
1.1406718 1.3451674 -0.16037783 0
1.290152 1.361806 -0.160667 0
1.4862453 1.354439 -0.15602583 0
1.5631583 1.3583053 -0.15531918 0
1.6390897 1.3356863 -0.15412401 0
1.7237933 1.3604884 -0.15316781 0
-2.9325471 1.4468725 -0.19881603 0
-2.8550313 1.4082483 -0.19654402 0
-1.8634107 1.4779508 -0.18694189 0
-1.7613286 1.4163606 -0.18575351 0
-1.6712816 1.4656036 -0.18529864 0
-1.5674436 1.4450068 -0.18484825 0
-1.4561734 1.4416456 -0.18434644 0
-1.3500897 1.4358701 -0.18405525 0
-1.2424657 1.4548421 -0.185131 0
-1.1427135 1.4418625 -0.18417972 0
-1.0346676 1.4442699 -0.18361688 0
-0.93029439 1.4421813 -0.18312171 0
-0.85799998 1.405 -0.183 0
0.56999999 1.45 -0.163 0
0.64409703 1.431953 -0.16256028 0
0.73483771 1.4404563 -0.16221723 0
0.84758097 1.4525157 -0.16139863 0
0.95203 1.4598862 -0.16053388 0
1.0322912 1.4343708 -0.16020429 0
1.1556749 1.4263365 -0.15963347 0
1.2468522 1.4692419 -0.1590113 0
1.3508693 1.4267414 -0.16055599 0
1.4115865 1.4916767 -0.16044499 0
1.5504943 1.4127269 -0.155231 0
1.6487694 1.4553162 -0.15355353 0
1.704 1.411 -0.153 0
-1.7577758 1.5343473 -0.18733141 0
-1.6208279 1.5301838 -0.185 0
-1.4686346 1.5608051 -0.18433289 0
-1.3609571 1.5295137 -0.18531974 0
-1.2664264 1.5561619 -0.18479693 0
-1.1829273 1.5282941 -0.18448581 0
-1.0564234 1.5488877 -0.18385568 0
-0.93691599 1.5690066 -0.18447441 0
-0.8489176 1.5486209 -0.18426067 0
-0.75049996 1.5439999 -0.18450001 0
0.47049999 1.5695 -0.16599999 0
0.55617493 1.5178502 -0.16372092 0
0.65704393 1.5556061 -0.1615624 0
0.75608587 1.57021 -0.16059871 0
0.84448051 1.5549836 -0.161 0
0.93783438 1.5591807 -0.16059932 0
1.0593966 1.5203938 -0.161 0
1.1356808 1.5527225 -0.16049999 0
1.205 1.569 -0.16 0
1.4723039 1.556612 -0.16033399 0
1.65 1.503 -0.154 0
-1.836 1.607 -0.18799999 0
-1.5339535 1.6296363 -0.18448585 0
-1.4576218 1.6630905 -0.18591288 0
-1.3458328 1.6381139 -0.18535002 0
-1.2513119 1.6532741 -0.18574071 0
-1.1321352 1.6563317 -0.18478352 0
-1.0672287 1.6884665 -0.18524972 0
-0.98277479 1.6426466 -0.18513639 0
-0.8626706 1.6614838 -0.18504262 0
-0.75583518 1.6466703 -0.18524343 0
-0.64249998 1.661 -0.184 0
0.37650001 1.6795 -0.169 0
0.44938445 1.6561877 -0.16648082 0
0.53871208 1.653972 -0.16565725 0
0.66002482 1.6695504 -0.16116276 0
0.76382369 1.613772 -0.16056775 0
0.99566877 1.6643615 -0.16119865 0
1.151 1.656 -0.161 0
1.5633798 1.6540148 -0.16016749 0
-1.4473079 1.7488123 -0.18598367 0
-1.3463728 1.7340145 -0.18597516 0
-1.2078469 1.7637755 -0.18571137 0
-1.1309723 1.7407652 -0.1856931 0
-1.0521908 1.7531531 -0.18611081 0
-0.90450591 1.7377257 -0.18556394 0
-0.82350552 1.782011 -0.18573026 0
-0.75444722 1.7460563 -0.1850099 0
-0.65658009 1.7575095 -0.18469764 0
-0.55699998 1.7410001 -0.18433334 0
0.28799999 1.7690001 -0.171 0
0.34996909 1.7532876 -0.16938236 0
0.43715009 1.7617755 -0.16783805 0
0.54115087 1.7644882 -0.16541374 0
1.0342251 1.7344818 -0.16159819 0
1.6547278 1.751709 -0.1600005 0
-1.3862723 1.827063 -0.18699326 0
-1.237619 1.8518503 -0.18670461 0
-1.1382157 1.8438878 -0.18687697 0
-1.0554134 1.8061864 -0.18679644 0
-0.95606089 1.8661752 -0.18645076 0
-0.85808516 1.8516704 -0.18599343 0
-0.74377042 1.8713909 -0.18493314 0
-0.65718907 1.8546648 -0.18490818 0
-0.54462463 1.8437648 -0.18424708 0
-0.44666663 1.8346667 -0.18366666 0
-0.36700001 1.89 -0.183 0
0.2560865 1.8515511 -0.17305696 0
0.36226559 1.8476701 -0.16928138 0
0.46327412 1.8503262 -0.16742291 0
0.574 1.819 -0.163 0
0.62551528 1.8613966 -0.16901875 0
1.0728906 1.8048012 -0.16199887 0
-1.681 1.967 -0.18799999 0
-1.3108979 1.910017 -0.18697426 0
-1.2509508 1.9687319 -0.1879428 0
-1.1662102 1.9372063 -0.18778433 0
-1.0300119 1.9664515 -0.18712787 0
-0.96932966 1.9636967 -0.18732092 0
-0.84831601 1.9460073 -0.18643968 0
-0.72283745 1.9248223 -0.1849595 0
-0.6517427 1.9573193 -0.18517669 0
-0.54844797 1.9367454 -0.18444894 0
-0.45810196 1.9516741 -0.18369508 0
-0.35818553 1.9634657 -0.18430442 0
-0.28600001 1.971 -0.184 0
0.16152315 1.9467508 -0.17723463 0
0.24694102 1.9533648 -0.17419095 0
0.33734766 1.942904 -0.17059876 0
0.41828361 1.9580126 -0.16817662 0
0.50724435 1.9173052 -0.1660091 0
0.65314412 1.9469956 -0.17002343 0
-1.7404121 2.0347869 -0.18928085 0
-1.6709659 2.052633 -0.18777502 0
-1.1926117 2.0324132 -0.18894689 0
-1.0589472 2.0565796 -0.18787684 0
-0.91294801 2.0880218 -0.18731901 0
-0.88063198 2.0170145 -0.18687935 0
-0.72641671 2.0343034 -0.18554822 0
-0.54991472 2.0270839 -0.18456596 0
-0.44198233 2.028846 -0.18433645 0
-0.33914861 2.0508237 -0.18496744 0
-0.26347297 2.0355234 -0.18497057 0
0.16122878 2.0426912 -0.17847379 0
0.26593783 2.0230961 -0.17367968 0
0.35273486 2.0459492 -0.17079407 0
0.43099999 2.0139999 -0.168 0
0.68077296 2.0325947 -0.17102811 0
-1.8592365 2.170361 -0.19184257 0
-1.778844 2.1295533 -0.19033086 0
-1.595 2.1630001 -0.189 0
-1.0503297 2.1211967 -0.18882091 0
-0.95413196 2.1785145 -0.18787934 0
-0.80734974 2.1852891 -0.18583801 0
-0.75552082 2.1188791 -0.18581027 0
-0.62649977 2.1463795 -0.18457881 0
-0.52241963 2.1601326 -0.18422271 0
-0.46746904 2.1509805 -0.1845888 0
-0.26018527 2.1282492 -0.18595208 0
0.15943392 2.1363823 -0.17960359 0
0.29883423 2.1219225 -0.17214583 0
0.31650001 2.1475 -0.1725 0
0.7084018 2.1181939 -0.17203279 0
-1.9186486 2.2381482 -0.19312343 0
-1.8447614 2.2604322 -0.19242506 0
-1.64974 2.2346811 -0.19066472 0
-0.83757472 2.2698374 -0.18614434 0
-0.76190031 2.2216208 -0.18630663 0
-0.66199964 2.2721727 -0.18477175 0
-0.54152453 2.2426658 -0.1845284 0
-0.4929558 2.2731149 -0.18484116 0
0.17363882 2.2175043 -0.17990774 0
0.20100001 2.2290001 -0.17900001 0
0.74984503 2.2465925 -0.17353982 0
-2.037473 2.3737221 -0.19568516 0
-1.95486 2.3351336 -0.19457719 0
-1.7318499 2.3422024 -0.1931618 0
-1.566 2.3510001 -0.19400001 0
-0.84283334 2.3726068 -0.18659642 0
-0.78988367 2.3062241 -0.18652439 0
-0.68566626 2.3560348 -0.18490036 0
-0.54687649 2.3483996 -0.18494469 0
0.79000002 2.3710001 -0.175 0
-2.0968852 2.4415092 -0.19696602 0
-1.9895911 2.433598 -0.19630009 0
-1.81396 2.449724 -0.19565889 0
-1.6426835 2.461134 -0.19636679 0
-1.4680001 2.451 -0.191 0
-0.86146879 2.4740913 -0.18692926 0
-0.72799999 2.4326665 -0.18533333 0
-2.2157094 2.5770831 -0.19952774 0
-2.1308761 2.5407133 -0.19882351 0
-2.047523 2.5028644 -0.19785011 0
-1.9234399 2.5930858 -0.19898833 0
-1.8686999 2.521405 -0.19732361 0
-1.7193669 2.5712676 -0.19873355 0
-1.5125636 2.5283148 -0.19304025 0
-1.434 2.529 -0.192 0
-0.93285292 2.5339925 -0.18733089 0
-0.84153748 2.5591075 -0.18759052 0
-0.74120742 2.5519202 -0.18680483 0
-1.6016905 2.6829448 -0.19712077 0
-1.5413814 2.6432254 -0.19546348 0
-1.4798179 2.6049106 -0.19392322 0
-1.35 2.6700001 -0.192 0
-1.132261 2.6816318 -0.19192681 0
-1.096 2.6010001 -0.191 0
-0.94952929 2.667505 -0.18886325 0
-0.82720834 2.6283746 -0.18862091 0
-0.77841485 2.6828403 -0.18860967 0
-1.6462539 2.7602599 -0.19916102 0
-1.5714535 2.7567315 -0.19776966 0
-1.3918002 2.7458298 -0.1936077 0
-1.1685222 2.7622635 -0.1928536 0
-1.0196759 2.7579322 -0.18997793 0
-0.94241202 2.746083 -0.18961178 0
-0.82801616 2.742341 -0.18987212 0
-1.6172713 2.8326421 -0.19969288 0
-1.4545004 2.8595746 -0.19601925 0
-1.2047833 2.8428953 -0.19378041 0
-1.0522344 2.8419096 -0.19097057 0
-0.93845177 2.8590236 -0.19151731 0
-0.8532207 2.8290749 -0.19112897 0
-1.5172007 2.9733193 -0.19843079 0
-1.2410445 2.923527 -0.19470721 0
-1.0440732 2.9210129 -0.19165808 0
-0.92962503 2.9731238 -0.19386271 0
-0.85282969 2.9446807 -0.19221935 0
-1.3135667 3.0847905 -0.19656081 0
-1.2773056 3.0041587 -0.19563401 0
-1.133631 3.0518532 -0.19345216 0
-1.0490594 3.0436797 -0.19265884 0
-0.95522922 3.0593109 -0.19517314 0
-0.87763464 3.0319607 -0.19342257 0
-1.3498279 3.1654222 -0.19748761 0
-1.1824689 3.1778193 -0.19494112 0
-1.0947654 3.1712213 -0.19396472 0
-0.9416365 3.1323695 -0.1955547 0
-1.409 3.2969999 -0.199 0
-1.386089 3.2460539 -0.19841442 0
-1.2150276 3.2617967 -0.19593376 0
-1.125236 3.256249 -0.19483531 0
-1.0064375 3.2316856 -0.19779405 0
-0.93964702 3.2501607 -0.19643062 0
-1.2487931 3.348887 -0.19696319 0
-1.1608534 3.3556383 -0.19585295 0
-1.03 3.3110001 -0.199 0
-0.972 3.3640001 -0.198 0
1.2883923 4.5724216 -0.19485225 0
1.3125885 4.659132 -0.18477838 0
1.3367845 4.7458429 -0.17470451 0
1.3609806 4.8325534 -0.16463062 0
1.3851768 4.9192638 -0.15455675 0
1.421471 5.0493298 -0.13944595 0
1.4577651 5.1793962 -0.12433513 0
1.4819613 5.2661066 -0.11426124 0
1.497 5.3200002 -0.108 0
1.125 -2.704 -0.020000003 0
1.0913728 -2.6272392 -0.034330577 0
1.0574774 -2.549866 -0.048775479 0
1.0235819 -2.4724929 -0.063220382 0
0.97273868 -2.3564329 -0.084887736 0
-0.14463325 -2.2114272 -0.094899192 0
-0.04050358 -2.2291474 -0.095674463 0
0.57584077 -2.2654734 -0.09993998 0
0.70334017 -2.2115855 -0.096430458 0
-0.51182461 -2.1256971 -0.087457314 0
-0.46314701 -2.1409202 -0.088445291 0
-0.33895421 -2.154892 -0.092946365 0
-0.2421217 -2.1692405 -0.096985944 0
-0.13934432 -2.1225696 -0.080698937 0
-0.038838103 -2.1393633 -0.082399279 0
0.044857949 -2.143816 -0.092713311 0
0.27068701 -2.1129737 -0.08741577 0
0.36845836 -2.1456692 -0.089097701 0
0.47407478 -2.1459293 -0.093429327 0
0.55326116 -2.17871 -0.088409975 0
0.66548538 -2.1350408 -0.089351609 0
0.74056572 -2.1550548 -0.095211625 0
-0.46798229 -2.0458856 -0.074064128 0
-0.32518601 -2.0663242 -0.079235613 0
-0.23199561 -2.0803208 -0.082814589 0
-0.13405541 -2.0337119 -0.066498667 0
-0.037172627 -2.0495791 -0.069124103 0
0.041810594 -2.0547547 -0.078951076 0
0.16478629 -2.0485218 -0.085741185 0
0.2394926 -2.050287 -0.081599772 0
0.35327777 -2.0573366 -0.076352485 0
0.46705726 -2.0648611 -0.08626806 0
0.52193493 -2.0415518 -0.079118632 0
0.63893557 -2.050863 -0.076348603 0
0.74203187 -2.0541711 -0.083033256 0
-1.8099999 -1.926 -0.001 0
-1.765 -1.902 -0.0089999996 0
-0.44847873 -1.9584627 -0.060176954 0
-0.33410615 -1.9781604 -0.063943185 0
-0.25570211 -1.9570856 -0.06391868 0
-0.16159548 -1.9458919 -0.056544397 0
-0.035507154 -1.959795 -0.055848919 0
0.038763247 -1.9656935 -0.065188847 0
0.15715952 -1.9613625 -0.070654921 0
0.25140086 -1.9630615 -0.066077553 0
0.35173011 -1.9473327 -0.060960382 0
0.45655733 -1.9514608 -0.068406425 0
0.50503176 -1.9427892 -0.079688981 0
0.64057928 -1.9565294 -0.062535882 0
0.71219766 -1.9239445 -0.060625859 0
0.82484072 -1.9429686 -0.09959311 0
-1.476 -1.827 -0.0060000001 0
-0.42897516 -1.8710399 -0.046289776 0
-0.31238267 -1.8449504 -0.044678982 0
-0.25363329 -1.8344301 -0.043872546 0
-0.1642949 -1.8299985 -0.042062283 0
-0.055559944 -1.8685216 -0.038893227 0
0.035715893 -1.8766322 -0.051426619 0
0.1606008 -1.8583734 -0.053999081 0
0.23969001 -1.8746504 -0.052596282 0
0.35581934 -1.8502011 -0.04923426 0
0.44613639 -1.8425987 -0.051381748 0
0.57368445 -1.8587083 -0.046785906 0
0.65397215 -1.8320477 -0.043458607 0
0.78976107 -1.8599529 -0.088389665 0
-1.946 -1.786 -0.096000001 0
-0.42964923 -1.7773941 -0.030914627 0
-0.3800624 -1.745955 -0.027071245 0
-0.25059104 -1.7162538 -0.025267696 0
-0.15676561 -1.7408555 -0.028285466 0
-0.052878033 -1.7792152 -0.025020832 0
0.032668542 -1.787571 -0.037664384 0
0.14438827 -1.7500091 -0.034241274 0
0.24506617 -1.7739162 -0.034027338 0
0.35417667 -1.7418396 -0.033405732 0
0.43918547 -1.7501208 -0.040166628 0
0.55791074 -1.7378864 -0.027980112 0
0.65229654 -1.7619169 -0.029938795 0
0.75468147 -1.7769372 -0.077186227 0
-2.026 -1.614 -0.098999999 0
-0.40910542 -1.6903183 -0.016778961 0
-0.37046456 -1.6087713 -0.004628256 0
-0.23772669 -1.6275691 -0.011419614 0
-0.14923631 -1.6517124 -0.01450865 0
-0.040293634 -1.6679685 -0.0093550086 0
0.028097516 -1.6539791 -0.017021041 0
0.14132316 -1.6399364 -0.017006794 0
0.24875814 -1.6542592 -0.017373398 0
0.34586182 -1.6367581 -0.01829927 0
0.45612726 -1.6328937 -0.015463151 0
0.55360425 -1.625424 -0.038002539 0
0.63829416 -1.660749 -0.055889208 0
0.71960181 -1.6939216 -0.065982774 0
-0.13036953 -1.5783581 -0.0046629459 0
-0.04710434 -1.5991688 -0.0015216917 0
0.16772377 -1.574873 -0.0088330032 0
0.27647707 -1.5464849 -0.0066756904 0
0.36763626 -1.5391783 -0.004965154 0
0.54278487 -1.5470718 -0.040303688 0
0.65942961 -1.5244168 -0.067312762 0
1.1145201 -1.5353622 -0.001329124 0
0.51502872 -1.4398761 -0.069586053 0
0.62356687 -1.4421519 -0.057092238 0
1.0620172 -1.4623106 -0.0074249655 0
1.4741009 -1.4121068 -0.098910928 0
1.663466 -1.4259484 -0.074447073 0
1.7311728 -1.4847586 -0.087557659 0
0.48403352 -1.3563554 -0.060017064 0
0.58770406 -1.3598869 -0.046871718 0
0.95701146 -1.3162071 -0.019616643 0
1.0095143 -1.3892587 -0.013520805 0
1.4088013 -1.350809 -0.08788123 0
1.5619057 -1.3377328 -0.054781191 0
-3.152679 -1.2016258 -0.09818162 0
-2.9389122 -1.2973337 -0.088702388 0
-2.8577566 -1.2606672 -0.074231304 0
-2.7766013 -1.2240006 -0.059760213 0
0.45303833 -1.2728348 -0.050448075 0
0.55184138 -1.277622 -0.036651198 0
0.90450859 -1.2431552 -0.025712483 0
1.2782019 -1.2282134 -0.065821841 0
1.3435016 -1.2895112 -0.076851539 0
1.4603455 -1.2495172 -0.035115309 0
-3.0726147 -1.168751 -0.083017945 0
-2.9525185 -1.1194386 -0.060272433 0
-2.686223 -1.183167 -0.043644562 0
0.38800001 -1.101 -0.0049999999 0
0.43207139 -1.154551 -0.030397503 0
0.52283329 -1.1948868 -0.054099247 0
0.85200572 -1.1701035 -0.03180832 0
1.1476026 -1.1056179 -0.043762453 0
1.2129022 -1.1669157 -0.054792151 0
1.3587853 -1.1613017 -0.015449423 0
-2.8929999 -1.095 -0.048999995 0
0.45500001 -1.044 -0.037 0
0.66864944 -1.0411429 -0.0096952803 0
0.77325141 -1.0605259 -0.040952079 0
1.0823028 -1.0443201 -0.032732762 0
1.0090016 -0.97551119 -0.020351537 0
-5.7430043 -2.939105 0.064589381 0
-5.6320171 -2.8824205 0.084357537 0
-5.5580254 -2.8446307 0.097536303 0
4.153676 -2.4200888 0.051569492 0
4.23 -2.46 0.039000001 0
4.3788114 -2.4114711 0.050147399 0
4.4559999 -2.457 0.037999999 0
3.9247038 -2.3003545 0.089277968 0
4.0391903 -2.3602216 0.070423737 0
4.2244339 -2.3204136 0.074442193 0
4.3016229 -2.3659422 0.062294796 0
4.0700569 -2.2293558 0.098736987 0
4.1472454 -2.2748847 0.08658959 0
0.06080009 -1.9466032 0.0051142015 0
-1.7310357 -1.8541727 0.0058869817 0
-1.6561056 -1.8196864 0.010149746 0
0.057200365 -1.8224126 0.0084568039 0
-1.6466734 -1.7633564 0.022401089 0
-1.5737091 -1.7374989 0.020220313 0
-1.4243305 -1.767508 0.0038810223 0
-1.3679152 -1.745739 0.011010003 0
-1.202 -1.711 0.0089999996 0
-1.136 -1.702 0.011 0
0.034400273 -1.7293094 0.0073426031 0
1.2672082 -1.7478418 0.020513374 0
-1.5514356 -1.6551644 0.044122368 0
-1.4611737 -1.637679 0.03654594 0
-1.3110802 -1.6699629 0.0220895 0
-1.263 -1.648 0.027000003 0
-1.1250582 -1.6391382 0.020083256 0
-1.0713689 -1.618763 0.025688887 0
-0.98098546 -1.6335573 0.018714087 0
-0.84416366 -1.651479 0.0068033808 0
-0.74389315 -1.6362133 0.0057173683 0
-0.61400002 -1.64 0.001 0
-0.086000003 -1.622 0.010000003 0
0.033036686 -1.6543589 0.01074828 0
1.1778156 -1.6235571 0.022478452 0
1.2195259 -1.6814657 0.010862555 0
-1.4610752 -1.5577115 0.061841827 0
-1.2471609 -1.563516 0.037762046 0
-1.0579031 -1.5315759 0.035030439 0
-0.92694181 -1.5512291 0.032856345 0
-0.82868636 -1.5417984 0.028990399 0
-0.76861507 -1.5394775 0.026312361 0
-0.66827726 -1.5684018 0.016785003 0
-0.57916915 -1.5508119 0.017887682 0
-0.48768827 -1.5395951 0.016293067 0
-0.35699999 -1.548 0.0049999952 0
-0.2427294 -1.5358515 0.0028934404 0
-0.1491195 -1.5369009 0.0026067556 0
-0.038379349 -1.5288904 0.0099102976 0
0.029543404 -1.5259868 0.011297676 0
0.1198802 -1.5368265 0.0027981251 0
0.2550531 -1.5177698 0.0035160109 0
0.47932416 -1.5223212 0.002935302 0
0.56235641 -1.5564716 0.0056425803 0
1.0962162 -1.5104007 0.062380385 0
1.1424122 -1.5745505 0.051285286 0
-0.89200002 -1.498 0.041999999 0
-0.74158967 -1.4818201 0.037076052 0
-0.62477732 -1.4729018 0.034285005 0
-0.54799998 -1.471 0.033 0
-0.47099999 -1.483 0.025 0
-0.21461375 -1.4749781 0.015863476 0
-0.16048488 -1.4684403 0.013607954 0
-0.043470453 -1.4601828 0.017686455 0
0.064412847 -1.4435819 0.011528071 0
0.15757808 -1.4606329 0.0094500883 0
0.25650224 -1.4674158 0.0059103528 0
0.35306114 -1.4476196 0.0091091096 0
0.44587043 -1.4422866 0.0097520882 0
0.51783848 -1.4459484 0.012807867 0
0.92239654 -1.4348572 0.02732832 0
1.052 -1.449 0.072999999 0
-0.20234132 -1.3874346 0.030590434 0
-0.13588351 -1.3638948 0.028335873 0
-0.051295832 -1.3435485 0.0290803 0
0.052434262 -1.3602185 0.023074856 0
0.143216 -1.3411665 0.024924541 0
0.23910885 -1.3545488 0.019914445 0
0.39269224 -1.3122137 0.022787003 0
0.44965011 -1.3590384 0.01500196 0
0.50129914 -1.3492322 0.020249389 0
0.87249422 -1.3574288 0.020047199 0
-0.023499999 -1.2915001 0.033500001 0
0.049159031 -1.2781639 0.033722807 0
0.14931133 -1.2549845 0.036080211 0
0.23376036 -1.2380071 0.036740854 0
0.44771552 -1.2506443 0.019267445 0
0.51300001 -1.205 1.0264395e-13 0
0.78189653 -1.2168573 0.0068283193 0
0.82719535 -1.287143 0.013437759 0
0.39829704 -1.1495689 0.034877148 0
0.42904842 -1.150259 0.034623876 0
0.73659772 -1.1465715 0.00021887943 0
0.38499999 -1.0680001 0.041000001 0
1.1779615 -1.0061502 0.019151103 0
1.2621603 -1.0776917 0.0031918504 0
1.1267211 -0.96261269 0.028863326 0
-3.1236563 4.2869897 0.072766542 0
-3.0940001 4.2459998 0.079000004 0
-3.1661041 4.3456597 0.063844368 0
-3.2297759 4.4336648 0.050461091 0
-5.4840336 -2.8068411 0.11071508 0
-5.4100418 -2.7690513 0.12389384 0
-5.3250256 -2.7256308 0.1390363 0
3.7720559 -2.2205317 0.11441696 0
3.8483799 -2.2604432 0.10184747 0
3.668366 -2.1663101 0.13149323 0
3.9542742 -2.1610625 0.11695809 0
3.684114 -2.0017116 0.159474 0
3.7613025 -2.0472405 0.14732659 0
3.8384912 -2.0927694 0.13517919 0
3.6489999 -1.9809999 0.16500001 0
