# .PCD v0.7 - Point Cloud Data file format
VERSION 0.7
FIELDS x y z intensity
SIZE 4 4 4 4
TYPE F F F F
COUNT 1 1 1 1
WIDTH 75
HEIGHT 1
VIEWPOINT 0 0 0 1 0 0 0
POINTS 75
DATA ascii
-13.149776 10.114522 2.5357206 8
-10.668778 -13.382375 8.6561403 17
-8.1605911 -15.117434 3.1923637 9
-7.9568176 -13.149092 7.7589188 17
-6.9463024 -13.106472 4.5088434 12
-6.9348702 -13.070894 7.6428351 18
-6.3478146 -13.058793 7.401794 17
-3.8521583 4.2328482 0.19375366 4
-2.3377295 -1.0758345 0.10000369 4
-2.2606564 -1.110602 0.30250129 7
-2.1061704 -1.2784125 0.081510924 4.5
-2.0867605 -1.2718703 0.27550793 6.5
-2.0510247 -1.2887325 0.45500687 9
-1.9454134 -1.7433834 0.20807076 6
-1.9230911 -1.6415333 0.50605088 9
-1.5838281 4.3745103 0.086816788 4
-0.68423128 -1.3372855 0.5063374 13.5
-0.52267963 -1.3444886 0.29681018 9
-0.48336816 -1.3192313 0.70179802 17.5
-0.26262325 3.6328034 0.31242678 5.5
-0.26822284 -1.2601063 0.43907663 13
-0.2255123 -1.2597996 0.66473407 17.5
-0.086054116 -1.2594287 0.051036399 4.3333335
-0.11718632 -1.2602326 0.27571037 9.5
-0.18247877 3.6541312 0.48893508 7
-0.015423005 -1.3695896 0.78971308 19
-0.094774209 3.5749516 0.87844503 10.5
0.0022830309 -1.2695777 0.071685381 5
0.11291905 -1.2785794 0.30166179 10
0.0029781866 -1.3955169 0.75571513 18
0.16950428 3.5983784 1.0289749 12
0.28529808 -1.2830245 0.19062206 7
0.28335956 -1.281009 0.27962199 9
0.29021895 -1.2493625 0.47511178 13.5
0.46494314 -1.2330637 0.10956414 5.5
0.44448939 -1.2386307 0.26457083 9
0.49812415 3.6116824 0.48701403 7
0.62692219 3.6084154 0.15603 5
0.71101153 -1.2018576 0.45349333 12
0.72503084 -1.1967673 0.53948826 13.5
0.74122798 -1.2006299 0.88248539 19
0.91110408 -1.2388259 0.34995547 9.25
1.1052113 3.6454859 0.37308991 6
1.187067 -1.2074276 0.5373773 12
1.0837945 3.6805403 0.86408639 10
1.1639158 3.656373 1.0320971 11
1.4473095 -1.1406224 0.77529079 14
1.7811593 -1.1562502 0.5242157 10
1.7503331 -1.1452219 0.64521921 11
2.1520216 -12.642653 14.685974 29
2.3176818 -1.1397792 0.30558276 6.5
2.4897585 4.368834 0.26324397 5
2.4014637 4.4700141 0.41023022 6
2.8791032 4.3683586 0.56329119 6
2.8193035 -12.716584 14.253912 28
3.2405868 1.3385732 0.8987878 11
3.3457842 1.7270544 0.90444928 10.5
3.4520953 1.215539 0.73747939 9
5.074224 -1.0134219 0.13240302 4
5.0186782 -1.0448624 0.41542745 5.5
7.3915191 -14.254507 17.276648 28
7.4342804 4.880724 0.53576458 5
8.1521378 21.618023 8.8915129 14
9.7997026 11.224668 3.5748615 10
9.6653042 11.244708 3.6848474 11
9.6969767 -14.045447 17.318237 27
16.086445 12.002689 4.7754521 10
16.715841 5.8781104 1.0745527 5
16.775858 5.8810616 1.7455577 6
16.816637 4.2925901 1.0415498 5
16.996717 0.78423792 2.5394855 8
16.80316 3.762274 2.6555426 8
17.082296 0.32621172 1.2304749 5
17.044937 0.7353093 1.6754874 6
20.055586 10.612291 2.2868185 6
