# .PCD v0.7 - Point Cloud Data file format
VERSION 0.7
FIELDS x y z intensity
SIZE 4 4 4 4
TYPE F F F F
COUNT 1 1 1 1
WIDTH 104
HEIGHT 1
VIEWPOINT 0 0 0 1 0 0 0
POINTS 104
DATA ascii
-16.442656 9.8639088 3.0848451 8
-7.2317152 3.6050086 0.25680077 4
-3.4995291 3.1979475 0.088514879 4
-3.5045817 3.2008793 0.21251489 5
-3.5512891 3.2613163 0.58451158 7
-3.4003811 3.1829085 0.68750989 8
-2.7420707 3.2600882 0.61046433 8
-2.7784674 3.2483649 0.82146722 9
-2.4523852 -1.6706684 -0.065868087 3
-2.4378788 -1.6360644 0.21812189 6
-2.3851182 -1.6512452 0.17611761 5
-2.2447278 4.8185616 0.11430558 4
-2.2204542 3.3944399 0.57343113 7
-2.1544724 4.8180938 0.37430373 5
-1.6271901 -1.5500045 0.36697802 8
-1.6507736 -1.5584695 0.40198377 9
-1.7178826 20.766319 21.832861 28
-1.4532622 -1.4945196 0.74293649 14
-1.2428277 -1.4899615 0.54389918 12
-1.2958324 -1.4948792 0.60190958 13
-1.3469565 -12.837069 11.797963 26
-1.0821158 -1.4731885 0.35286608 9
-0.83424234 -1.4890857 0.27182227 8
-0.90587306 20.951717 4.7448411 10
-0.64724696 -1.3884959 0.11575924 5.5
-0.63855362 -1.4093775 0.30776247 10
-0.75890607 -1.436507 0.47279438 12
-0.43418926 -1.3695909 0.63770676 17
-0.29530215 -1.3661579 0.12200607 6
-0.26300079 -1.3524894 0.27616116 9.5
-0.3497504 -1.7075019 0.49377668 12
-0.33233032 -1.3491886 0.66867727 18
-0.23415667 20.961906 5.1968389 11
-0.29682255 20.912794 11.166843 18
-0.37423709 -12.696918 11.608788 26
-0.149892 20.91427 21.581844 27
0.094954275 -1.2709554 -0.015850833 3
0.10587169 -1.2721924 0.43948221 13
0.32656187 -1.239889 -0.059852649 2
0.32935855 -1.2868862 0.17914452 7
0.34004554 -1.2610966 0.45314559 13.5
0.3376883 -1.2156565 0.7001484 18.5
0.24608716 20.95735 21.92284 28
0.55866677 -1.2228923 0.084807903 5
0.52052402 -1.2416855 0.28814161 9.666667
0.48257458 -1.2192703 0.73814386 19
0.71876365 -1.2121565 0.32013601 10
1.6439335 11.454939 4.1937275 14
1.8890662 11.115127 4.9017634 15.5
2.019454 -1.7993228 0.23311341 6
2.1158013 -1.3283547 0.29060522 6.5
2.0688772 -1.6304301 0.50111192 9
2.3601391 -1.0837028 0.12009226 5
2.3308377 -1.0973296 0.3230933 7
2.3961151 -1.1028132 0.48309273 9
2.4241216 1.095337 0.66586351 10.5
2.4904826 1.6667985 0.65178865 10
2.4345431 1.6336023 0.80379081 11
2.5542569 0.97087818 1.0178841 14
2.4929688 1.082463 1.1698675 15.5
2.4360793 1.5094595 1.1668078 15
2.6601913 -1.0762486 0.049088228 4
2.9497082 11.481637 3.3107507 11
3.1366284 11.747069 2.8727291 10
3.5798838 -14.320059 15.84637 28
3.7966084 5.1671553 0.22042316 4
3.6927781 -12.492941 10.050525 23
3.7192526 -13.984057 16.607405 29
4.0954661 4.7968249 0.39747596 5
4.1943831 4.7971897 0.60347962 6
4.0778017 4.8348351 0.71347106 7
5.4931817 -14.181003 17.35754 29
5.7848396 -12.299832 10.3747 23
6.2228384 -14.442403 17.130573 28
8.3528576 -11.99667 5.6538739 14
8.4779615 -12.013117 4.965879 13
9.0241737 -11.957902 4.6449084 12
9.1561241 -11.974524 7.7149148 17
9.1175909 -13.92032 17.439796 28
9.3022928 11.842328 3.7568865 11
9.2338982 -11.888515 5.8839221 14
9.2744551 -11.95881 6.3779206 15
9.589262 11.731977 3.4839056 10
10.578768 -13.806496 3.4128799 9
11.128244 -11.750467 4.9620085 12
11.5116 -11.930816 4.1540132 11
13.343178 5.8109908 0.9665761 5
13.263266 5.9033804 1.5685667 6
13.294548 5.7517142 1.978581 7
13.255967 4.9067206 2.3306558 8
13.39289 1.2247051 3.3659432 11
13.337972 -11.960252 17.503071 27
13.520493 3.6063266 1.098768 6
13.52446 3.7651529 1.8937556 7
13.707317 2.6956234 0.77184057 5
13.762415 1.5635659 1.4739217 6
13.71569 0.60734761 3.135983 10
13.686815 1.475091 3.2889276 10
13.601763 -1.2739874 3.8230822 11
13.857914 1.4690624 1.5699284 7
14.010981 -1.4198163 3.2430892 10
16.35055 11.122022 3.3161201 8
16.424686 11.017679 2.7361317 7
27.608711 14.539405 18.270971 19
