# .PCD v0.7 - Point Cloud Data file format
VERSION 0.7
FIELDS x y z intensity
SIZE 4 4 4 4
TYPE F F F F
COUNT 1 1 1 1
WIDTH 1394
HEIGHT 1
VIEWPOINT 0 0 0 1 0 0 0
POINTS 1394
DATA ascii
-1.4400878 -1.9316084 -0.21216768 0
-1.391831 -1.9624476 -0.2105031 0
-1.2524419 -1.9542124 -0.2043298 0
-1.1934103 -1.9612935 -0.20167996 0
-1.506 -1.832 -0.213 0
-1.473597 -1.8518494 -0.21228695 0
-1.3428068 -1.8599075 -0.20754348 0
-1.1897768 -1.8538849 -0.20053191 0
-1.4235468 -1.7729555 -0.20944782 0
-1.3474431 -1.7608228 -0.20655358 0
-1.252334 -1.7318888 -0.20265321 0
-1.3482651 -1.6632913 -0.20531873 0
-1.2539999 -1.6359999 -0.2015 0
-1.2920001 -1.567 -0.20200001 0
-4.8833961 -1.2833138 -0.21268006 0
-4.7540989 -1.2500784 -0.23542002 0
-2.4756303 -1.0421751 -0.22265965 0
-2.5079999 -0.921 -0.223 0
-2.3706346 -0.99881494 -0.22098736 0
-2.2451954 -0.94701242 -0.21898946 0
-2.4236319 -0.89048398 -0.22200274 0
-2.3390062 -0.85987461 -0.22100244 0
-2.2543802 -0.8292653 -0.22000213 0
-2.1197562 -0.89520997 -0.21699157 0
-2.0361304 -0.86067498 -0.21565965 0
-1.9525043 -0.82613999 -0.21432772 0
-2.5209548 -0.74874896 -0.22345245 0
-2.4552624 -0.77169782 -0.2217923 0
-2.3259053 -0.73148239 -0.21961457 0
-2.2396672 -0.7046721 -0.21816275 0
-2.1697545 -0.79865599 -0.21900183 0
-2.0428159 -0.75274193 -0.21750137 0
-1.9158772 -0.706828 -0.21600091 0
-1.8688782 -0.791605 -0.2129958 0
-1.7434391 -0.73980248 -0.21099789 0
-2.5478468 -0.6492129 -0.22510308 0
-2.4275322 -0.66954851 -0.22274998 0
-2.3403618 -0.6456542 -0.22116664 0
-2.2402048 -0.6467728 -0.21845014 0
-2.1533737 -0.64990497 -0.21676266 0
-2.0671906 -0.65105146 -0.2152591 0
-1.9809526 -0.62424117 -0.21380728 0
-1.8312515 -0.67621863 -0.21500061 0
-1.7466257 -0.64560932 -0.2140003 0
-1.64 -0.65149999 -0.211 0
-2.5550001 -0.54500002 -0.22499999 0
-2.449693 -0.55301988 -0.22377884 0
-2.3232677 -0.55369502 -0.22097659 0
-2.2517009 -0.56516314 -0.22026515 0
-2.1649513 -0.54362327 -0.21891831 0
-2.0538397 -0.55859941 -0.21631901 0
-1.9479539 -0.53859514 -0.21406785 0
-1.8504057 -0.55954373 -0.21135946 0
-1.7222382 -0.54381031 -0.20945182 0
-1.636 -0.51700002 -0.208 0
-2.3191936 -0.49513158 -0.2246438 0
-2.2339549 -0.47710526 -0.22451504 0
-2.1487162 -0.45907894 -0.22438627 0
-2.0643058 -0.46720004 -0.22087291 0
-1.9786639 -0.448129 -0.22022715 0
-1.8554883 -0.44326088 -0.21655616 0
-1.7301702 -0.47839427 -0.21008334 0
-1.643 -0.45449999 -0.2085 0
-2.4632456 0.41321054 -0.21911401 0
-2.3571501 0.46583351 -0.20641604 0
-2.2508755 0.46091431 -0.20517078 0
-2.1854999 0.449 -0.20449999 0
-2.3439999 0.53499997 -0.205 0
-2.2642403 0.54641932 -0.2033533 0
-2.16731 0.52510488 -0.20233834 0
-4.330842 0.88400257 -0.22158545 0
-4.2442627 0.86850381 -0.22612819 0
-4.1688418 0.85500252 -0.23008546 0
-4.0557108 0.83475065 -0.23602137 0
-4.2394638 0.96688348 -0.21974424 0
-4.1481957 0.9485752 -0.22411637 0
-4.072464 0.93338346 -0.22774425 0
-3.9588661 0.91059589 -0.23318607 0
-3.8929999 0.991 -0.236 0
-4.2339377 1.0696077 -0.22320339 0
-4.1246567 1.0444115 -0.2273051 0
-4.0474377 1.0266078 -0.23020341 0
-3.9702189 1.0088038 -0.2331017 0
-3.8558316 1.0762019 -0.23402417 0
-2.3581364 1.0797011 -0.20580596 0
-2.2416024 1.0252758 -0.20260447 0
-4.2396574 1.1745093 -0.22462086 0
-4.1346521 1.1476147 -0.22719337 0
-4.0549893 1.1272111 -0.22914504 0
-3.9753261 1.1068074 -0.23109668 0
-3.8532369 1.1699193 -0.22921282 0
-3.737 1.137 -0.233 0
-2.436913 1.1164923 -0.20797014 0
-4.130228 1.2483654 -0.22018805 0
-4.0469651 1.2247846 -0.22290088 0
-3.9694741 1.2028384 -0.22542566 0
-3.6572721 1.2987032 -0.22943464 0
-3.576 1.271 -0.23 0
-3.901088 1.3818126 -0.22773851 0
-3.8198161 1.3541095 -0.22830389 0
-3.738544 1.3264064 -0.22886926 0
-4.1479521 1.465961 -0.2260212 0
-4.063632 1.4372189 -0.22660777 0
-3.9823601 1.4095157 -0.22717315 0
-3.6013994 1.4721932 -0.22967193 0
-3.5191998 1.4385966 -0.22933596 0
-3.437 1.405 -0.229 0
-3.8479986 1.5729831 -0.23067982 0
-3.765799 1.5393865 -0.23034386 0
-3.6835992 1.5057899 -0.2300079 0
-4.0534983 1.6569746 -0.23151974 0
-3.9301984 1.6065798 -0.23101579 0
-4.171 1.705 -0.23199999 0
-0.51200002 -3.516 -0.198 0
-0.35351509 -3.5734468 -0.19596872 0
-0.55921465 -3.4623334 -0.19780163 0
-0.34540138 -3.4805319 -0.19544524 0
-0.5734024 -3.3810425 -0.19729932 0
-0.4907611 -3.3561926 -0.19676279 0
-0.33395821 -3.3494892 -0.19470698 0
-2.691 -3.237 -0.186 0
-2.5788968 -3.2093186 -0.13840792 0
-2.457 -3.211 -0.131 0
-0.55270195 -3.2492223 -0.19630569 0
-0.47908095 -3.2683079 -0.19608238 0
-0.32251507 -3.2184467 -0.19396871 0
1.5848336 -3.2472816 -0.14844887 0
-2.6442404 -3.1761453 -0.19204071 0
-2.5567336 -3.1221232 -0.17414194 0
-2.434623 -3.1808751 -0.13609728 0
-2.382545 -3.1107657 -0.14796013 0
-2.2701201 -3.147871 -0.17608315 0
-0.5320015 -3.1174016 -0.19531207 0
-0.46740079 -3.1804233 -0.19540198 0
-0.3148863 -3.1310852 -0.19347653 0
1.5345931 -3.1501675 -0.1509091 0
-2.4677281 -3.0676069 -0.15996787 0
-2.3304672 -3.0406561 -0.15982297 0
-2.2007005 -3.0412848 -0.18847193 0
-0.51820123 -3.0295212 -0.19464965 0
-0.44988054 -3.0485964 -0.19438139 0
-0.30725753 -3.0437233 -0.19298436 0
1.4935191 -3.0707715 -0.15292045 0
-2.4131956 -2.9980917 -0.17054388 0
-2.3586631 -2.9285765 -0.1811199 0
-2.2523503 -2.935492 -0.17761722 0
-2.1541605 -2.9698279 -0.19677754 0
-0.50440091 -2.9416409 -0.19398725 0
-0.43236032 -2.9167693 -0.19336079 0
-0.29962876 -2.9563618 -0.19249217 0
1.1948335 -2.9014945 -0.1564469 0
1.217 -2.957 -0.156 0
1.4319079 -2.9516776 -0.15593751 0
-2.3041303 -2.8590612 -0.19169593 0
-2.1742334 -2.830328 -0.19541147 0
-0.45564038 -2.8413227 -0.19300261 0
-0.292 -2.869 -0.192 0
1.1625717 -2.8207095 -0.15709735 0
1.2530881 -2.8541346 -0.15414245 0
1.3702966 -2.8325837 -0.15895455 0
-0.44290015 -2.7534401 -0.19233121 0
1.1303097 -2.7399247 -0.15774779 0
1.213294 -2.760802 -0.15510134 0
1.3371536 -2.7231169 -0.15368856 0
1.7419962 -2.7085435 -0.15206569 0
-5.723 -2.6489999 -0.162 0
-5.6419873 -2.6110976 -0.14917302 0
-0.463 -2.678 -0.192 0
1.0980477 -2.6591396 -0.15839823 0
1.1471149 -2.6589499 -0.16207629 0
1.2881483 -2.6737919 -0.16297728 0
1.3020613 -2.6267109 -0.1510855 0
1.6873264 -2.6270776 -0.15278345 0
-5.5609751 -2.5731955 -0.13634604 0
-5.4799623 -2.5352931 -0.12351906 0
1.0764263 -2.5748456 -0.16301826 0
1.111647 -2.5224011 -0.15755068 0
1.2393194 -2.5528851 -0.16135329 0
1.39204 -2.5080953 -0.14902699 0
1.4469045 -2.5628703 -0.14767717 0
1.6376607 -2.5530677 -0.15343553 0
1.8861954 -2.5333362 -0.14926825 0
1.908 -2.562 -0.149 0
-5.3989501 -2.4973907 -0.11069208 0
1.0360656 -2.4500365 -0.16207911 0
1.2277075 -2.4718072 -0.15305701 0
1.3513668 -2.4325795 -0.15002249 0
1.43389 -2.4484665 -0.147955 0
1.5631618 -2.4420533 -0.15441363 0
1.8314759 -2.4614024 -0.14994143 0
0.97485554 -2.3287787 -0.16299595 0
1.0438824 -2.363467 -0.15918356 0
1.1719422 -2.3556294 -0.15453562 0
1.3511342 -2.3655596 -0.14999025 0
1.4886632 -2.3310387 -0.15539174 0
1.5511729 -2.3480523 -0.14497393 0
1.7493966 -2.353502 -0.15095119 0
1.8875072 -2.3059812 -0.14436397 0
1.9495595 -2.3806562 -0.14309108 0
0.94525927 -2.2382979 -0.16432658 0
1.01 -2.2839999 -0.16 0
1.1161768 -2.2394516 -0.15601425 0
1.2496834 -2.2437897 -0.15251124 0
1.3281025 -2.2624388 -0.15047374 0
1.4524649 -2.2554133 -0.15148932 0
1.5470634 -2.2629664 -0.14490047 0
1.6698766 -2.2268641 -0.14667071 0
1.8298953 -2.23665 -0.14554575 0
2.2180133 -2.2556944 -0.10717422 0
0.90980744 -2.1550384 -0.16366126 0
1.079 -2.1619999 -0.15700001 0
1.1886734 -2.1305161 -0.1540045 0
1.26463 -2.1508222 -0.151985 0
1.367919 -2.1337025 -0.1543349 0
1.4574804 -2.1646292 -0.14693286 0
1.5578781 -2.1017344 -0.1533073 0
1.6155041 -2.1597586 -0.14869615 0
1.7293768 -2.1623735 -0.14424334 0
2.0606811 -2.1564682 -0.13797466 0
2.1580067 -2.1928473 -0.12208711 0
2.3027029 -2.1344283 -0.11079708 0
0.87435555 -2.0717788 -0.16299595 0
1.164 -2.0285001 -0.15450001 0
1.2561574 -2.0557055 -0.15549625 0
1.329173 -2.0367191 -0.14997393 0
1.4050317 -2.0494831 -0.14795023 0
1.5290915 -2.0380251 -0.14853925 0
1.6458585 -2.037817 -0.14543125 0
1.7356389 -2.0761411 -0.14403607 0
1.8956351 -2.0145233 -0.1415392 0
1.9578395 -2.0804636 -0.14023159 0
2.1730001 -2.013 -0.13500001 0
2.2378514 -2.0737143 -0.12289855 0
0.70700002 -1.926 -0.162 0
0.82117778 -1.9468894 -0.16199797 0
1.285267 -1.9462628 -0.15443222 0
1.3256773 -1.9488277 -0.15231673 0
1.4570723 -1.948146 -0.15076637 0
1.5750372 -1.9578202 -0.14792287 0
1.6378969 -1.9231849 -0.14415246 0
1.7162515 -1.9733487 -0.14270735 0
1.8334308 -1.9485829 -0.14284679 0
-1.1331027 -1.8598233 -0.19816999 0
0.67696017 -1.8447586 -0.14740574 0
0.75450003 -1.85 -0.16150001 0
1.2545974 -1.8463542 -0.15258965 0
1.3589053 -1.8285189 -0.15390497 0
1.4607651 -1.8497725 -0.14848463 0
1.5375735 -1.8541903 -0.14789654 0
1.6055009 -1.8425658 -0.14413823 0
1.750711 -1.8515739 -0.14308107 0
1.8169999 -1.8594999 -0.13850001 0
-1.148 -1.7869999 -0.198 0
0.66216719 -1.7412114 -0.13209322 0
0.709207 -1.7984526 -0.14668746 0
1.1662519 -1.7484639 -0.15720695 0
1.2497904 -1.7438021 -0.15398984 0
1.3401356 -1.7322763 -0.14904775 0
1.4591098 -1.7324263 -0.1489134 0
1.5501257 -1.7771744 -0.14485368 0
1.6515369 -1.7410066 -0.14426041 0
1.7592933 -1.7580196 -0.13965204 0
1.849 -1.765 -0.138 0
0.58684069 -1.6010346 -0.103623 0
0.6312508 -1.6608169 -0.11713981 0
1.0938346 -1.6406426 -0.15680464 0
1.1749891 -1.640173 -0.15423429 0
1.2627507 -1.6668531 -0.1522401 0
1.3482634 -1.655061 -0.15101178 0
1.4211793 -1.6562369 -0.14723051 0
1.5615232 -1.6450042 -0.14603774 0
1.653326 -1.6269875 -0.14198913 0
1.7536654 -1.6362612 -0.13994549 0
1.8623608 -1.6696991 -0.13681588 0
2.1748955 -1.6173356 -0.13495091 0
2.2628865 -1.6819086 -0.13413939 0
0.61382806 -1.5598106 -0.10074984 0
1.0561645 -1.5487952 -0.15549138 0
1.1500655 -1.5669742 -0.15351872 0
1.2489879 -1.5487288 -0.15029413 0
1.3514948 -1.5663121 -0.15000001 0
1.4715092 -1.5490017 -0.14781509 0
1.5565432 -1.5492789 -0.14287229 0
1.6060573 -1.5428648 -0.14531077 0
1.7373749 -1.5459346 -0.13941014 0
1.8553548 -1.5393873 -0.13622986 0
1.9054999 -1.543 -0.1345 0
2.0291409 -1.5103722 -0.13629514 0
2.1020184 -1.5638539 -0.13562302 0
-5.4436831 -1.4273335 -0.11414026 0
0.97313911 -1.4609404 -0.1561341 0
1.059642 -1.4408782 -0.15459561 0
1.1599717 -1.4710124 -0.15181023 0
1.2542251 -1.4405677 -0.15129684 0
1.3662673 -1.4640776 -0.1495807 0
1.4600728 -1.4568152 -0.14600992 0
1.5663662 -1.4633045 -0.14417821 0
1.6592823 -1.4682804 -0.14165147 0
1.7397807 -1.4471278 -0.13987625 0
1.8591543 -1.4174552 -0.13599052 0
1.9577862 -1.4438705 -0.12882902 0
2.0691905 -1.4784423 -0.1010396 0
2.2428346 -1.4341726 -0.13119206 0
-5.3143864 -1.3940982 -0.13688022 0
-5.228188 -1.3719412 -0.15204018 0
-5.1419902 -1.3497844 -0.16720015 0
-5.0557919 -1.3276275 -0.18236013 0
-4.969594 -1.3054706 -0.19752009 0
0.97800004 -1.363 -0.15549999 0
1.0579906 -1.3380041 -0.15327007 0
1.1509554 -1.3729572 -0.1527843 0
1.2498503 -1.3407619 -0.14980432 0
1.3733872 -1.3443651 -0.14672711 0
1.460824 -1.3372759 -0.14703479 0
1.5553423 -1.3558353 -0.14407612 0
1.6398538 -1.3667519 -0.1429175 0
1.7465179 -1.3470112 -0.13766147 0
1.8379796 -1.343195 -0.13581809 0
1.9250001 -1.3583332 -0.13166666 0
2.0744092 -1.3279351 -0.13307653 0
2.1500392 -1.3756402 -0.13223033 0
0.99699998 -1.29 -0.154 0
1.0567782 -1.2406335 -0.1530371 0
1.1662152 -1.2495927 -0.15093926 0
1.2376646 -1.2662382 -0.14987254 0
1.3483374 -1.2571764 -0.14576627 0
1.4380001 -1.2243333 -0.149 0
1.5403526 -1.248183 -0.14383861 0
1.6522498 -1.2606837 -0.13998981 0
1.7561539 -1.273831 -0.13674606 0
1.8639059 -1.2526267 -0.13284491 0
1.9519762 -1.2559184 -0.13289724 0
2.0120523 -1.2382041 -0.11334215 0
2.1405778 -1.2328376 -0.13027607 0
2.2360001 -1.2869999 -0.12899999 0
1.043 -1.1670001 -0.153 0
1.1245549 -1.146746 -0.15129085 0
1.2312986 -1.1446536 -0.14764793 0
1.3613763 -1.1407998 -0.14947942 0
1.4237204 -1.1924998 -0.14909928 0
1.5528979 -1.1660496 -0.14178286 0
1.6504974 -1.1466963 -0.13991183 0
1.7528757 -1.156122 -0.13631581 0
1.8307179 -1.1653054 -0.13388918 0
1.9315238 -1.1575539 -0.12969019 0
2.0250623 -1.1672701 -0.13182086 0
1.0764999 -1.0455 -0.15099999 0
1.1435194 -1.0602614 -0.14905918 0
1.2678602 -1.0632498 -0.15004963 0
1.3493385 -1.0257299 -0.14760226 0
1.451121 -1.0754035 -0.1470008 0
1.5457394 -1.0481217 -0.14143558 0
1.6681175 -1.0663433 -0.1376732 0
1.7753639 -1.0531039 -0.13503467 0
1.857921 -1.0615383 -0.13224362 0
1.9476773 -1.0483804 -0.12799422 0
2.0658705 -1.0046397 -0.1314413 0
2.1451824 -1.042413 -0.13034818 0
2.2348313 -1.0637287 -0.1287517 0
3.3889999 -1.021 -0.105 0
3.474268 -1.0472695 -0.1036004 0
3.559536 -1.0735389 -0.1022008 0
3.644804 -1.0998083 -0.10080119 0
1.1584803 -0.94187427 -0.15007351 0
1.2531935 -0.95384562 -0.14820129 0
1.461 -0.93449998 -0.1445 0
1.5512538 -0.94082355 -0.1408871 0
1.6453441 -0.9595663 -0.13852529 0
1.7525735 -0.96490979 -0.13438317 0
1.8605891 -0.97376388 -0.13096116 0
1.9630432 -0.9369598 -0.1333764 0
2.0765445 -0.95090652 -0.13196187 0
2.1577652 -0.98689318 -0.12995642 0
1.125 -0.85799998 -0.149 0
1.478 -0.866 -0.146 0
1.5693588 -0.84107637 -0.14059612 0
1.6528738 -0.83603942 -0.13814567 0
1.7371464 -0.85198832 -0.13745804 0
1.8304089 -0.86713326 -0.13634942 0
1.9141033 -0.87893325 -0.13597277 0
2.0418615 -0.82142574 -0.13233012 0
2.1715736 -0.84299743 -0.12874874 0
2.2390604 -0.85462666 -0.12450244 0
2.3546479 -0.84183961 -0.11035668 0
2.4749706 -0.80135924 -0.10638229 0
3.5247738 -0.80199438 -0.10280038 0
3.6519346 -0.82898605 -0.10100093 0
1.487 -0.778 -0.145 0
1.5896103 -0.75649333 -0.14099728 0
1.6704413 -0.77097332 -0.1419891 0
1.7533207 -0.70865804 -0.13915236 0
1.835761 -0.74087739 -0.13720314 0
1.923671 -0.74924833 -0.13503048 0
2.0512667 -0.74258739 -0.13164735 0
2.1849828 -0.73172832 -0.12870401 0
2.2205 -0.74349999 -0.12800001 0
2.3474853 -0.75767958 -0.11719115 0
3.4400001 -0.78399998 -0.104 0
1.5500671 -0.63987482 -0.14445305 0
1.6757684 -0.65549934 -0.14131218 0
1.7600846 -0.63969415 -0.13883725 0
1.850873 -0.64715588 -0.13562207 0
1.9361105 -0.65031248 -0.13335875 0
2.0307665 -0.65480548 -0.13083377 0
2.1131198 -0.68056661 -0.12960054 0
1.5432072 -0.54198968 -0.14334294 0
1.6309144 -0.5404793 -0.13793589 0
1.7608782 -0.54356688 -0.13414527 0
1.8759087 -0.5168426 -0.13155337 0
1.958497 -0.53908879 -0.12980986 0
2.0345216 -0.54014629 -0.12877734 0
2.1458924 -0.5456422 -0.12819949 0
2.2076151 -0.5981077 -0.12805182 0
1.4835 -0.43450001 -0.1425 0
1.538257 -0.44642925 -0.14189541 0
1.6200076 -0.44060573 -0.13720448 0
1.7505175 -0.45181784 -0.1341912 0
1.8726996 -0.43609202 -0.13113995 0
1.9558587 -0.4548099 -0.12946458 0
2.027195 -0.43748307 -0.12790376 0
2.1496756 -0.44948474 -0.12751338 0
2.2521815 -0.40013039 -0.1215336 0
2.3319087 -0.41284052 -0.12037814 0
2.419318 -0.42677534 -0.11911134 0
1.4846667 -0.34800002 -0.142 0
1.5533521 -0.34293148 -0.13877931 0
1.6364638 -0.34286281 -0.1354579 0
1.7528605 -0.35741916 -0.13361256 0
1.8582935 -0.34041861 -0.13157587 0
1.9497994 -0.3434248 -0.12886232 0
2.0335605 -0.34527221 -0.12575568 0
2.1423769 -0.36202872 -0.12504052 0
2.2270439 -0.33993137 -0.12207448 0
2.3196931 -0.3278316 -0.11966585 0
2.4054673 -0.33971864 -0.1180385 0
1.4626666 -0.26066664 -0.14066668 0
1.5440984 -0.24963124 -0.14090563 0
1.6448131 -0.25050098 -0.13537008 0
1.7633559 -0.25674489 -0.13206673 0
1.8614743 -0.26059756 -0.12924469 0
1.9738506 -0.23963854 -0.12536496 0
2.0440037 -0.25634643 -0.12334937 0
2.1615148 -0.25738573 -0.12139748 0
2.2410223 -0.26607859 -0.12009622 0
2.3542902 -0.25125781 -0.11767167 0
1.4436668 -0.15100001 -0.13966666 0
1.5438194 -0.15851542 -0.13864718 0
1.6401201 -0.14400508 -0.13512745 0
1.7604597 -0.15336852 -0.1317035 0
1.8605727 -0.12630494 -0.12970012 0
1.9425783 -0.12197911 -0.12892802 0
2.0294514 -0.12784474 -0.12682045 0
2.1223886 -0.14665952 -0.12482847 0
2.2515399 -0.15030409 -0.12002126 0
2.3518093 -0.17699678 -0.11758414 0
1.4466569 -0.037059657 -0.13927747 0
1.5578083 -0.058215186 -0.13672288 0
1.6740954 -0.06195467 -0.13427882 0
1.7596208 -0.054191291 -0.13269024 0
1.8465294 -0.057478249 -0.13065086 0
1.9476169 -0.051377486 -0.1259004 0
2.045778 -0.055871919 -0.1247255 0
2.1445374 -0.045231551 -0.12089545 0
2.2614632 -0.066079013 -0.11844638 0
2.3425 -0.059999999 -0.117 0
1.416 0.039500002 -0.13949999 0
1.5448091 0.043461118 -0.13633227 0
1.6736182 0.047422234 -0.13316455 0
1.759491 0.050062981 -0.13105275 0
1.8453636 0.052703723 -0.12894094 0
1.9401183 0.048422236 -0.12466456 0
2.0257871 0.056725971 -0.12359546 0
2.1445413 0.043706812 -0.11923561 0
2.2618661 0.045030903 -0.11727698 0
2.3085001 0.045499999 -0.1165 0
1.3895 0.17399999 -0.13949999 0
1.4534868 0.13902883 -0.13811237 0
1.5649602 0.15408649 -0.13483708 0
1.6496903 0.16112971 -0.13250563 0
1.7344203 0.16817296 -0.13017416 0
1.8439107 0.18254228 -0.12613873 0
1.9248323 0.15758109 -0.12382292 0
2.0364347 0.15035631 -0.12249657 0
2.1672778 0.14371301 -0.11881956 0
2.2636852 0.14855868 -0.11729637 0
3.457 0.17299999 -0.102 0
1.3665 0.255 -0.13949999 0
1.4576044 0.23195347 -0.14002597 0
1.5398977 0.24580181 -0.13715886 0
1.6470709 0.24416709 -0.13347673 0
1.7535648 0.26543874 -0.13012426 0
1.8726431 0.27614352 -0.12552214 0
1.9595942 0.26470035 -0.12241663 0
2.0605898 0.25893235 -0.11966682 0
2.1368847 0.26639852 -0.11850023 0
2.2240896 0.27493232 -0.11716682 0
1.335 0.35100001 -0.139 0
1.4204775 0.35160962 -0.13839036 0
1.5139328 0.3563289 -0.13567111 0
1.6463107 0.33498663 -0.13278428 0
1.7687044 0.36059535 -0.12847225 0
1.86115 0.37633389 -0.12379879 0
1.952071 0.34874165 -0.12337591 0
2.0327244 0.35181853 -0.11958491 0
2.1592884 0.31967342 -0.11791582 0
2.2190001 0.32699999 -0.117 0
1.3567429 0.45652011 -0.13846231 0
1.4677122 0.43674636 -0.13666932 0
1.5580739 0.44454658 -0.13345484 0
1.6505868 0.43916705 -0.13098146 0
1.7513281 0.4708252 -0.12676175 0
1.8638728 0.48015431 -0.12768722 0
1.929 0.40099999 -0.126 0
2.0944259 0.40944982 -0.11825545 0
2.1687839 0.42096657 -0.11700363 0
3.378 0.40400001 -0.101 0
1.2539999 0.55149996 -0.13850001 0
1.3459413 0.54252541 -0.13837303 0
1.4486283 0.55051672 -0.13467239 0
1.5423504 0.57459855 -0.1314854 0
1.6539181 0.55852044 -0.12776937 0
1.7802191 0.58101374 -0.1226411 0
1.8490281 0.50624245 -0.12165049 0
1.9691687 0.53245497 -0.11990301 0
2.0412529 0.54818249 -0.1188545 0
2.0999999 0.56099999 -0.118 0
-2.2195001 0.67500001 -0.19850001 0
-2.1501229 0.65586507 -0.19871622 0
-2.0466666 0.65333337 -0.19866668 0
-1.5322351 0.68740666 -0.1897271 0
-1.4526176 0.65020335 -0.18936355 0
-1.357 0.64549994 -0.18849999 0
1.2509239 0.66148567 -0.13690493 0
1.3364578 0.65594476 -0.13768618 0
1.4409008 0.64592028 -0.13465439 0
1.5572827 0.63682675 -0.13147543 0
1.6585294 0.64879543 -0.12823065 0
1.7649578 0.64722019 -0.12427323 0
1.8185458 0.68091518 -0.12594882 0
1.9565939 0.67486393 -0.12011607 0
2.023 0.69300002 -0.119 0
-2.1408935 0.76387602 -0.19662005 0
-2.0633934 0.73837602 -0.19712004 0
-1.9760001 0.76199996 -0.1965 0
-1.771088 0.79901677 -0.19081776 0
-1.6516616 0.74321175 -0.19027242 0
-1.5739083 0.79984045 -0.18874292 0
-1.4574542 0.73892021 -0.18837145 0
-1.3377136 0.78002071 -0.18468983 0
-1.2970001 0.736 -0.185 0
1.1609999 0.74566668 -0.138 0
1.2581182 0.75201446 -0.13701054 0
1.3602469 0.73979229 -0.13518564 0
1.4441117 0.75059909 -0.13276254 0
1.5437355 0.76593471 -0.13038023 0
1.6383529 0.756603 -0.12542875 0
1.7218615 0.7467227 -0.12298987 0
1.8613932 0.72602785 -0.12533069 0
1.9518933 0.76802778 -0.12133068 0
3.3269999 0.70999998 -0.102 0
-2.0631871 0.84377462 -0.19435564 0
-1.9556277 0.86151779 -0.19407171 0
-1.8713528 0.84911007 -0.19209066 0
-1.7291806 0.8810674 -0.18923821 0
-1.6515446 0.84045392 -0.18899056 0
-1.5232817 0.86812413 -0.186139 0
-1.4491411 0.84757841 -0.18528029 0
-1.3528671 0.85701489 -0.18446827 0
-1.251 0.84933329 -0.18300001 0
1.0785 0.87 -0.1365 0
1.1599053 0.84470469 -0.1349052 0
1.239552 0.85410821 -0.13560896 0
1.338208 0.84645194 -0.13285112 0
1.4684243 0.84732246 -0.13022384 0
1.5747013 0.855331 -0.12768428 0
1.6740996 0.84986067 -0.12501612 0
1.7509816 0.85784954 -0.12378789 0
1.8585691 0.87151074 -0.12076338 0
1.9534602 0.89951813 -0.10978805 0
-2.1250682 0.97085053 -0.19940297 0
-2.0233297 0.9327985 -0.19329426 0
-1.9496713 0.94087493 -0.19240525 0
-1.8425674 0.94349384 -0.19105484 0
-1.674136 0.95620692 -0.18689834 0
-1.5713578 0.94650239 -0.18569639 0
-1.4488591 0.94438457 -0.18450524 0
-1.2685516 0.96266276 -0.18107091 0
-1.1656666 0.95266658 -0.18033333 0
1.0516381 0.9605276 -0.13525097 0
1.1418101 0.9411484 -0.13533464 0
1.2383386 0.96164793 -0.13330053 0
1.3558327 0.94546211 -0.13162205 0
1.4337257 0.94642752 -0.12980454 0
1.5258595 0.95206821 -0.12723218 0
1.6351538 0.93535966 -0.12465315 0
1.7437706 0.94251776 -0.11965409 0
1.8465185 0.9479754 -0.11659616 0
1.9374049 0.96443367 -0.1117277 0
2.0305417 0.96406078 -0.10849492 0
2.1171002 0.97319692 -0.10164675 0
3.29 0.94400001 -0.104 0
3.3730502 0.96302927 -0.10119724 0
-1.942449 1.0219557 -0.1895885 0
-1.8498354 1.0595018 -0.18828712 0
-1.7362336 1.0496494 -0.1872189 0
-1.6430019 1.0450746 -0.185008 0
-1.5488238 1.0369462 -0.18355413 0
-1.4207475 1.052524 -0.18085372 0
-1.3409721 1.0437014 -0.18078613 0
-1.2376093 1.0454317 -0.17956996 0
-1.1400188 1.0429572 -0.17866667 0
-1.052 1.096 -0.178 0
0.97900003 1.0313333 -0.13699999 0
1.0557001 1.0634339 -0.13595417 0
1.1276227 1.045689 -0.13520858 0
1.2569745 1.0401334 -0.13206026 0
1.3619127 1.0477257 -0.13070755 0
1.4574097 1.0504456 -0.12799931 0
1.5662371 1.0521994 -0.12536706 0
1.6475866 1.0290747 -0.12851742 0
1.767 1.052 -0.123 0
1.8557886 1.050481 -0.1150078 0
1.9534186 1.0501901 -0.10517732 0
2.0433168 1.0263439 -0.10403802 0
2.1274455 1.0134224 -0.11538572 0
2.2454791 1.0723491 -0.11160143 0
-1.955886 1.1939393 -0.19306532 0
-1.8414716 1.1319848 -0.18876633 0
-1.7744035 1.1705179 -0.1843431 0
-1.6686893 1.1603316 -0.18536015 0
-1.5407583 1.1713139 -0.18135455 0
-1.459884 1.1369022 -0.18071516 0
-1.3403722 1.1502038 -0.17899962 0
-1.2393732 1.1433817 -0.17854324 0
-1.1369004 1.1282712 -0.17861679 0
-1.0498065 1.1460283 -0.17407662 0
-0.97200006 1.1706667 -0.17433333 0
0.88099998 1.184 -0.138 0
0.94069195 1.1408136 -0.13671483 0
1.049292 1.1522512 -0.13701703 0
1.1474617 1.1456056 -0.13372482 0
1.2402459 1.1528285 -0.13202558 0
1.3510046 1.1427865 -0.12867463 0
1.4611583 1.1508124 -0.12726973 0
1.546286 1.1201373 -0.12729789 0
1.6294384 1.1290257 -0.12808882 0
1.7311114 1.1406751 -0.12712368 0
1.835519 1.1494479 -0.12610461 0
1.9396296 1.1760392 -0.12287883 0
2.0421882 1.1406078 -0.10380074 0
2.3762562 1.137638 -0.10740858 0
-2.0638289 1.2629091 -0.19459797 0
-1.7343321 1.2245755 -0.18324926 0
-1.6600084 1.2641555 -0.18212406 0
-1.5536953 1.2414417 -0.1811834 0
-1.4365288 1.2533966 -0.17889857 0
-1.3642462 1.2582635 -0.17808646 0
-1.2577012 1.2468138 -0.1778504 0
-1.1387888 1.2423787 -0.17568684 0
-1.0545205 1.2475826 -0.17405306 0
-0.9598155 1.2531736 -0.17138682 0
-0.861 1.266 -0.169 0
0.86406296 1.2541443 -0.13906772 0
0.93915188 1.2433372 -0.13694766 0
1.0396045 1.2564334 -0.13641502 0
1.1611702 1.235918 -0.13451184 0
1.271193 1.2681081 -0.13057505 0
1.3397824 1.2336413 -0.1305443 0
1.4365948 1.2385114 -0.12566637 0
1.5430654 1.2582556 -0.12800705 0
1.6672875 1.2140987 -0.1273831 0
1.7563732 1.2488627 -0.12642056 0
1.8467537 1.2821032 -0.1253553 0
1.9858649 1.2457465 -0.12417434 0
2.0636976 1.263556 -0.12210341 0
2.1411967 1.2785205 -0.12049702 0
-2.233 1.3710001 -0.197 0
-2.171772 1.3318787 -0.19613063 0
-1.7574971 1.3848199 -0.18713276 0
-1.6588323 1.3301066 -0.18304425 0
-1.5429689 1.3565294 -0.17853263 0
-1.4409912 1.3610557 -0.17748776 0
-1.3469208 1.3986616 -0.17645186 0
-1.2539109 1.3660908 -0.17537369 0
-1.150138 1.3475897 -0.17412797 0
-1.0344464 1.337521 -0.17216048 0
-0.90911293 1.333993 -0.16916706 0
-0.82433403 1.3429871 -0.16708492 0
-0.74500006 1.3593334 -0.16633333 0
0.45450002 1.3485 -0.14649999 0
0.50777888 1.3852084 -0.14569569 0
0.85866213 1.3454932 -0.14123417 0
0.93206984 1.3385611 -0.13791938 0
1.0343207 1.3517851 -0.13529129 0
1.1505904 1.3428196 -0.13316567 0
1.2453043 1.3538604 -0.13169438 0
1.3537858 1.3511484 -0.12773383 0
1.4335573 1.3580565 -0.13064806 0
1.5374377 1.3572967 -0.12845787 0
1.6502249 1.3571517 -0.12674327 0
1.7347587 1.3936642 -0.12605126 0
1.8451469 1.3454721 -0.12536196 0
1.9554113 1.3586419 -0.12398854 0
2.1362109 1.3420451 -0.12224408 0
2.2394316 1.3610492 -0.12025706 0
3.0810001 1.364 -0.106 0
3.1652987 1.3972511 -0.10440769 0
-1.8577456 1.4682298 -0.18869916 0
-1.507 1.423 -0.177 0
-1.4194524 1.473097 -0.17607111 0
-1.3378708 1.4563103 -0.17484275 0
-1.2619444 1.4760886 -0.1741104 0
-1.1562507 1.4553695 -0.17275728 0
-1.0373487 1.4425292 -0.17023146 0
-0.9572258 1.4019858 -0.16933411 0
-0.84454727 1.4507093 -0.16791655 0
-0.76702249 1.4359219 -0.16610661 0
-0.65823483 1.4637313 -0.16426164 0
-0.59899998 1.489 -0.163 0
0.34399998 1.462 -0.149 0
0.45200327 1.440932 -0.147 0
0.5345577 1.4494168 -0.14539139 0
0.93934947 1.4316062 -0.1379171 0
1.0473427 1.4528391 -0.13508606 0
1.1463385 1.4532304 -0.13256417 0
1.2705579 1.4513918 -0.13012108 0
1.3560431 1.4424909 -0.13039717 0
1.4651849 1.4616448 -0.12631527 0
1.5743918 1.4567325 -0.12835872 0
1.7338214 1.4602081 -0.12554717 0
1.8029484 1.4488304 -0.12531407 0
1.9518626 1.4242961 -0.12414929 0
2.0435376 1.456013 -0.12298131 0
2.1365073 1.4862064 -0.1217106 0
2.2865567 1.4383438 -0.12031382 0
2.3380001 1.434 -0.1195 0
3.2495973 1.4305022 -0.10281538 0
3.3338959 1.4637533 -0.10122307 0
-1.9579941 1.5516397 -0.19026554 0
-1.351629 1.5422189 -0.17427999 0
-1.2576261 1.5551029 -0.17339461 0
-1.1436138 1.5618249 -0.17329848 0
-1.0412259 1.5609858 -0.17133412 0
-0.95005918 1.5680528 -0.16835861 0
-0.85867041 1.555512 -0.16801828 0
-0.75626099 1.5405955 -0.16604245 0
-0.64487505 1.5497134 -0.16381723 0
-0.55621898 1.5490851 -0.16352043 0
-0.46900001 1.5880001 -0.161 0
0.182 1.597 -0.15099999 0
0.249 1.545 -0.15000001 0
0.36336499 1.5388913 -0.149 0
0.44577259 1.5449539 -0.14750001 0
0.53408659 1.5508553 -0.14602177 0
0.79500002 1.584 -0.141 0
0.87302876 1.5519269 -0.14021873 0
0.96697295 1.5079594 -0.13740501 0
1.0454661 1.5748082 -0.13455611 0
1.1398833 1.5406481 -0.13229935 0
1.2385246 1.5514526 -0.13081147 0
1.336356 1.5529486 -0.12870783 0
1.4458498 1.5602093 -0.12858564 0
1.5414267 1.5354356 -0.12594296 0
1.6312919 1.5446904 -0.12713689 0
1.7079324 1.5800846 -0.12617549 0
1.8524499 1.5243036 -0.12448655 0
1.9393277 1.5591625 -0.1238397 0
2.0941501 1.5293949 -0.12253238 0
2.1670001 1.5450001 -0.1215 0
-2.1404436 1.6970314 -0.19188975 0
-2.0542755 1.6317488 -0.19176994 0
-1.2452393 1.6157198 -0.17230783 0
-1.1397864 1.6608858 -0.17007005 0
-1.0605272 1.656485 -0.16960372 0
-0.92200005 1.6215 -0.16949999 0
-0.87597692 1.6283844 -0.16791137 0
-0.76855671 1.6567907 -0.16667736 0
-0.64869499 1.6462618 -0.16448221 0
-0.54941386 1.6535988 -0.16318016 0
-0.44758332 1.6543945 -0.16150001 0
-0.347 1.675 -0.1595 0
0.15039034 1.6424016 -0.15085511 0
0.26170647 1.6250318 -0.14962071 0
0.34992126 1.6475214 -0.15000001 0
0.43680793 1.660066 -0.148 0
0.76800001 1.626 -0.141 0
0.85443163 1.6773244 -0.13899177 0
0.96405751 1.6488537 -0.13643748 0
1.04888 1.6321505 -0.13471234 0
1.1266007 1.6405197 -0.13257633 0
1.2394594 1.6486368 -0.12986346 0
1.3605113 1.6419132 -0.12849547 0
1.4523745 1.6629757 -0.1263617 0
1.5499607 1.6473027 -0.12678272 0
1.6553397 1.6527991 -0.12291817 0
1.7631147 1.6691129 -0.12479611 0
1.9276944 1.6239395 -0.12331446 0
2.0122585 1.6181643 -0.12305126 0
-2.2118869 1.7500627 -0.19177949 0
-1.1567433 1.7717305 -0.16811568 0
-1.0650001 1.72 -0.168 0
-0.97600001 1.757 -0.16599999 0
-0.73071003 1.7395725 -0.16414589 0
-0.64713782 1.7524996 -0.16409984 0
-0.56559932 1.7463435 -0.16303059 0
-0.45775726 1.7617204 -0.1613539 0
-0.34746829 1.7640967 -0.15950537 0
-0.29100001 1.709 -0.15899999 0
-0.175 1.77 -0.15700001 0
0.048 1.784 -0.152 0
0.13488135 1.7484348 -0.15084164 0
0.24446863 1.730392 -0.14955853 0
0.36738187 1.7252822 -0.15000001 0
0.46603864 1.764544 -0.148 0
0.755 1.747 -0.141 0
0.83785039 1.7430445 -0.13950063 0
0.94422239 1.7518311 -0.13646895 0
1.0622869 1.7371984 -0.13299143 0
1.1469747 1.7266607 -0.13219136 0
1.235328 1.7628698 -0.13041475 0
1.3498056 1.7427475 -0.1280582 0
1.4279871 1.7822452 -0.12663907 0
1.5270557 1.748642 -0.12524875 0
1.6303526 1.7596983 -0.12561694 0
1.7347183 1.73606 -0.12271953 0
1.841 1.7029999 -0.124 0
-2.354774 1.8561255 -0.19155899 0
-2.2833304 1.8030941 -0.19166924 0
-1.506 1.89 -0.175 0
-1.2064866 1.8454611 -0.16723135 0
-1.0205094 1.835192 -0.16529827 0
-0.79595017 1.8742268 -0.16288406 0
-0.66767746 1.8663135 -0.16289534 0
-0.53710037 1.8306675 -0.161 0
-0.43401057 1.8844849 -0.16020781 0
-0.35899162 1.8258198 -0.15947586 0
-0.23899999 1.839 -0.15800001 0
-0.15380687 1.8563045 -0.15571773 0
-0.050500002 1.839 -0.154 0
0.035996176 1.8593372 -0.15194881 0
0.13129012 1.8604171 -0.15079872 0
0.29982591 1.8651272 -0.14848281 0
0.38484251 1.8030429 -0.15000001 0
0.40099999 1.875 -0.15000001 0
0.79019666 1.8215959 -0.13994935 0
0.85010904 1.879014 -0.13871676 0
0.93652898 1.8502477 -0.13671191 0
1.0499181 1.846085 -0.13279486 0
1.144747 1.8258758 -0.13169692 0
1.2531166 1.8554013 -0.13001972 0
1.3643205 1.8527825 -0.12781577 0
1.4436157 1.8451668 -0.12619969 0
1.5585848 1.8108873 -0.123601 0
1.6256037 1.8821298 -0.12004239 0
1.8337488 1.8475462 -0.11713509 0
-2.4619393 1.9356725 -0.19139361 0
-1.844 1.961 -0.184 0
-1.788 1.995 -0.18099999 0
-1.5631566 1.9600288 -0.17538424 0
-1.3059732 1.9929224 -0.1654627 0
-1.2286149 1.9250959 -0.16817352 0
-1.1095279 1.9915761 -0.16389482 0
-1.0460093 1.927192 -0.16579828 0
-0.91399997 1.943 -0.16599999 0
-0.82954019 1.9564722 -0.16266087 0
-0.73833311 1.9472686 -0.16403931 0
-0.6737774 1.9589965 -0.16190973 0
-0.57115054 1.9520013 -0.161 0
-0.43556497 1.9537643 -0.16040693 0
-0.33006787 1.9434074 -0.15804712 0
-0.24906045 1.9277247 -0.1571438 0
-0.16106419 1.946227 -0.15537308 0
-0.052458689 1.9291234 -0.1539492 0
0.038255226 1.948916 -0.15189762 0
0.14258213 1.9257793 -0.1504858 0
0.3142662 1.9560795 -0.14805177 0
0.86059004 1.9707879 -0.13784806 0
0.96285528 1.9399983 -0.13583574 0
1.0632172 1.9707628 -0.13206336 0
1.1547346 1.9469389 -0.12995158 0
1.2424299 1.9335538 -0.12976827 0
1.3157321 1.9334023 -0.12701884 0
1.4612888 1.9464437 -0.12430543 0
1.5359886 1.9550563 -0.12243579 0
1.6820376 1.9484848 -0.11888279 0
1.725 1.999 -0.118 0
1.9442493 1.9608278 -0.11528106 0
-2.640548 2.0682509 -0.19111799 0
-2.5691044 2.0152194 -0.19122824 0
-1.9382758 2.0595055 -0.18536434 0
-1.8454508 2.0639408 -0.18110259 0
-1.766 2.0680001 -0.182 0
-1.6203132 2.0300574 -0.17576849 0
-1.3557165 2.066653 -0.16457838 0
-1.2698638 2.0393686 -0.16805714 0
-1.131753 2.0835552 -0.16416733 0
-1.0682343 2.019171 -0.16607077 0
-0.95314509 2.0230348 -0.16643615 0
-0.86313021 2.0387175 -0.16243768 0
-0.74667525 2.0339539 -0.16318436 0
-0.6090669 2.0871117 -0.161 0
-0.46339786 2.0303502 -0.160188 0
-0.34771854 2.0431287 -0.15747605 0
-0.23119134 2.0265946 -0.1553736 0
-0.15085138 2.0358539 -0.15531278 0
-0.064903185 2.0452538 -0.15393226 0
0.040514275 2.0384951 -0.15184644 0
0.13572446 2.0248821 -0.15056461 0
0.8957867 2.0453839 -0.13679741 0
0.96384525 2.0583663 -0.13648051 0
1.056847 2.0491326 -0.13234286 0
1.1342013 2.0464878 -0.13003114 0
1.2325001 2.0539999 -0.12799999 0
1.3812392 2.0270414 -0.1254113 0
1.5463823 2.0275774 -0.12245551 0
-2.7144957 2.1231413 -0.19100386 0
-2.0325518 2.1580107 -0.18672869 0
-1.9029014 2.1328816 -0.18120517 0
-1.825575 2.1358924 -0.1828704 0
-1.746761 2.1602693 -0.17975299 0
-1.6774697 2.1000862 -0.17615274 0
-1.4054598 2.1403837 -0.16369405 0
-1.3387276 2.1477375 -0.16611427 0
-1.1746248 2.1617367 -0.16335185 0
-1.0314354 2.1831045 -0.16730846 0
-0.9922902 2.1030698 -0.16687231 0
-0.86135352 2.1234031 -0.1639743 0
-0.75890523 2.1323369 -0.16159593 0
-0.635535 2.1810226 -0.16138336 0
-0.51416367 2.1309085 -0.16021565 0
-0.4613021 2.1529038 -0.16025802 0
-0.36343709 2.1312573 -0.1569521 0
-0.25370184 2.1415756 -0.15453978 0
-0.1570271 2.1262808 -0.15521917 0
-0.057521861 2.1545815 -0.15384758 0
0.042773329 2.1280737 -0.15179527 0
0.14207573 2.1135952 -0.15040055 0
0.9434917 2.1464901 -0.13537338 0
1.03865 2.1554127 -0.13456634 0
-2.1582532 2.2893512 -0.1885478 0
-2.0566027 2.2472222 -0.1845243 0
-1.9525385 2.2367496 -0.1829595 0
-1.8622317 2.2310853 -0.18309242 0
-1.7917829 2.2401438 -0.17692123 0
-1.6438192 2.2695982 -0.17832035 0
-1.5049464 2.2878449 -0.16192541 0
-1.4428746 2.2531717 -0.16316676 0
-1.3846369 2.2199833 -0.16481902 0
-1.2430558 2.2261522 -0.16178966 0
-1.1694686 2.2583423 -0.16314155 0
-1.0362902 2.2445698 -0.16487232 0
-0.94115639 2.227747 -0.16227351 0
-0.87622678 2.2524757 -0.16628468 0
-0.66007006 2.2680454 -0.16176672 0
-0.53432733 2.2178171 -0.16043131 0
-0.49121267 2.2845097 -0.15996507 0
-0.37915564 2.2193859 -0.15642814 0
-0.25570261 2.2485952 -0.1532425 0
-0.15470889 2.2434733 -0.15492676 0
-0.059480548 2.2447047 -0.15379678 0
0.037564512 2.242574 -0.15182938 0
0.15160263 2.246665 -0.15015446 0
1.0605 2.2014999 -0.134 0
-2.2211037 2.3550215 -0.18945737 0
-2.0397766 2.3396366 -0.18349731 0
-1.9303613 2.3879867 -0.18078884 0
-1.8729547 2.3186257 -0.18023573 0
-1.743915 2.3625894 -0.17992203 0
-1.6410683 2.3511417 -0.17519024 0
-1.5578966 2.3581917 -0.16634703 0
-1.4504073 2.3785563 -0.16316316 0
-1.3540373 2.3502684 -0.1611931 0
-1.2603686 2.3180997 -0.1617209 0
-1.1494567 2.3428197 -0.16624174 0
-1.0353717 2.3506405 -0.16361926 0
-0.92646676 2.3791082 -0.16683526 0
-0.68460506 2.355068 -0.16215008 0
-0.5378629 2.3602133 -0.16026227 0
-0.41059273 2.3956432 -0.15538025 0
-0.39487416 2.3075147 -0.1559042 0
-0.24321656 2.3461218 -0.15284729 0
-0.14346534 2.3874054 -0.15443499 0
-0.051544372 2.3535337 -0.15362744 0
0.047554314 2.3519731 -0.1516929 0
0.16112953 2.3797345 -0.14990836 0
-2.3468051 2.486362 -0.19127649 0
-2.2839544 2.4206917 -0.19036692 0
-2.1487696 2.4538615 -0.18351871 0
-2.038079 2.4359629 -0.18548101 0
-1.9632524 2.4502301 -0.17807397 0
-1.7511861 2.443192 -0.17544153 0
-1.6500756 2.4390557 -0.17620628 0
-1.52 2.4330001 -0.161 0
-1.472719 2.467274 -0.16619557 0
-1.3461121 2.4744627 -0.16008994 0
-1.2528908 2.4159784 -0.16351503 0
-1.1255238 2.4413247 -0.16691682 0
-1.0384072 2.4497221 -0.16446166 0
-0.9599601 2.4635298 -0.16720231 0
-0.70914006 2.4420907 -0.16253345 0
-0.55233502 2.4661703 -0.16007572 0
-0.42631125 2.4837718 -0.15485629 0
-0.30942324 2.460073 -0.15200654 0
-0.22408597 2.4623992 -0.15367197 0
-0.14920956 2.4778061 -0.15434083 0
-0.06421081 2.4698637 -0.15364435 0
0.049813364 2.4415519 -0.1516417 0
0.1674808 2.4684477 -0.1497443 0
-2.4096556 2.5520322 -0.19218604 0
-2.2476058 2.5465269 -0.18182072 0
-2.1830244 2.5432456 -0.18809289 0
-2.0559716 2.5479014 -0.18087755 0
-1.9072874 2.5749736 -0.18280508 0
-1.8528298 2.5041788 -0.18184406 0
-1.7130899 2.5628834 -0.17923836 0
-1.5210783 2.5419109 -0.16829336 0
-1.436272 2.543376 -0.16861789 0
-1.336313 2.5736151 -0.16388851 0
-1.2503622 2.5423374 -0.1681987 0
-1.1617925 2.5202487 -0.16767102 0
-1.0748763 2.5329626 -0.16528222 0
-0.9934535 2.5479515 -0.16756935 0
-0.73367506 2.5291133 -0.16291679 0
-0.61498195 2.5654516 -0.16129392 0
-0.55103385 2.5477209 -0.15937914 0
-0.44202983 2.5719006 -0.15433234 0
-0.3194837 2.5487978 -0.15115033 0
-0.24032131 2.5794225 -0.1523172 0
-0.15495378 2.568207 -0.15424666 0
-0.066169493 2.5599871 -0.15359356 0
0.062691994 2.5511103 -0.15141992 0
0.14426939 2.5561185 -0.15009099 0
0.20469737 2.5726016 -0.14903474 0
-2.5350001 2.6830001 -0.19400001 0
-2.4725063 2.6177025 -0.19309561 0
-2.3184104 2.6538324 -0.18458568 0
-2.2425995 2.6111379 -0.18896331 0
-2.1379499 2.6304646 -0.18394332 0
-1.9617448 2.6457682 -0.1837661 0
-1.7634532 2.6345112 -0.1799845 0
-1.6177973 2.6911848 -0.17248891 0
-1.540535 2.6364021 -0.1725492 0
-1.3699694 2.6371634 -0.16425678 0
-1.24722 2.6777313 -0.16945295 0
-1.1427072 2.6435711 -0.16679575 0
-1.0269468 2.6323731 -0.1679364 0
-0.75821012 2.6161361 -0.16330016 0
-0.6351456 2.6523602 -0.16150957 0
-0.57097417 2.635458 -0.15918383 0
-0.45774835 2.6600292 -0.15380839 0
-0.3312721 2.6527612 -0.15014707 0
-0.24573226 2.6445389 -0.15208124 0
-0.160698 2.658608 -0.1541525 0
-0.068128183 2.6501105 -0.15354276 0
0.045577262 2.6687834 -0.15166666 0
0.148 2.6270001 -0.15000001 0
-2.3718748 2.758461 -0.19085208 0
-2.2629552 2.7631183 -0.18774898 0
-2.0434308 2.7519603 -0.18520761 0
-1.8389982 2.7419529 -0.18110368 0
-1.6661566 2.7658217 -0.1745867 0
-1.556448 2.7293849 -0.17556091 0
-1.4001267 2.7397921 -0.17081626 0
-1.22 2.734 -0.169 0
-1.1842835 2.7826846 -0.16774388 0
-1.0604402 2.7167947 -0.16830346 0
-0.80728012 2.7901812 -0.16406688 0
-0.78274512 2.7031586 -0.16368352 0
-0.65530926 2.7392688 -0.16172524 0
-0.59360969 2.7474632 -0.15999235 0
-0.47773346 2.772079 -0.15314221 0
-0.2340717 2.769531 -0.15506941 0
-0.12378607 2.7507451 -0.15401943 0
-0.037999999 2.7360001 -0.153 0
-2.1350586 2.8710761 -0.18682456 0
-1.9145432 2.8493948 -0.18222286 0
-1.7145162 2.8404586 -0.17668448 0
-1.623672 2.8390775 -0.17684138 0
-1.4634082 2.8589902 -0.17277032 0
-1.2207526 2.8659253 -0.16856444 0
-1.124 2.8770001 -0.169 0
-1.0939336 2.8012164 -0.16867051 0
-0.83181512 2.8772039 -0.16445024 0
-0.6535821 2.8454647 -0.15864542 0
-0.23899999 2.8369999 -0.155 0
-0.17 2.8050001 -0.154 0
-1.9659532 2.9225111 -0.1829845 0
-1.8126175 2.9918661 -0.18094003 0
-1.7628756 2.9150956 -0.17878227 0
-1.690896 2.94877 -0.17812183 0
-1.52669 2.978188 -0.1747244 0
-1.2572217 2.9491658 -0.16938499 0
-0.85635018 2.9642265 -0.16483361 0
-0.64200002 2.9100001 -0.155 0
-1.736356 3.0229492 -0.17898774 0
-1.568 3.056 -0.176 0
-1.2936907 3.0324066 -0.17020555 0
-0.86699998 3.0020001 -0.16500001 0
-1.329 3.1129999 -0.171 0
0.58700001 4.0310001 -0.131 0
0.60385138 4.1178937 -0.12893656 0
0.62912846 4.2482338 -0.12584141 0
1.14 4.276 -0.12 0
0.65440553 4.3785744 -0.12274626 0
1.1665683 4.3577886 -0.10697632 0
1.362 4.3000002 -0.113 0
0.6712569 4.4654675 -0.12068283 0
0.68810833 4.552361 -0.11861939 0
0.70495969 4.6392546 -0.11655596 0
0.72790551 4.7575741 -0.11374626 0
-1.097 5.098 -0.111 0
-2.108 -3.244 -0.071999997 0
-2.0606885 -3.1684525 -0.056040611 0
-2.013377 -3.0929053 -0.040081225 0
-1.9660654 -3.0173578 -0.024121836 0
-1.9187539 -2.9418104 -0.0081624538 0
2.5615435 -2.6170557 -0.010150822 0
2.605 -2.661 -0.011000004 0
-2.839 -2.5139999 -0.02 0
2.4580398 -2.5070832 -0.047522657 0
2.5180464 -2.5699303 -0.032609768 0
2.7566626 -2.5594273 -0.026086867 0
2.8 -2.5999999 -0.017999999 0
-5.3179374 -2.4594886 -0.09786509 0
-5.2369251 -2.4215863 -0.085038118 0
-2.944 -2.404 -0.0020000001 0
-2.77477 -2.4574776 -0.0074244356 0
2.3980331 -2.444236 -0.062435545 0
2.6593857 -2.4683561 -0.044239055 0
-5.1559124 -2.3836842 -0.072211131 0
-5.0748997 -2.3457818 -0.059384152 0
-4.9938874 -2.3078794 -0.046557166 0
2.2780199 -2.3185415 -0.092261329 0
2.3380265 -2.3813889 -0.077348441 0
2.497257 -2.3165708 -0.074492708 0
2.5621085 -2.377285 -0.062391244 0
-4.9128747 -2.2699771 -0.033730179 0
-4.8829999 -2.256 -0.028999999 0
2.4324057 -2.2558565 -0.086594164 0
2.3675542 -2.1951425 -0.098695628 0
-2.461 -1.9859999 -0.014 0
-2.3932924 -1.9296528 -0.0041165221 0
2.4346666 -1.727048 -0.023638636 0
2.5077617 -1.7767692 -0.0081584379 0
2.288476 -1.6276058 -0.054599024 0
2.3615713 -1.6773269 -0.039118826 0
0.55680084 -1.5197934 -0.089028746 0
2.1422856 -1.5281634 -0.085559413 0
2.2153809 -1.5778846 -0.070079215 0
2.4683666 -1.5034287 -0.019395106 0
2.5444191 -1.5476329 -0.0037372708 0
-5.5854902 -1.4637845 -0.089200154 0
0.55301273 -1.4398438 -0.076665513 0
2.3542881 -1.4371226 -0.042881869 0
0.49672121 -1.3573108 -0.059840247 0
0.51844907 -1.3211684 -0.054812208 0
2.1641572 -1.3266124 -0.082026467 0
2.2402096 -1.3708165 -0.066368632 0
0.4742271 -1.2663565 -0.043748666 0
2.0881047 -1.2824082 -0.097684309 0
3.9858761 -1.2048861 -0.095202789 0
4.0601974 -1.2276287 -0.077390842 0
4.1728039 -1.2624749 -0.092134535 0
3.6758938 -1.1084614 -0.00073864311 0
3.7450752 -1.1303145 -0.057675231 0
3.8298013 -1.1564941 -0.064580545 0
3.9145274 -1.1826737 -0.071485862 0
2.6814504 -1.0260392 -0.061058171 0
2.717 -1.041 -0.056000002 0
2.9289999 -1.01 -0.042999998 0
3.0754509 -1.0070987 -0.055470478 0
2.4497252 -0.92851961 -0.094029084 0
2.5269668 -0.96102613 -0.083038777 0
2.6204882 -0.95285451 -0.075066432 0
2.7199211 -0.94001174 -0.068101279 0
2.8510389 -0.95708132 -0.063541159 0
2.9849119 -0.97607768 -0.063146859 0
4.0547085 -0.91448051 -0.0953013 0
2.4704604 -0.85650587 -0.098050639 0
2.5567875 -0.85741007 -0.093621954 0
2.6449509 -0.85959876 -0.091970481 0
2.7299411 -0.88871849 -0.08476457 0
3.7790949 -0.85597771 -0.099201486 0
3.8638687 -0.87397212 -0.09800186 0
3.9486425 -0.89196658 -0.096802227 0
4.0152087 -0.40615249 -0.095693752 0
4.1451149 -0.41751683 -0.09471406 0
4.2750216 -0.42888123 -0.093734376 0
4.3616257 -0.43645746 -0.093081251 0
4.4482303 -0.44403371 -0.092428133 0
4.5050001 -0.449 -0.092 0
3.842 -0.391 -0.097000003 0
3.9286044 -0.39857626 -0.096346878 0
3.7720001 -0.20100001 -0.097999997 0
3.8588502 -0.20440076 -0.097215205 0
3.9457002 -0.20780152 -0.096430421 0
4.0325503 -0.21120226 -0.095645629 0
4.1194005 -0.21460302 -0.094860837 0
4.2496753 -0.21970415 -0.09368366 0
4.3799505 -0.2248053 -0.092506468 0
4.4359999 -0.227 -0.092 0
3.513 -0.102 -0.093000002 0
3.6482127 -0.10465702 -0.093000002 0
3.7834253 -0.10731404 -0.093000002 0
3.8735671 -0.10908538 -0.093000002 0
3.9637089 -0.11085673 -0.093000002 0
4.0538507 -0.11262807 -0.093000002 0
4.1439924 -0.11439942 -0.093000002 0
4.2341342 -0.11617076 -0.093000002 0
4.324276 -0.11794211 -0.093000002 0
4.4217091 -0.11985673 -0.093000002 0
3.971864 -0.00036407635 -0.09601672 0
4.0623412 -0.0029247561 -0.095352843 0
4.1528187 -0.005485435 -0.094688967 0
4.2432961 -0.0080461157 -0.094025083 0
4.358387 -0.011303397 -0.093180604 0
3.421 0.039999999 -0.096000001 0
3.5391533 0.050176363 -0.094631344 0
3.647469 0.041484203 -0.095615074 0
3.7556617 0.029287199 -0.096032239 0
3.8738461 0.040339768 -0.094805226 0
3.9569669 0.081179522 -0.093115829 0
4.0476279 0.083876111 -0.093301795 0
4.1382895 0.086572699 -0.093487769 0
4.2289505 0.089269288 -0.093673743 0
4.3538055 0.092982933 -0.093929857 0
3.5462415 0.17619099 -0.098596267 0
3.635483 0.17938198 -0.095192544 0
3.7247245 0.18257298 -0.091788813 0
3.813966 0.18576397 -0.08838509 0
3.9478283 0.19055046 -0.08327949 0
4.0816903 0.19533695 -0.078173906 0
4.1709318 0.19852796 -0.074770175 0
3.3740001 0.227 -0.093999997 0
3.4636235 0.23404902 -0.091683887 0
3.5532467 0.24109805 -0.089367777 0
3.6428702 0.24814709 -0.087051667 0
3.7324934 0.25519609 -0.084735557 0
3.8221169 0.26224512 -0.082419455 0
3.9117401 0.26929417 -0.080103345 0
4.046175 0.27986771 -0.076629184 0
4.1806102 0.29044124 -0.073155023 0
4.2733912 0.23390631 -0.070788823 0
3.3900001 0.31 -0.094999999 0
3.479857 0.31854856 -0.09296 0
3.5697141 0.32709712 -0.090920009 0
3.6595709 0.33564568 -0.08888001 0
3.749428 0.34419423 -0.086840019 0
3.8392849 0.35274279 -0.08480002 0
3.929142 0.36129135 -0.082760021 0
4.0189991 0.36983991 -0.080720022 0
4.1537843 0.38266274 -0.077660032 0
4.2885699 0.39548558 -0.074600041 0
4.3150001 0.398 -0.074000001 0
3.325 0.46700001 -0.096000001 0
3.4405949 0.44558784 -0.096071154 0
3.5296898 0.45567569 -0.093642309 0
3.644829 0.4300476 -0.09242335 0
3.7337723 0.43873015 -0.089564472 0
3.8227153 0.44741267 -0.08670558 0
3.9116583 0.45609522 -0.083846703 0
4.0450726 0.46911901 -0.079558372 0
4.1784873 0.48214281 -0.075270049 0
4.2179999 0.486 -0.074000001 0
3.5927403 0.50147945 -0.090003572 0
3.681987 0.51297259 -0.088004768 0
3.7712338 0.52446574 -0.086005956 0
3.8604808 0.53595889 -0.084007151 0
3.9497275 0.54745203 -0.082008339 0
4.0389743 0.55894518 -0.080009535 0
4.128221 0.57043833 -0.078010723 0
4.2177339 0.58196574 -0.076005958 0
3.2869999 0.625 -0.097000003 0
3.3744228 0.63876742 -0.094820164 0
3.4618459 0.65253478 -0.092640325 0
3.5492687 0.6663022 -0.090460494 0
3.6366916 0.68006957 -0.088280655 0
3.7241144 0.69383693 -0.086100817 0
3.4565425 0.73281717 -0.097951792 0
3.5860853 0.75563431 -0.093903586 0
3.672447 0.77084577 -0.091204777 0
3.7588089 0.78605723 -0.088505976 0
3.8552489 0.71448803 -0.082831055 0
3.9863834 0.73513913 -0.079561308 0
4.0489998 0.745 -0.078000002 0
3.8451705 0.80126864 -0.085807174 0
3.9315324 0.8164801 -0.083108366 0
4.024447 0.83284575 -0.080204785 0
3.4561007 0.98205858 -0.098394476 0
1.9733956 1.071403 -0.099904582 0
2.079227 1.0511028 -0.096070908 0
2.1801703 1.0513685 -0.094629012 0
2.2632604 1.0715389 -0.089754134 0
2.3625605 1.0837151 -0.089434803 0
3.539151 1.0010879 -0.095591709 0
3.6222012 1.0201172 -0.092788942 0
3.7467768 1.048661 -0.088584796 0
3.8529999 1.073 -0.085000001 0
2.0493693 1.1137537 -0.093505725 0
2.1343551 1.1416745 -0.090171546 0
2.2515366 1.1652497 -0.080999151 0
2.3319786 1.1652521 -0.078414567 0
2.4443805 1.1205544 -0.085364155 0
2.5364296 1.1631585 -0.077215381 0
2.1940134 1.2141728 -0.088413447 0
2.2678337 1.2450576 -0.080093719 0
2.3269999 1.2970001 -0.086000003 0
2.6585782 1.2239513 -0.053292312 0
2.7318673 1.260427 -0.038938463 0
2.8051562 1.2969027 -0.024584617 0
3.073 1.232 -0.098999999 0
3.1570055 1.2666603 -0.098179094 0
2.8784454 1.3333783 -0.010230772 0
3.2410114 1.3013207 -0.097358197 0
3.325017 1.335981 -0.096537292 0
3.4090228 1.3706412 -0.095716394 0
3.4556115 1.451153 -0.097263128 0
3.577034 1.4399619 -0.094074585 0
3.6610398 1.4746222 -0.093253687 0
3.5446424 1.5468812 -0.097242311 0
3.6710904 1.5967579 -0.094853848 0
3.7450454 1.5092826 -0.092432782 0
3.829051 1.5439429 -0.091611885 0
3.9130569 1.5786033 -0.09079098 0
3.755389 1.6300089 -0.09326154 0
3.8396876 1.6632601 -0.091669239 0
3.958993 1.6542556 -0.090038463 0
3.9809999 1.719 -0.089000002 0
-3.5020001 3.8870001 -0.001 0
-3.3929999 3.947 -0.001 0
1.3854848 4.3820624 -0.098963059 0
-0.98523176 4.4849682 -0.0039734766 0
1.1931366 4.4395776 -0.093952641 0
1.4089698 4.4641242 -0.084926121 0
-1.154 4.598 -0.012 0
-1.0011986 4.5725441 -0.019262977 0
-0.91548562 4.5435419 -0.007591838 0
1.2197049 4.5213661 -0.080928959 0
1.4324546 4.5461864 -0.070889182 0
-1.0171655 4.66012 -0.034552485 0
1.2595575 4.6440487 -0.06139344 0
1.4559395 4.6282487 -0.056852244 0
-1.0331324 4.7476959 -0.049841989 0
1.2994099 4.7667322 -0.041857921 0
1.4794244 4.7103105 -0.042815305 0
1.5029093 4.7923727 -0.028778367 0
-1.0490993 4.8352723 -0.065131485 0
1.3259782 4.8485208 -0.028834239 0
1.5263941 4.8744345 -0.014741436 0
-1.0650662 4.9228482 -0.080420993 0
1.344 4.9039998 -0.020000003 0
1.536 4.908 -0.0089999959 0
-1.0810331 5.0104241 -0.095710501 0
-1.8714423 -2.8662629 0.0077969357 0
-1.8241307 -2.7907157 0.023756325 0
-1.7768191 -2.7151682 0.039715715 0
2.388 -2.704 0.026000001 0
-1.7295076 -2.6396208 0.055675104 0
2.343358 -2.6474349 0.031545587 0
2.4522946 -2.6522436 0.030483853 0
2.563 -2.645 0.026000001 0
-2.45 -2.5239999 0.024 0
-1.6821959 -2.5640733 0.071634501 0
2.2763951 -2.5625877 0.039863959 0
2.363178 -2.5599744 0.043935414 0
2.4618814 -2.5313003 0.022920143 0
2.5222516 -2.5439997 0.030570038 0
2.6029999 -2.5650001 0.025 0
-2.7105401 -2.4009552 0.0051511284 0
-2.3568907 -2.4347529 0.037417527 0
-1.6209421 -2.4662628 0.092296943 0
2.235678 -2.4684744 0.053935416 0
2.3484819 -2.4598989 0.04085293 0
2.4547071 -2.4635339 0.022708021 0
2.5703161 -2.4197807 0.029571885 0
2.6675 -2.4514999 0.024 0
2.8299999 -2.424 0.024 0
-2.8762717 -2.3504381 0.0032617559 0
-2.6463099 -2.3444326 0.017726693 0
-2.2637811 -2.3455062 0.050835051 0
2.1552393 -2.3446794 0.07532239 0
2.2487206 -2.318918 0.050247975 0
2.3283947 -2.3615558 0.040845495 0
2.4249682 -2.3850992 0.0343455 0
2.5342786 -2.3320975 0.034503825 0
2.6632845 -2.336225 0.028710455 0
2.7625532 -2.3663168 0.026244484 0
-2.8085434 -2.296876 0.0085235117 0
-2.7408152 -2.243314 0.013785267 0
-2.5499649 -2.259649 0.03659004 0
-2.2017081 -2.2860084 0.059780072 0
-2.1396351 -2.2265103 0.068725094 0
2.0620613 -2.2482049 0.08938697 0
2.159008 -2.2417822 0.071661897 0
