# .PCD v0.7 - Point Cloud Data file format
VERSION 0.7
FIELDS x y z intensity
SIZE 4 4 4 4
TYPE F F F F
COUNT 1 1 1 1
WIDTH 505
HEIGHT 1
VIEWPOINT 0 0 0 1 0 0 0
POINTS 505
DATA ascii
-12.996334 -2.905163 -0.37019414 2
-9.6783371 3.7309408 -0.18695001 3
-9.9487972 8.6441822 -0.27061683 3
-8.4153147 -8.6810265 -0.25129321 3
-8.7058096 -8.1849432 -0.25539172 3
-8.7969112 3.8492868 -0.18206747 3
-7.3220582 -8.270463 -0.22253443 3
-7.203907 3.7565377 0.37677589 5
-7.1761274 3.7564032 0.26510638 4
-7.132256 3.835474 0.50475729 5
-6.677484 2.9134867 -0.23415595 2
-6.0854077 -13.432479 -0.34027421 3
-5.3525195 -0.90470886 -0.24863902 2
-4.9409003 -2.5978348 -0.13880821 2.5
-5.01298 -2.2699716 -0.14646055 2.5
-5.0181627 -1.9977821 -0.019940374 3
-4.8321481 4.5354214 -0.15253785 3
-4.8947129 -2.4545958 0.21965115 4.5
-4.9711556 -2.2344759 0.22581723 4.75
-4.8671126 4.0494466 0.16435394 4
-4.9161968 -2.4053302 0.5266422 6
-4.9349251 -2.2181289 0.44926697 6
-4.8413625 4.0982294 0.4055129 5
-4.7130699 -8.1414652 -0.25288478 2
-4.4041371 -4.0871725 -0.26100451 2
-4.7197056 -1.7829279 -0.26252964 2
-4.6488051 -1.3943439 -0.2621263 2
-4.727047 -0.57466012 -0.2407898 2
-4.425488 0.9642064 -0.22210707 2
-4.790689 4.0519595 0.21351431 4
-4.3116393 -0.75625825 -0.24880776 1
-4.296102 1.1413654 -0.22014984 2
-4.3230624 1.479623 -0.22919756 2
-4.3342633 -7.3318014 0.03884916 3
-3.8809988 -4.1108165 -0.24306609 2
-3.7338865 1.1741573 -0.23021746 1
-3.6702225 3.8085198 -0.0015383479 3
-3.650948 4.1663995 -0.0025764282 3
-3.636884 3.1992695 0.30952424 5
-3.6348867 3.2013006 0.16552386 4
-3.6185734 3.178575 0.6885252 8
-3.7517748 23.746447 26.092112 28
-3.3344762 -9.6840858 -0.1446373 3
-3.2228842 -7.8975906 -0.17813766 3
-3.2546616 -1.8014311 -0.00772411 3
-3.5946372 1.3122115 -0.22925171 1
-3.2206786 1.9892547 -0.20137247 2
-3.3773789 4.235805 -0.0035984423 3
-3.3105109 3.1936784 0.29650292 5
-3.4005337 3.2089686 0.20284049 4.3333335
-3.3505471 3.1882455 0.66117275 7.6666665
-3.3520255 3.2160077 0.56250328 7
-3.2880342 23.377831 25.05864 28
-3.1310322 -13.022798 -0.21775107 3
-3.0833156 -10.419824 -0.16346867 3
-3.0703273 -2.5212021 -0.001577945 3
-3.0386081 -1.229538 -0.23488191 1
-3.0478442 -0.91721815 -0.23394594 1
-3.0838137 -0.70022959 -0.23598447 1
-2.90606 -0.35524276 -0.22707359 1
-3.0047286 2.0481253 -0.19539651 2
-2.8055267 7.3835998 -0.017912826 3
-2.9791689 -1.7181209 0.18914677 5
-2.9986327 3.2334356 0.12598057 4
-2.8973069 3.2601159 0.55120564 7.1999998
-2.5051427 -4.7022538 -0.22509222 2
-2.6037695 -3.3184803 -0.12194169 2
-2.7932076 -2.2734098 -0.24667701 1
-2.6160004 -1.73674 -0.083257809 2.4285715
-2.7878153 -1.5255849 -0.24085249 1
-2.6711247 2.0978363 -0.1859258 2
-2.6012733 2.6525838 -0.1918177 2
-2.4617977 7.532979 -0.018933287 3
-2.5567935 -2.2079802 0.069273576 4
-2.4194233 -1.6458365 0.10195474 4.5
-2.6297772 3.2903023 0.12145627 4
-2.6573915 3.2807937 0.57062507 7.6666665
-2.6650839 3.2666187 0.81246012 9
-2.2927623 -12.017063 -0.13513508 3
-2.1500726 -4.5129209 -0.24319118 2
-2.2866361 -3.335139 -0.12748162 2
-2.1634312 2.8679981 -0.18502381 2
-2.0395195 -2.1756606 0.087190107 4
-2.3917506 -1.6770806 0.1368745 5
-2.1899114 3.3688974 0.37643251 6
-2.2290335 4.7467041 0.30231163 5
-2.1900966 4.8355031 0.10530291 4
-2.211355 5.6925859 0.19522719 4
-2.2409718 3.3689873 0.67543405 8
-2.1865261 4.7604642 0.49530947 6
-2.3583815 3.5204649 1.8974248 16
-1.632102 -5.2173262 -0.24507521 2
-1.8071095 -4.540235 -0.24173208 2
-1.7988166 -3.0445807 -0.22362711 1
-1.6276512 -1.9789573 -0.2129211 1
-1.9601108 1.0968351 -0.18587613 1
-1.7432849 1.2899925 -0.17990631 1
-1.9512645 1.7420471 -0.17843442 1
-1.7784368 2.1810656 -0.17914453 1
-1.6342281 -2.603013 0.087235026 4
-1.9000859 -1.8460077 0.077089824 4
-1.6311586 -1.5480554 0.38397816 9
-1.5040793 -7.4416976 -0.24349035 2
-1.3007113 -4.8628488 -0.23721844 2
-1.5997657 -3.1763554 -0.21862258 1
-1.5343169 -2.1481285 -0.2118946 1
-1.296407 0.91801304 -0.17906573 0
-1.5091451 2.2748685 -0.16249168 1
-1.4604218 2.6044621 -0.16501844 2
-1.2538009 2.8448806 -0.16953869 2
-1.2950972 4.5634046 -0.012682843 3
-1.2528285 -1.4854087 0.62714982 13.5
-1.5915445 20.739737 21.810863 28
-1.0239639 1.88196 -0.16579643 1
-1.0115488 3.147609 -0.16706163 2
-1.0623137 4.5508924 -0.013681088 3
-0.80891252 -2.7641566 0.069143541 4
-0.97368264 -1.8090234 0.076926656 4
-0.96042091 -1.5026896 0.26756841 8.25
-1.0726901 4.1864042 0.046350397 4
-1.0170991 -1.4648765 0.56521529 13.181818
-1.1408719 -12.80239 11.751924 26
-0.92911077 -12.756513 11.675883 26
-1.146636 20.805916 21.775606 27.5
-0.47265229 -3.6451972 -0.19567642 2
-0.63124299 -3.5860815 -0.19766609 2
-0.43131915 -2.9336457 -0.19187675 1
-0.68258804 -2.657932 -0.19190639 1
-0.57010216 1.7389743 -0.16223961 0.80000001
-0.52035075 2.7195675 -0.15251596 2
-0.68288493 2.8480992 -0.15553138 2
-0.78255594 -3.3513975 0.080295607 4
-0.58836365 -1.4059858 0.22454323 7.9000001
-0.7871421 4.3437543 0.031339411 3
-0.60639882 4.6104136 0.021318702 3
-0.59550858 -1.3922191 0.60100502 15.333333
-0.42052001 20.933907 4.7398424 10
-0.78754431 21.024035 5.0688343 10
-0.71423686 -12.718807 11.745843 26
-0.66123563 20.858912 21.73835 27.5
-0.79994512 20.863451 22.010849 28
-0.30404902 -1.3423444 -0.048331514 2
-0.27161521 1.7276411 -0.15725489 1
-0.37288406 2.5877762 -0.14949942 2
-0.12243903 3.174576 -0.14854099 2
-0.27812052 3.2184377 -0.15255073 2
-0.39560366 5.4363995 -0.096751355 3
-0.25994885 -1.3649161 0.14875636 6.6666665
-0.12748829 4.5086432 0.034337886 3
-0.34676245 -1.6847328 0.55110335 13
-0.35485563 -1.3501107 0.65580791 17.5
-0.30547518 20.930147 5.0358424 10
-0.14038774 20.905455 11.511846 18
-0.2572349 -12.684561 11.70877 26
-0.16571014 20.884151 22.133848 28
0.24372838 -1.2648127 -0.032236002 2.5
0.10236078 1.7178974 -0.15064125 1
0.18166855 3.8473909 -0.13709132 2
0.27554145 -1.2800196 0.1930736 7.5625
0.11338559 4.3325748 0.067361027 4
0.090846382 4.6392927 0.028331935 3
0.28916836 -1.2585397 0.50874966 14.375
0.32978258 20.972979 8.3048391 15
0.20720007 20.943998 11.222841 18
0.33164614 20.974186 21.57984 27
0.16449031 20.949545 22.146845 28
0.58389437 -1.3037143 -0.09854836 1.2
0.67093569 0.86447167 -0.1381833 0
0.79149193 1.2551346 -0.14026377 0
0.57433033 1.7598537 -0.14468661 1
0.48121503 4.0197878 -0.13159604 2
0.62195939 4.7791419 -0.11366415 3
0.54832458 -1.2308365 0.19423087 7.4615383
0.4630934 -1.220331 0.71106094 18.5
0.62462538 21.038885 7.7928338 14
0.72754633 21.03693 8.0748339 14
1.0090877 -2.3305995 -0.16090801 1
0.88320351 -1.6540518 -0.15787843 1
0.94943208 -1.5118589 -0.15687488 1
1.1276172 0.22064357 -0.14392523 0
0.84935695 1.1137419 -0.13655818 0.5
0.82441467 1.2389728 -0.13825785 1
0.95701331 2.1944265 -0.13537537 2
0.94671553 2.9685948 -0.131465 2
0.88529742 4.9347529 -0.10466985 3
1.0360289 21.1499 7.5388246 14
1.1232592 21.103767 7.8438296 14
0.80616075 21.044722 8.3308344 15
0.93688256 21.087036 8.6728306 15
1.0802413 21.077484 9.390831 16
0.94104218 21.080166 9.7008314 16
1.2525369 -2.9534233 -0.15593605 2
1.381102 -1.7826655 -0.15588409 1
1.4902773 -1.3525698 -0.14388415 1
1.5119708 -0.99966031 -0.14189611 1
1.3538482 -0.62654251 -0.14350441 0.5
1.2138886 -0.22634496 -0.14496867 0
1.3225065 1.3492612 -0.12606463 1
1.4233091 1.8295287 -0.12762702 2
1.3708547 4.9151659 -0.020649169 3
1.283036 7.213294 0.093121439 4
1.3074119 9.9045105 0.13486657 4
1.5889461 11.402484 4.671731 15
1.5758718 11.208389 5.0337491 16
1.4669249 11.19142 5.2187486 16
1.2644306 21.115227 9.0588284 15
1.9545689 -3.8370717 -0.14946008 2
1.9383219 -2.5631983 -0.14890015 2
1.9838039 -2.3873892 -0.14289445 2
1.8565276 -1.83025 -0.13855301 2
1.6362971 -0.44532168 -0.13694161 1
1.6112833 -0.22388819 -0.13546735 1
1.8736484 0.33114523 -0.12204357 1
1.7763685 0.69507873 -0.1271015 1
1.710819 0.95341271 -0.12564464 1
1.9126337 1.9788789 -0.11528264 2
1.9690952 4.3367352 -0.087562174 3
1.8706579 4.7120919 -0.084607005 3
1.8036427 5.2636404 -0.083667636 3
1.8877133 11.09656 4.2212648 14
1.8214579 11.105515 4.5537629 15
1.6828741 11.261797 4.4392457 14.5
1.8270129 11.062104 5.1922674 16
2.1401944 -3.5606821 -0.15193759 2
2.0699565 -3.0380883 -0.1389153 2
2.3023281 -1.6952795 -0.1338889 2
2.3845291 -1.4222083 -0.1258951 2
2.1934505 -0.48412254 -0.12694651 2
2.1045585 -0.11212234 -0.12598392 1
2.2307949 0.27638009 -0.11703109 2
2.159143 0.42150649 -0.11705125 2
2.3639984 1.145763 -0.10714547 2
2.2552319 1.3394805 -0.096926555 2
2.3248727 2.1637514 -0.112285 2
2.0813882 -2.1547761 0.080610573 4
2.0401616 -1.7290817 0.23404147 5.8571429
2.1050034 -1.3944639 0.18679461 5.5
2.2719166 -1.1427023 0.22546288 6
2.3731048 1.1447871 0.09185499 4
2.0565984 -1.6448932 0.50461227 9
2.3550286 -1.1137396 0.43959373 8.5
2.4906895 -2.0202661 -0.14588763 2
2.406117 -1.2910879 -0.12389959 2
2.7038419 -1.0662988 -0.040912736 3
2.4140449 -0.36864561 -0.11795907 2
2.4868145 3.4734769 -0.10143939 3
2.4741912 3.8346364 -0.1034821 3
2.7234592 -2.4275751 0.02411074 3
2.667717 -1.8751222 0.01961112 3
2.628885 -1.0515522 0.16668734 5
2.5673454 -1.0440402 0.42308766 8
2.4333503 1.085731 0.7026428 11
2.4983835 1.6130016 0.7510463 10.5
2.4871173 1.0796595 1.1039009 15
2.4433033 1.4741231 1.0077127 13.4
2.4802706 1.0712568 1.2218686 16
2.4322252 1.5004402 1.2528086 16
2.5595262 -12.329893 11.566939 26
2.8472626 -2.8085046 -0.066894166 3
3.1425102 1.1500874 -0.10412361 2
3.0865788 1.295356 -0.10514285 2
2.9032097 -2.360064 0.024112213 3
2.8853295 1.3952363 0.0028388004 3
2.9650338 11.510231 3.071748 11
2.9955058 11.631981 2.835737 10
3.1268375 11.353438 3.4087672 11.5
3.4013774 -1.024075 -0.10492084 2
3.4416585 0.09429232 -0.10100413 2
3.4697645 2.3364289 -0.093259148 3
3.451437 4.333674 -0.069496572 3
3.4154117 -7.2381725 0.31090006 4
3.3155799 -1.0138389 0.2173292 5.25
3.2313509 -0.99382603 0.46841204 7.3333335
3.3260183 11.556908 2.8327522 10
3.5531986 -14.053809 16.084383 28
3.9417324 -0.59508264 -0.095949426 3
3.8106112 -0.29701808 -0.097470738 2
3.6939206 2.2487023 -0.085241206 3
3.9061027 5.0244193 0.39594334 5
3.864351 5.1634583 0.66242611 6
3.7937198 5.2332463 0.64341569 6.5
3.6305835 -12.499496 9.9695196 23
3.9115117 -12.465466 10.081545 23
4.2935371 -2.5586977 -0.083882503 3
4.3597207 -2.1877103 -0.08488676 3
4.1929722 -1.2695596 -0.091913335 3
4.1080017 -0.92932844 -0.094929986 3
4.3831329 -0.012045827 -0.092993215 3
4.2936368 0.2037625 -0.070011474 3
4.3821907 0.41356462 -0.095029734 3
4.1460004 4.2029777 -0.04245472 3
4.2402015 4.7662792 0.2214848 4
4.0877032 4.8486357 0.65196985 6
4.7218027 -10.123605 -0.13321652 3
4.5095615 -0.45074007 -0.091960609 3
4.4384193 -0.22787273 -0.091976427 3
4.4278622 4.0976081 -0.034432631 3
4.7486978 -14.58648 16.982447 28
4.5165305 -14.417873 17.301441 29
4.6221566 -14.208004 17.401966 29
5.0016599 -9.3824873 0.086852185 3
4.9296927 -8.2289505 0.014922341 3
5.1415796 -7.7883716 0.043959599 3
5.1528163 -14.585105 17.010479 28
5.0690689 -14.239916 17.362499 29
5.5455322 -6.7282939 -0.11396703 3
5.2344699 1.8625052 -0.050162721 3
5.4362602 6.0925884 -0.022620745 3
5.5575824 -0.85266632 0.064061962 4
5.3585887 -14.443323 17.124508 28
5.2603378 -14.092534 17.410526 29
5.955965 -6.5923548 -0.11894649 3
5.6305904 -7.6211057 0.12099145 4
5.6075835 -12.286873 10.553689 23
5.8497181 -14.46228 17.047544 28
5.6900191 -14.377295 17.193539 28
6.3415179 -12.221642 10.677743 23
6.2030087 -12.251992 10.819731 23
6.2100616 -14.650476 16.893557 28
6.4995084 5.958209 0.091426715 4
6.570684 -12.222999 10.606007 23
6.9628863 2.8858974 0.023761731 3
7.5129375 -11.907569 11.118834 23
7.7174006 -10.531572 -0.020072894 3
7.7789493 -12.102916 10.879837 23
8.3635521 -14.111552 17.24674 28
8.6244984 -11.964094 5.7163892 14
8.7440186 -14.026012 17.351767 28
8.5885859 -13.908703 17.459766 28
8.9489155 11.80308 3.3891311 10
8.8981142 11.894101 3.7128701 11
9.1798382 11.719713 4.1108961 11
8.8457479 -11.979358 5.024899 13
9.0118408 -11.924349 5.7434101 14
8.8327036 -11.975368 6.2908988 15
9.1499128 -13.752179 17.56481 28
9.2310858 5.5424762 0.37753639 4
9.4185362 11.840676 3.4743898 10
9.2346401 -11.93553 4.26792 12
9.2274961 -11.950577 5.0889187 13
9.3988056 -13.832228 17.461815 28
9.719451 11.79151 3.8059027 11
9.6156206 -13.642685 17.453838 28
10.355093 -11.779604 6.0849771 14
10.573109 -13.7544 3.9448824 10
10.558586 -13.75285 4.0163817 10
10.450351 -13.827173 4.4318719 11
10.431835 -11.838916 5.2969766 13
10.522995 -11.722255 6.1373191 14.666667
11.028866 -13.760803 3.4549031 9
10.864889 -13.714236 4.0728974 10
10.943536 -13.781638 4.4828978 11
11.465791 -11.726187 4.5670214 11
11.284415 -11.748863 5.4540138 13
11.335618 -11.638724 6.2310209 14
11.470491 -11.682667 6.5045233 15
11.342505 -13.81152 17.35491 26
11.588679 -13.55363 17.466934 27
11.604968 -11.719507 5.0460262 12
11.746152 -11.711824 5.5430322 13
12.502852 0.038207289 0.45901442 4
12.762995 -11.567545 6.7020712 14
12.664555 -11.625546 7.0940657 15
12.7685 -13.394232 18.173988 27
12.836115 -1.3181511 0.40208361 4
13.056115 1.3543611 0.43593356 4
13.121313 -11.579193 5.3150806 12
13.062369 -11.552052 6.58008 14
12.948913 -11.522765 6.9525781 15
13.104134 -12.147882 17.452057 27
12.976084 -12.712794 17.76503 27
12.961539 -13.27435 18.151005 27
13.032917 -13.071944 18.090017 27
13.465527 4.8816481 0.35266036 4
13.419205 5.5729127 0.33459854 4
13.561229 3.955107 0.70874006 5
13.510285 4.2993121 0.59121078 4.5
13.441407 4.9595194 0.5791533 4.5
13.416821 5.297121 0.57462323 4.5
13.413979 5.6010499 0.633596 5
13.5844 3.3997793 1.0082854 5.5
13.530025 3.9048471 1.0157439 5.5
13.487704 4.2344899 1.0207161 5.5
13.45028 4.5686297 1.0256873 5.5
13.409328 4.9844646 1.0059842 5.3333335
13.370261 5.4237046 1.0451113 5.5
13.322696 5.7396536 1.1395823 6
13.589239 3.189198 1.4928019 6
13.549721 3.8053555 1.3812522 6
13.476543 4.1842442 1.5147202 6
13.484888 4.4927773 1.3981942 6
13.420477 5.0127821 1.4106485 6
13.327517 5.3784785 1.5501149 6
13.523193 4.1008496 1.9117278 7
13.454661 4.5867352 1.9291857 7
13.402919 5.0846324 1.9506421 7
13.48897 3.6817243 2.2807617 8
13.501255 4.3752146 2.0477042 8
13.290391 4.5861788 2.3116839 8
13.433431 5.0243587 2.0276477 7
13.53378 0.32680055 3.5429993 11
13.368251 0.92607903 3.5209625 11
13.560079 -0.9944576 3.8220694 11
13.597979 -11.538879 4.9040956 11
13.218382 -11.57939 5.8430843 13
13.417403 -11.480802 7.0290933 14.666667
13.692706 2.797148 0.051832825 3
13.616949 3.5540755 0.39377314 4
13.93042 0.68175286 0.48997885 4
13.669238 2.7026513 0.47183985 4
13.672443 3.0062509 0.7568168 5
13.637478 3.3188729 0.74079204 5
13.823404 1.0316676 0.97545683 5.5
13.819892 1.2568991 1.1019424 6
13.758447 1.9526676 0.99339485 5.5
13.745282 2.1703346 0.94987941 5.5
13.667855 2.5965958 0.99834764 5.5
13.639428 2.9202986 1.0018231 5.5
13.621081 3.2193551 0.91279978 5
13.87764 1.0965288 1.4109528 6.5
13.846286 1.389626 1.2439337 6
13.823462 1.7621481 1.4034085 6.5
13.765184 2.1296234 1.4288825 6.3333335
13.703976 2.7544427 1.3978361 6.5
13.663929 3.090198 1.3968103 6.5
13.631283 3.4284468 1.3982835 6.5
13.802975 1.2377994 1.8309436 7
13.802907 1.2528844 2.1949425 8
13.99183 -0.93414664 3.0030668 10
13.940597 -0.66315299 3.0950534 10
13.862117 -0.23529404 3.1043646 10
13.753997 0.27551982 3.1460025 10
13.810143 0.74409902 2.953975 10
13.731499 1.0060341 3.0389583 10
13.734193 1.4006877 2.9449327 10
13.939255 -1.0970423 3.3190744 10
13.889417 -0.77325982 3.304059 10
13.885815 -0.24534956 3.4120319 10.5
13.763108 0.10860169 3.4355121 10.5
13.635705 0.60030663 3.4329834 11
13.674527 0.99346334 3.2719588 10
13.77581 -1.3142228 3.8750842 11
13.939927 -0.60433215 3.6290507 11
13.89597 -0.29059756 3.6220343 11
13.680029 -11.540044 5.4220977 12
13.747149 -11.526132 5.9521003 13
13.632133 -11.505901 6.7250981 14
13.86354 -11.466165 7.0081058 14
13.975765 -11.439266 7.3551106 15
14.098919 -1.4012135 1.7450883 7
14.090811 -1.3521128 2.1054194 8
14.049652 -1.2760296 3.0240824 10
14.009181 -0.69684321 3.5630555 11
14.16682 -11.472591 5.0001135 11
14.235848 -11.474725 5.5261164 12
14.243044 -11.435625 6.050117 13
14.073413 -11.335049 6.8051157 14
14.064297 -11.353114 7.2281156 15
15.048182 -11.328456 7.3491402 14
15.153531 -11.371268 7.7561421 15
15.456347 -11.367065 5.2291484 11
15.456364 -11.360061 5.7701488 12
15.446426 -11.343003 6.3221488 13
15.448564 -11.310917 7.1931491 14
15.364559 -11.296773 7.6621485 15
16.129175 -11.290619 5.3501649 11
16.129099 -11.30369 5.908165 12
16.10808 -11.301676 6.4751635 13
16.139326 -11.249541 7.3841662 14
16.037256 -11.247431 7.8871646 15
16.685341 10.686632 2.3071682 7
16.530863 10.91939 2.1661429 7
16.593462 10.758861 3.3141596 8
16.826881 10.555241 2.1681831 7
20.359446 -4.2129722 5.7111931 11
20.506462 -3.60057 4.8211761 10
20.469439 -4.1677337 5.3471932 11
20.592442 -3.968642 5.4131875 11
20.507467 -3.7795835 5.7511816 11
20.838402 -3.9314561 4.5641866 10
26.326027 16.2873 18.171793 19
26.798117 -14.396124 11.364295 14
26.797014 -14.178157 12.773298 15
26.401386 16.262209 16.981796 18
26.987316 -14.150062 9.8852997 13
26.804098 -14.164071 11.877297 14
27.018028 -13.972323 12.405303 15
27.197601 15.136884 18.242908 19
27.263746 -13.837803 11.408308 14
27.398415 -13.689191 12.002312 14
27.299385 -13.678105 12.913311 15
27.447868 -13.823895 13.29631 16
27.574615 14.686066 18.303959 19
27.634413 -13.732471 9.9803133 13
27.607252 -13.503426 12.556316 15
28.564945 -17.103556 12.463282 14
28.496494 -16.771051 12.938287 14
28.660372 -16.821424 13.90729 15
28.461679 -16.924751 14.422285 16
29.096313 -17.740711 11.140279 13
30.694973 10.600834 13.847341 15
30.546989 10.568633 14.401342 16
30.980099 10.068016 12.048385 14
30.862232 10.211778 13.012373 15
30.80187 10.456081 13.208352 15
