# .PCD v0.7 - Point Cloud Data file format
VERSION 0.7
FIELDS x y z intensity
SIZE 4 4 4 4
TYPE F F F F
COUNT 1 1 1 1
WIDTH 1199
HEIGHT 1
VIEWPOINT 0 0 0 1 0 0 0
POINTS 1199
DATA ascii
-0.39780432 -3.4116411 -0.17998427 0
-0.54299998 -3.3169999 -0.18000001 0
-0.38740757 -3.3128719 -0.17984748 0
-1.399 -3.2190001 -0.18099999 0
-1.1567935 -3.2580409 -0.18187648 0
-0.75256944 -3.2738028 -0.18098342 0
-0.61400002 -3.263 -0.18000001 0
-0.51799536 -3.2342975 -0.179897 0
-0.43554944 -3.2373571 -0.17999238 0
-0.37820649 -3.2254617 -0.17972641 0
-0.13949129 -3.2106755 -0.18198706 0
-1.3826878 -3.1788559 -0.18076861 0
-1.123646 -3.1567843 -0.18121684 0
-0.81300002 -3.1140001 -0.18099999 0
-0.73533136 -3.1576824 -0.18038453 0
-0.64763242 -3.175503 -0.17927562 0
-0.53609514 -3.1372318 -0.17959207 0
-0.42679906 -3.1471837 -0.17984405 0
-0.36900541 -3.1380515 -0.17960533 0
-0.21729536 -3.1532722 -0.18176511 0
-0.13015799 -3.1359255 -0.18273707 0
0.0090278313 -3.1369779 -0.18076111 0
-1.3328713 -3.056258 -0.180062 0
-1.096705 -3.0744867 -0.18068069 0
-0.74275011 -3.0507393 -0.1802894 0
-0.64705789 -3.0637758 -0.17900001 0
-0.53945804 -3.0521672 -0.1793758 0
-0.4559288 -3.0614862 -0.1794932 0
-0.35980433 -3.0506411 -0.17948428 0
-0.21394305 -3.0546582 -0.18064769 0
-0.14498274 -3.0548522 -0.18047413 0
-0.0099999998 -3.0699999 -0.18000001 0
-1.9243054 -2.9432006 -0.12872705 0
-1.2830549 -2.93366 -0.17935538 0
-1.0562935 -2.9510407 -0.17987649 0
-0.8483901 -2.9689837 -0.17713666 0
-0.74073511 -2.9719644 -0.18067314 0
-0.65636063 -2.9444447 -0.17923309 0
-0.55606902 -2.9351537 -0.17914177 0
-0.4678373 -2.9668868 -0.17915872 0
-0.35060325 -2.9632308 -0.17936321 0
-0.21129537 -2.9767721 -0.17976512 0
-0.14424568 -2.9417131 -0.17936853 0
-2.026 -2.8010001 -0.133 0
-1.8673496 -2.8558609 -0.13410869 0
-1.249844 -2.851928 -0.17888431 0
-1.015882 -2.8275948 -0.17907228 0
-0.8140341 -2.8571901 -0.177682 0
-0.75006014 -2.8619127 -0.18067218 0
-0.67303574 -2.8502371 -0.17905788 0
-0.54065526 -2.847923 -0.17891341 0
-0.43480808 -2.8550334 -0.17905638 0
-0.36750093 -2.840441 -0.17926174 0
-0.20732385 -2.8599432 -0.17844129 0
-2.0284405 -2.7544656 -0.15120168 0
-1.9680929 -2.7210383 -0.13756303 0
-1.8180885 -2.7803209 -0.13876329 0
-1.7688276 -2.7047806 -0.14341788 0
-1.216633 -2.770196 -0.17841323 0
-0.98894101 -2.7452974 -0.17853615 0
-0.76127505 -2.7838802 -0.17928007 0
-0.65165722 -2.7357793 -0.17989261 0
-0.52524143 -2.7606921 -0.17868507 0
-0.45447773 -2.7319832 -0.17846049 0
-0.34683368 -2.7363136 -0.17908727 0
-1.9575902 -2.6565907 -0.15557426 0
-1.7588797 -2.6362014 -0.12791699 0
-1.1668165 -2.6475983 -0.17770661 0
-0.96200001 -2.6630001 -0.178 0
-0.70704007 -2.6896086 -0.18044813 0
-0.65888649 -2.6262705 -0.18000278 0
-0.50982761 -2.6734614 -0.17845671 0
-0.44123888 -2.6444917 -0.17823024 0
-0.377 -2.6340001 -0.17900001 0
-2.2073331 -2.54249 -0.17896059 0
-1.9473338 -2.5923655 -0.17004518 0
-1.8556792 -2.5324352 -0.15552963 0
-1.7498797 -2.5687103 -0.11750987 0
-1.6703054 -2.5537004 -0.15272705 0
-1.117 -2.5250001 -0.177 0
-0.63842434 -2.5398469 -0.17983519 0
-0.46120691 -2.5716152 -0.17811418 0
-2.1443996 -2.4681816 -0.17842905 0
-1.8422503 -2.4470241 -0.17128389 0
-1.7292535 -2.4618621 -0.14072996 0
-1.6371486 -2.4489837 -0.14719412 0
-1.5717832 -2.4026203 -0.16203624 0
-0.64251 -2.4311521 -0.18011203 0
-0.59341431 -2.4756949 -0.17922315 0
-0.479 -2.4990001 -0.178 0
2.3664179 -2.4538631 -0.17025912 0
-2.2390647 -2.3438756 -0.17979702 0
-2.0569997 -2.3649845 -0.17769088 0
-1.7436761 -2.344203 -0.16759573 0
-1.6049398 -2.345355 -0.14675494 0
-1.5225222 -2.3270802 -0.16669083 0
-0.62099999 -2.345 -0.18000001 0
-0.574 -2.3889999 -0.17900001 0
2.2742524 -2.356854 -0.1710664 0
2.4849999 -2.349 -0.171 0
-2.316 -2.2030001 -0.182 0
-2.2791839 -2.273931 -0.1807754 0
-2.1610036 -2.2603345 -0.17886135 0
-1.9695998 -2.2617877 -0.1769527 0
-1.6679947 -2.2563457 -0.16783148 0
-1.5776014 -2.2408447 -0.16159198 0
-1.4732611 -2.2515402 -0.17134541 0
2.149085 -2.2251086 -0.17216276 0
2.2116687 -2.2909813 -0.17161459 0
2.3542523 -2.2235112 -0.17172538 0
2.419836 -2.2864571 -0.17136152 0
-2.2584453 -2.1474466 -0.18104711 0
-2.1681395 -2.1612182 -0.17929235 0
-2.0693154 -2.1622093 -0.17776234 0
-1.9113332 -2.1929898 -0.17646058 0
-1.8530666 -2.1241918 -0.17596847 0
-1.6320834 -2.1563413 -0.17376129 0
-1.5270507 -2.1671724 -0.16854599 0
-1.442 -2.1490002 -0.176 0
2.0865016 -2.159236 -0.17271094 0
2.2886686 -2.1605656 -0.17208922 0
-2.1620138 -2.0543675 -0.17945056 0
-2.0425024 -2.0336933 -0.17761439 0
-1.9776273 -2.0640841 -0.17666334 0
-1.7947999 -2.0553939 -0.17547634 0
-1.5532708 -2.0473351 -0.17469032 0
-1.493 -2.0650001 -0.175 0
1.4629035 -2.0600824 -0.18395866 0
1.546 -2.0190001 -0.176 0
1.9613343 -2.0274906 -0.17380729 0
2.0239179 -2.0933633 -0.17325911 0
2.1575017 -2.0346742 -0.17281692 0
2.2230852 -2.09762 -0.17245306 0
-2.0655823 -1.9612889 -0.177854 0
-1.9323882 -1.9683585 -0.17614329 0
-1.8553764 -1.9332504 -0.175198 0
-1.7365333 -1.9865959 -0.17498423 0
-1.6782666 -1.9177979 -0.17449211 0
1.3605765 -1.9176894 -0.18194094 0
1.4387885 -1.9606565 -0.1815303 0
1.5090306 -1.9680852 -0.176 0
1.6445904 -1.9250449 -0.176 0
1.7033947 -1.9950877 -0.176 0
1.8987508 -1.9616181 -0.17435546 0
2.0591261 -1.9402556 -0.17336267 0
-1.937007 -1.8371838 -0.17572528 0
-1.8540466 -1.8424062 -0.17509744 0
-1.7636882 -1.8351252 -0.174099 0
-1.62 -1.849 -0.17399999 0
1.3490114 -1.8544517 -0.18050212 0
1.4519764 -1.8458357 -0.17757584 0
1.5486958 -1.8459572 -0.1785 0
1.7735835 -1.8298727 -0.17545182 0
1.8361671 -1.8957454 -0.17490365 0
1.9607508 -1.8458371 -0.17390846 0
-1.8405753 -1.7441051 -0.17412874 0
-1.7598187 -1.7467624 -0.17383897 0
-1.6720001 -1.737 -0.17299999 0
1.2519711 -1.7374868 -0.17925727 0
1.3460191 -1.7750622 -0.17772059 0
1.4551262 -1.7343512 -0.17796981 0
1.5419736 -1.7371703 -0.17927445 0
1.711 -1.7640001 -0.176 0
1.8623755 -1.7514186 -0.17445423 0
-1.7441438 -1.6510262 -0.17253219 0
-1.697 -1.683 -0.17299999 0
-1.1305 -1.653 -0.177 0
-1.0921322 -1.6367033 -0.17749755 0
1.1601154 -1.6387379 -0.17798819 0
1.2437596 -1.6370311 -0.1771103 0
1.3389344 -1.6628637 -0.17783849 0
1.4510343 -1.6481476 -0.17792642 0
1.570578 -1.6545622 -0.18099272 0
1.7750072 -1.6537819 -0.17595002 0
1.813 -1.676 -0.177 0
-1.1324221 -1.5534146 -0.17748953 0
-1.0780001 -1.574 -0.178 0
1.1417041 -1.5608635 -0.17720343 0
1.2386253 -1.5498302 -0.17678791 0
1.3444527 -1.5401722 -0.17663723 0
1.4421279 -1.5579506 -0.17893627 0
1.545085 -1.5765508 -0.17975008 0
1.6293805 -1.5308363 -0.17821252 0
1.7218877 -1.5901183 -0.17666255 0
3.8541646 -1.5222807 -0.19398692 0
-3.2767372 -1.4820509 -0.17408675 0
-3.1510623 -1.4245847 -0.17664459 0
-3.0550001 -1.4680001 -0.164 0
-2.9851398 -1.434486 -0.16872028 0
-1.801 -1.409 -0.171 0
1.159 -1.45 -0.176 0
1.2326252 -1.4688702 -0.17639396 0
1.3507353 -1.448671 -0.17730965 0
1.4643832 -1.4484566 -0.17815632 0
1.5604671 -1.4565872 -0.17717151 0
1.6339999 -1.423 -0.18000001 0
3.6427469 -1.4394212 -0.19248039 0
3.7684965 -1.4887053 -0.19337647 0
-3.0296497 -1.3690678 -0.17911567 0
-2.9295101 -1.3653227 -0.17726964 0
-2.822242 -1.3473458 -0.17991608 0
-2.7606561 -1.3267944 -0.18388812 0
-1.7410228 -1.3641934 -0.17170562 0
1.187 -1.38 -0.176 0
1.2613264 -1.3483212 -0.17570515 0
1.3685436 -1.3448601 -0.17672788 0
1.4517682 -1.3634938 -0.17666936 0
1.5402684 -1.3424237 -0.17890373 0
1.6345348 -1.3562343 -0.17983605 0
3.3493319 -1.3244245 -0.19038954 0
3.4331646 -1.3572807 -0.19098692 0
3.5169978 -1.3901368 -0.1915843 0
-2.8677664 -1.2950451 -0.18241045 0
-2.74265 -1.2593498 -0.17989977 0
-2.6527708 -1.270628 -0.18060553 0
-2.5877256 -1.2329798 -0.14780885 0
-1.6371713 -1.2866104 -0.17292739 0
-1.5679371 -1.2348883 -0.17374192 0
1.2406667 -1.2513334 -0.175 0
1.3275894 -1.2464979 -0.17555645 0
1.4486179 -1.2643913 -0.17733335 0
1.5639791 -1.2369044 -0.17917806 0
1.6703712 -1.2557217 -0.18038514 0
1.8772751 -1.226521 -0.17502612 0
3.0978329 -1.2258561 -0.18859738 0
3.1816659 -1.2587123 -0.18919477 0
3.2654989 -1.2915684 -0.18979216 0
-2.6249416 -1.1840112 -0.18735261 0
-2.5289836 -1.1734865 -0.16287257 0
-2.4246047 -1.1599832 -0.12334071 0
-1.8638486 -1.1350731 -0.1714853 0
-1.4640856 -1.1573052 -0.1749637 0
1.2825 -1.148 -0.17550001 0
1.3719965 -1.1415715 -0.17701274 0
1.4515052 -1.149406 -0.17783402 0
1.5387272 -1.1298903 -0.1787734 0
1.6498907 -1.1506416 -0.17983222 0
1.7453834 -1.1543077 -0.17731307 0
1.8909369 -1.1107347 -0.175 0
1.903 -1.118 -0.175 0
3.0139999 -1.193 -0.18799999 0
-1.7365944 -1.0601612 -0.17340612 0
-1.6624756 -1.0165291 -0.1745249 0
-1.3602343 -1.079722 -0.17618547 0
-1.291 -1.028 -0.177 0
1.3233334 -1.0496668 -0.17633332 0
1.4449859 -1.0358465 -0.17748052 0
1.568344 -1.0441597 -0.1772721 0
1.6521986 -1.0441965 -0.17752734 0
1.7273407 -1.0419477 -0.17831987 0
1.8172315 -1.066344 -0.175 0
1.9124746 -1.0044537 -0.17505674 0
-1.992 -0.91100001 -0.17399999 0
-1.5512973 -0.95108068 -0.17620307 0
1.349 -0.94499999 -0.176 0
1.4291146 -0.95138657 -0.17642403 0
1.5499779 -0.95287561 -0.17685078 0
1.6665387 -0.94489539 -0.17698213 0
1.7551569 -0.94486254 -0.17921996 0
1.8522997 -0.96760488 -0.17640899 0
1.9353552 -0.93682867 -0.17388678 0
2.006 -0.97000003 -0.17399999 0
-3.3506312 -0.82389915 -0.1702033 0
-3.2557967 -0.80468422 -0.17206281 0
-1.9627924 -0.84223628 -0.17304969 0
-1.8510727 -0.84783357 -0.17422803 0
-1.7715605 -0.81219465 -0.1743567 0
-1.4401189 -0.88563228 -0.17788123 0
-1.3660001 -0.84200001 -0.17900001 0
1.3715 -0.866 -0.17649999 0
1.4457022 -0.86488432 -0.17589596 0
1.5457436 -0.8663556 -0.17665179 0
1.698203 -0.82547355 -0.17350674 0
1.7571268 -0.87979591 -0.17631671 0
1.8507838 -0.84892887 -0.17520173 0
1.9363375 -0.87613088 -0.17501561 0
2.0079999 -0.85699999 -0.17299999 0
-3.1713305 -0.78757024 -0.17371902 0
-3.0446315 -0.76189917 -0.17620331 0
-2.9179323 -0.73622811 -0.1786876 0
-2.8334661 -0.71911407 -0.18034379 0
-2.7490001 -0.70200002 -0.182 0
-2.017 -0.70099998 -0.17299999 0
-1.9691858 -0.79081476 -0.17226341 0
-1.8487173 -0.74328303 -0.17349268 0
-1.6522924 -0.75873625 -0.17454968 0
-1.5330242 -0.70527786 -0.17474267 0
1.378 -0.77999997 -0.175 0
1.4563074 -0.75608766 -0.17455888 0
1.5401015 -0.75123674 -0.17325336 0
1.628849 -0.74575841 -0.17319003 0
1.7542125 -0.76816177 -0.17466666 0
1.8554223 -0.72450435 -0.17480046 0
1.9282885 -0.74618942 -0.17391358 0
2.0324972 -0.72070241 -0.17301892 0
-1.9540926 -0.67935896 -0.1736365 0
-1.8317635 -0.63727617 -0.17487423 0
-1.7392299 -0.65248609 -0.17521067 0
-1.6479367 -0.66406345 -0.17554146 0
-1.5676244 -0.63237566 -0.17636098 0
-1.4704121 -0.63516337 -0.17602591 0
-1.374 -0.634 -0.175 0
1.39 -0.63999999 -0.17299999 0
1.478182 -0.63638723 -0.17299999 0
1.558364 -0.66977453 -0.17299999 0
1.6307497 -0.61705768 -0.17291233 0
1.7474499 -0.65663463 -0.17514738 0
1.8510119 -0.64343452 -0.17470974 0
1.9375595 -0.6517902 -0.17389628 0
2.049 -0.60299999 -0.17299999 0
-2.023 -0.59899998 -0.17200001 0
-1.9461718 -0.57617605 -0.17249888 0
-1.8217475 -0.53921235 -0.17330684 0
-1.738798 -0.51456988 -0.17384547 0
-1.6686581 -0.58116567 -0.17652453 0
-1.546329 -0.53908288 -0.17776227 0
-1.4069999 -0.56900001 -0.178 0
1.3940001 -0.52399999 -0.17200001 0
1.4729166 -0.5550192 -0.17230411 0
1.5553565 -0.54523611 -0.17227069 0
1.6388199 -0.53165072 -0.17239973 0
1.7541533 -0.55198407 -0.17373306 0
1.8652874 -0.53506583 -0.17382734 0
1.9356896 -0.55004418 -0.17328164 0
2.0361722 -0.59911788 -0.17308439 0
-3.3768075 -0.42797735 -0.17006192 0
-3.27088 -0.4155153 -0.17044342 0
-3.1821451 -0.40507588 -0.17076299 0
-2.0340931 -0.48186064 -0.17268932 0
-1.9521459 -0.44600138 -0.17401642 0
-1.8484473 -0.42974126 -0.17615899 0
-1.7426395 -0.42629096 -0.176534 0
-1.6558485 -0.48992741 -0.1743841 0
-1.572899 -0.46528494 -0.17492273 0
-1.4403166 -0.45121416 -0.17682046 0
1.399 -0.44999999 -0.171 0
1.4813436 -0.43920088 -0.17139319 0
1.5644945 -0.42436969 -0.17163958 0
1.6452417 -0.44755453 -0.17195937 0
1.7369945 -0.44636971 -0.17363958 0
1.8506874 -0.43985966 -0.17311616 0
1.966709 -0.47834536 -0.17277585 0
2.041306 -0.49756357 -0.17201723 0
-3.0490427 -0.38941675 -0.17124234 0
-2.91594 -0.37375766 -0.1717217 0
-2.8272052 -0.36331823 -0.17204127 0
-2.7384701 -0.35287881 -0.17236085 0
-2.6497352 -0.34243941 -0.17268042 0
-2.5610001 -0.33199999 -0.17299999 0
-1.7469501 -0.38365731 -0.17945209 0
-1.6411422 -0.380207 -0.17982708 0
-1.5583212 -0.36060351 -0.18141355 0
-1.4755 -0.34100002 -0.183 0
1.393 -0.30399999 -0.17 0
1.4388037 -0.35067672 -0.17074192 0
1.5562145 -0.34270698 -0.17096767 0
1.6378217 -0.36206046 -0.17145151 0
1.7194288 -0.38141394 -0.17193535 0
1.844871 -0.31892452 -0.17184277 0
1.398 -0.236 -0.17 0
1.4797484 -0.2511698 -0.17033711 0
1.5614967 -0.2663396 -0.17067422 0
1.6432452 -0.2815094 -0.17101133 0
1.7254968 -0.24933961 -0.17217422 0
1.8375206 -0.21909982 -0.17225653 0
1.9490412 -0.23619965 -0.17151307 0
2.0246942 -0.24779977 -0.17100871 0
3.6110001 -0.20100001 -0.17900001 0
-3.3421445 -0.19050032 -0.16922337 0
-3.2207603 -0.18460056 -0.17010204 0
-3.1302314 -0.18020049 -0.17075737 0
-3.0397024 -0.17580043 -0.17141271 0
-2.9491735 -0.17140037 -0.17206803 0
-2.8586445 -0.16700031 -0.17272335 0
-2.7681155 -0.16260025 -0.17337869 0
-2.6775866 -0.15820017 -0.17403401 0
-2.5870578 -0.15380011 -0.17468934 0
-2.4512644 -0.14720002 -0.17567234 0
1.8535 -0.16249999 -0.17050001 0
1.9557316 -0.15595594 -0.16996612 0
2.0125 -0.1745 -0.17 0
3.2820001 -0.183 -0.19 0
3.3585694 -0.18718921 -0.18743993 0
3.4351389 -0.19137841 -0.18487985 0
3.549993 -0.19766223 -0.18103975 0
1.8542178 -0.058191217 -0.16911557 0
1.9568708 -0.044252038 -0.16873552 0
3.276 -0.027000001 -0.19 0
3.3536961 -0.028558375 -0.18799637 0
3.4313922 -0.030116748 -0.18599275 0
3.5479364 -0.032454312 -0.1829873 0
3.625 -0.034000002 -0.18099999 0
1.6930001 0.046999998 -0.171 0
1.77482 0.046593249 -0.17068845 0
1.8457737 0.056434613 -0.1695991 0
1.9526082 0.056923062 -0.16956528 0
2.0462708 0.099353924 -0.1705945 0
3.279 0.048 -0.191 0
3.3574336 0.048 -0.18927619 0
3.4358668 0.048 -0.18755238 0
3.5535169 0.048 -0.18496665 0
3.6429999 0.048 -0.183 0
-3.3327432 0.19770253 -0.17992657 0
-3.2191379 0.19136454 -0.17956781 0
-3.1287892 0.18632403 -0.1792825 0
-3.0384407 0.18128353 -0.17899719 0
-2.948092 0.17624302 -0.17871188 0
-2.8577433 0.17120253 -0.17842656 0
-2.7673945 0.16616201 -0.17814125 0
-2.6770458 0.16112152 -0.17785594 0
-2.5866973 0.15608101 -0.17757063 0
-2.4511743 0.14852026 -0.17714265 0
1.77 0.14400001 -0.168 0
1.8532082 0.15498781 -0.168 0
1.9306531 0.14345931 -0.168 0
2.1360884 0.10219241 -0.17049313 0
2.2259061 0.10503089 -0.17039175 0
2.3157239 0.10786937 -0.17029038 0
2.4504504 0.1121271 -0.17013833 0
2.573 0.116 -0.17 0
-2.7415886 0.29525021 -0.17681548 0
-2.6521914 0.28668767 -0.17661162 0
-2.5627942 0.27812511 -0.17640774 0
-2.4733973 0.26956257 -0.17620388 0
-2.3840001 0.26100001 -0.176 0
1.7436666 0.24833333 -0.16733332 0
1.8444539 0.23525013 -0.16777915 0
1.919 0.241 -0.168 0
3.27 0.20200001 -0.192 0
3.3496232 0.20504682 -0.1909844 0
3.4292464 0.20809361 -0.18996879 0
3.5486813 0.21266383 -0.18844539 0
3.6619999 0.21699999 -0.18700001 0
-3.2609999 0.345 -0.178 0
-3.1885741 0.33806297 -0.17783484 0
-3.0544784 0.32521915 -0.17752904 0
-2.9203827 0.31237531 -0.17722322 0
-2.8309855 0.30381277 -0.17701936 0
1.7520624 0.33474249 -0.16718712 0
1.8496603 0.3331764 -0.16762356 0
1.9468269 0.32289833 -0.16730538 0
2.0769231 0.34323728 -0.16748862 0
2.1636539 0.35679662 -0.16761078 0
2.2503848 0.37035593 -0.16773294 0
2.3371155 0.38391525 -0.16785508 0
2.4238462 0.39747456 -0.16797724 0
3.1919999 0.34799999 -0.189 0
3.2716546 0.35403442 -0.18839656 0
3.3513093 0.36006889 -0.18779311 0
3.430964 0.36610332 -0.18718967 0
3.5493093 0.37506887 -0.18629313 0
1.681 0.45100001 -0.16749999 0
1.758813 0.42123744 -0.168 0
1.8378131 0.43323743 -0.168 0
2.4400001 0.40000001 -0.168 0
3.148 0.41800001 -0.18799999 0
3.2266738 0.42534292 -0.1871608 0
3.3446848 0.43635726 -0.18590203 0
3.4626956 0.4473716 -0.18464324 0
3.523 0.45300001 -0.184 0
1.7480234 0.5126915 -0.167 0
1.8320466 0.53538299 -0.167 0
1.91607 0.55807447 -0.167 0
2.0000932 0.58076596 -0.167 0
3.079 0.55800003 -0.186 0
3.1574667 0.56822574 -0.18558262 0
3.2359333 0.5784514 -0.18516526 0
3.3536332 0.59378994 -0.18453918 0
-4.0149999 0.69 -0.176 0
-2.3376062 0.68278414 -0.17110302 0
-2.2520001 0.65600002 -0.171 0
-1.3031801 0.69125432 -0.16930597 0
-1.2309999 0.65100002 -0.17 0
1.5645 0.65900004 -0.167 0
1.6311978 0.67674363 -0.16637363 0
1.7465 0.65799999 -0.16599999 0
1.8436427 0.6719355 -0.15767297 0
2.0841165 0.60345745 -0.167 0
2.1681399 0.62614894 -0.167 0
2.2521632 0.64884037 -0.167 0
2.312 0.66500002 -0.167 0
3.4549999 0.60699999 -0.184 0
-4.7317362 0.78787059 -0.10977179 0
-4.6421442 0.77563679 -0.11805031 0
-4.5525522 0.76340294 -0.12632884 0
-4.4629602 0.75116915 -0.13460736 0
-4.3733683 0.73893529 -0.14288589 0
-4.2837763 0.7267015 -0.15116441 0
-4.1493878 0.70835078 -0.16358221 0
-2.6800306 0.78992057 -0.17151508 0
-2.5516214 0.74974442 -0.17136055 0
-2.4232123 0.70956826 -0.17120604 0
-2.2570739 0.77901876 -0.17105326 0
-1.7123425 0.76693702 -0.16721261 0
-1.677 0.77600002 -0.16850001 0
-1.4475403 0.77176291 -0.16791788 0
-1.3753601 0.73150861 -0.16861191 0
1.4895 0.76450002 -0.16749999 0
1.5464659 0.75641227 -0.16622271 0
1.6486517 0.75657672 -0.16491225 0
1.7240227 0.72869051 -0.16535887 0
1.8207041 0.74309915 -0.16133058 0
1.9376616 0.74133474 -0.1455896 0
2.0552497 0.75177419 -0.13685542 0
2.182214 0.79967749 -0.1243649 0
2.964 0.75599998 -0.183 0
3.0422266 0.77087116 -0.18340743 0
3.1204529 0.78574234 -0.18381485 0
-4.8213282 0.80010444 -0.10149326 0
-3.1400001 0.85500002 -0.17299999 0
-3.0523689 0.85661107 -0.17411952 0
-2.9564247 0.84163642 -0.17491207 0
-2.851243 0.84348875 -0.17172112 0
-2.7510197 0.86350745 -0.16836019 0
-2.5515914 0.88415033 -0.17142607 0
-2.4674435 0.85411274 -0.17131956 0
-2.3832955 0.82407516 -0.17121303 0
-2.1670001 0.86699998 -0.171 0
-1.6685518 0.83558488 -0.16697586 0
-1.5558105 0.83214438 -0.16687682 0
-1.1 0.889 -0.167 0
1.4483334 0.85733336 -0.16666667 0
1.5628463 0.85274649 -0.16446371 0
1.647697 0.85289294 -0.16444449 0
1.7381929 0.86513728 -0.16535559 0
1.9441025 0.8233574 -0.16536489 0
2.0657482 0.84032488 -0.14774574 0
2.1506994 0.84413332 -0.12142286 0
2.250448 0.8546865 -0.11427265 0
2.3514996 0.86354846 -0.10771086 0
3.1986794 0.80061352 -0.1842223 0
3.276906 0.8154847 -0.18462972 0
3.348 0.829 -0.185 0
-3.0525634 0.95842355 -0.17228331 0
-2.9322677 0.94645292 -0.17038745 0
-2.83044 0.94844919 -0.17033529 0
-2.719887 0.94422549 -0.1716391 0
-2.6363697 0.95209396 -0.16976629 0
-2.4146309 0.96690965 -0.17132974 0
-2.3320873 0.93360645 -0.17121983 0
-2.2495437 0.90030324 -0.17110991 0
-2.1792071 0.99655414 -0.16932833 0
-2.098 0.95999998 -0.169 0
-1.616657 0.91632849 -0.1652388 0
-1.5694588 0.95405716 -0.16539919 0
-1.2260718 0.99201441 -0.16588432 0
-1.1630359 0.94050723 -0.16644216 0
-1.064 0.94800001 -0.16599999 0
1.0275 0.95550001 -0.168 0
1.1073096 0.98103124 -0.16742925 0
1.3940001 0.96799999 -0.16599999 0
1.4486361 0.96239412 -0.16505325 0
1.5355202 0.94341433 -0.16351222 0
1.6395 0.97129017 -0.15824591 0
1.7579433 0.91888106 -0.1631446 0
1.8285908 0.93367887 -0.16383347 0
1.9416871 0.96608496 -0.16398527 0
2.1475797 0.90266687 -0.16500604 0
2.317379 0.91138667 -0.10359201 0
-3.0050001 1.046 -0.17200001 0
-2.9723306 1.0343382 -0.17195866 0
-2.8618829 1.0477993 -0.16944283 0
-2.721693 1.0218195 -0.16809526 0
-2.662262 1.0668194 -0.17165947 0
-2.5797184 1.0335162 -0.17154956 0
-2.4971747 1.0002129 -0.17143965 0
-2.3416214 1.0696625 -0.169985 0
-2.2498918 1.0608926 -0.1694462 0
-2.1596847 1.0508385 -0.16911788 0
-2.0799999 1.013 -0.169 0
-1.5168831 1.0289507 -0.16431753 0
-1.4737517 1.0704865 -0.16457349 0
-1.3521436 1.0950289 -0.16476864 0
-1.2891078 1.0435216 -0.16532648 0
-1.1546639 1.0290008 -0.16543156 0
-1.0433078 1.0571438 -0.16613866 0
-0.93649995 1.0625 -0.16500001 0
0.97299999 1.045 -0.168 0
1.0661417 1.0408331 -0.16781305 0
1.1459513 1.0663643 -0.16724229 0
1.2279285 1.0890937 -0.16628775 0
1.3705001 1.049 -0.16575 0
1.4590081 1.0497922 -0.16427685 0
1.5693128 1.0537658 -0.16424225 0
1.6421466 1.0470676 -0.1496523 0
1.7478355 1.0523982 -0.13504036 0
1.8353531 1.0826538 -0.15816429 0
1.9570626 1.026282 -0.16243175 0
2.070159 1.0586879 -0.16258356 0
2.1451812 1.0670327 -0.16261494 0
-3.1451585 1.1809167 -0.16857161 0
-3.0604653 1.1490972 -0.16847634 0
-2.9345551 1.1513357 -0.17079009 0
-2.8273492 1.1334258 -0.17187929 0
-2.7448056 1.1001226 -0.17176938 0
-2.5446391 1.1610478 -0.17080583 0
-2.4228284 1.1062165 -0.17031333 0
-2.3588965 1.1454346 -0.16941257 0
-2.1440983 1.1738052 -0.16983521 0
-2.026 1.112 -0.169 0
-1.4388348 1.1330739 -0.16404216 0
-1.3583083 1.1735435 -0.1641614 0
-1.2240961 1.1448888 -0.16505557 0
-1.1452428 1.1235175 -0.165832 0
-1.068604 1.1533456 -0.16500001 0
-0.96841574 1.1523305 -0.16479269 0
-0.87300003 1.148 -0.16500001 0
0.89200002 1.164 -0.169 0
0.96344519 1.1380378 -0.16880041 0
1.0560604 1.1337495 -0.168 0
1.1824251 1.1544992 -0.16743915 0
1.288238 1.1431249 -0.16571699 0
1.3577772 1.1538049 -0.16557147 0
1.4369216 1.1317238 -0.16422501 0
1.5312176 1.161438 -0.16320984 0
1.6456245 1.1286807 -0.16313264 0
1.7449249 1.1623639 -0.16354196 0
1.8362105 1.1219908 -0.10838875 0
1.9506592 1.14975 -0.15551358 0
2.1561818 1.1336827 -0.16171892 0
2.231204 1.1420274 -0.16175029 0
2.3464882 1.1668954 -0.16125934 0
-3.3568912 1.2604654 -0.16880977 0
-3.2298517 1.2127361 -0.16866687 0
-2.8344321 1.2914937 -0.17197749 0
-2.7476568 1.2524332 -0.17162666 0
-2.6521213 1.2468741 -0.17056173 0
-2.5581081 1.2400306 -0.16970727 0
-2.4784236 1.2021922 -0.16958939 0
-2.3409286 1.2768141 -0.17122722 0
-2.2621965 1.2356106 -0.17067041 0
-1.413 1.202 -0.164 0
-1.3461412 1.2492646 -0.16403088 0
-1.2582428 1.2645175 -0.164332 0
-1.1530571 1.2436048 -0.16500001 0
-1.0455393 1.2428265 -0.1644817 0
-0.94585478 1.2415807 -0.16468598 0
0.82800001 1.2585 -0.17050001 0
0.94454575 1.2721194 -0.16952758 0
1.069226 1.2581888 -0.16800207 0
1.1668078 1.2520823 -0.168 0
1.2693188 1.2526243 -0.16682936 0
1.3428699 1.2350454 -0.16550325 0
1.4769696 1.265417 -0.16388407 0
1.6386307 1.2435164 -0.16261721 0
1.7940409 1.231801 -0.16255438 0
1.8699386 1.2552975 -0.16272676 0
1.9477329 1.2764394 -0.16271962 0
2.0659652 1.2168461 -0.15286286 0
2.144918 1.2627885 -0.15104786 0
2.3362389 1.2308018 -0.16107433 0
-3.526 1.324 -0.169 0
-3.4839311 1.3081945 -0.16895267 0
-2.7367387 1.3248538 -0.16997151 0
-2.4590268 1.3386195 -0.17206243 0
-2.153862 1.3786073 -0.17037868 0
-1.326 1.3 -0.164 0
-1.2727642 1.3401026 -0.16409034 0
-1.1438314 1.3581611 -0.16408536 0
-1.0429945 1.3663549 -0.16426727 0
-0.83491695 1.3447443 -0.16473266 0
-0.75537926 1.358814 -0.16564332 0
-0.68900001 1.3940001 -0.167 0
0.69499999 1.3940001 -0.17 0
0.74699998 1.3329999 -0.169 0
0.84406406 1.3489749 -0.16978787 0
0.94679642 1.3629322 -0.17016549 0
1.0407389 1.353892 -0.169 0
1.1485616 1.348302 -0.16740331 0
1.2484903 1.3450978 -0.16757657 0
1.3305721 1.3502749 -0.16525403 0
1.4152017 1.3679665 -0.16374359 0
1.5452044 1.3238755 -0.16332608 0
1.6298999 1.3627232 -0.16298319 0
1.7460439 1.3255949 -0.16202459 0
1.8176527 1.380314 -0.1616295 0
1.9424572 1.3349216 -0.16197614 0
2.0468152 1.3623258 -0.16190679 0
-5.7459998 1.4910001 -0.146 0
-2.733 1.482 -0.17399999 0
-2.6558573 1.4416282 -0.17345443 0
-2.5771251 1.4004247 -0.17289762 0
-2.323173 1.4816436 -0.16727206 0
-2.2554486 1.4404291 -0.16851471 0
-1.105 1.446 -0.164 0
-0.93450177 1.4984659 -0.16339596 0
-0.85409248 1.4471166 -0.16425197 0
-0.72428197 1.4597412 -0.16598469 0
-0.63499999 1.4576668 -0.16733332 0
0.57599998 1.495 -0.169 0
0.62150002 1.4555 -0.16850001 0
0.75877494 1.433641 -0.16920488 0
0.85659707 1.4411149 -0.169067 0
0.96144342 1.4541616 -0.1695559 0
1.0644557 1.4545269 -0.16916549 0
1.164755 1.4549484 -0.16901095 0
1.2124771 1.4272804 -0.16720903 0
1.3720866 1.459133 -0.16527246 0
1.4798025 1.4299499 -0.16311538 0
1.570691 1.4469391 -0.16252011 0
1.681674 1.4407927 -0.16221017 0
1.7678498 1.4780848 -0.16197479 0
1.8892615 1.435033 -0.16123442 0
1.9608703 1.4897519 -0.16083933 0
2.0908737 1.438042 -0.16139789 0
2.1705647 1.4568293 -0.16121125 0
2.227 1.457 -0.161 0
2.6404219 1.4304516 -0.17210239 0
2.7586865 1.4948061 -0.17240958 0
-6.0516195 1.5692139 -0.13910891 0
-5.9206395 1.5356936 -0.14206223 0
-5.8333197 1.5133469 -0.14403112 0
-2.447 1.557 -0.16500001 0
-2.3908975 1.5228581 -0.16602941 0
-0.96399999 1.544 -0.163 0
-0.87165481 1.5556977 -0.16350329 0
-0.76249903 1.5674504 -0.16510922 0
-0.67636013 1.5483638 -0.16642927 0
-0.56699997 1.5465 -0.169 0
0.45999998 1.5745 -0.1665 0
0.54070324 1.5482694 -0.16721596 0
0.65251905 1.5554103 -0.16809359 0
0.76703382 1.540284 -0.16926119 0
0.86559904 1.5344195 -0.16833743 0
0.97325623 1.5469 -0.16915144 0
1.0395 1.5685 -0.169 0
1.2689494 1.5475765 -0.16785538 0
1.3399378 1.5873904 -0.16686876 0
1.4644017 1.5559828 -0.16397682 0
1.6090043 1.5539165 -0.16185896 0
1.7657152 1.5500356 -0.16102374 0
1.8368248 1.5357656 -0.16147058 0
1.9057996 1.5934465 -0.16096638 0
2.032479 1.5444709 -0.16044424 0
2.1485438 1.5540949 -0.16052458 0
2.8375299 1.537709 -0.17261437 0
2.916373 1.5806121 -0.17281915 0
-6.5318794 1.6921214 -0.12828006 0
-6.4445591 1.6697745 -0.13024893 0
-6.3572392 1.6474278 -0.13221782 0
-6.2699194 1.6250809 -0.1341867 0
-6.1825995 1.6027341 -0.13615559 0
-0.8635 1.6275001 -0.163 0
-0.75063396 1.6618353 -0.16534764 0
-0.63313395 1.6644294 -0.1673214 0
-0.54134041 1.6513903 -0.16883804 0
-0.45633331 1.6596667 -0.17 0
0.33866668 1.6543335 -0.16566665 0
0.43349937 1.6493163 -0.16610527 0
0.54938674 1.6499785 -0.16691218 0
0.65184164 1.637063 -0.16791135 0
0.7317344 1.6630781 -0.16746299 0
0.82105911 1.649997 -0.16870709 0
0.91556603 1.6192796 -0.16805829 0
1.3694034 1.6563283 -0.166906 0
1.5567167 1.6528326 -0.16268116 0
1.6736051 1.6158998 -0.16123074 0
1.7382059 1.6778831 -0.16060254 0
1.8669572 1.63889 -0.16010612 0
1.9546132 1.6746268 -0.15997827 0
2.1529999 1.6110001 -0.1635 0
2.2633147 1.6679827 -0.16725112 0
2.9952164 1.6235151 -0.17302394 0
3.0740597 1.6664181 -0.17322873 0
-6.6260996 1.7162342 -0.12615559 0
-1.965 1.79 -0.169 0
-0.80617476 1.7502904 -0.16580835 0
-0.73039019 1.7226446 -0.16513896 0
-0.65036339 1.7754539 -0.16575639 0
-0.55578697 1.7595583 -0.16751668 0
-0.44174799 1.7643863 -0.16886909 0
-0.35102555 1.7559431 -0.16893838 0
0.14866666 1.7723333 -0.16500001 0
0.25730458 1.7318002 -0.16500001 0
0.36020339 1.7450793 -0.16584119 0
0.44877902 1.7691388 -0.16631235 0
0.55712205 1.7350929 -0.16667648 0
0.63033277 1.7532749 -0.16644295 0
0.73909509 1.7345555 -0.16728632 0
0.88254225 1.774855 -0.16807649 0
0.92400002 1.7539999 -0.168 0
1.4370275 1.7244625 -0.16629167 0
1.6490316 1.7496824 -0.16138551 0
1.8028067 1.7398664 -0.15997432 0
1.989 1.7460001 -0.15899999 0
2.0380001 1.704 -0.16 0
2.3336296 1.7199653 -0.16750224 0
2.4039443 1.771948 -0.16775337 0
3.1529028 1.7093211 -0.17343351 0
3.2317462 1.7522242 -0.1736383 0
3.3105893 1.7951272 -0.17384309 0
-2.0317826 1.8502451 -0.16849712 0
-1.243 1.874 -0.16500001 0
-0.84271848 1.832613 -0.16551045 0
-0.71943104 1.8404279 -0.1658604 0
-0.56133258 1.8476863 -0.1662477 0
-0.46149591 1.838106 -0.1677382 0
-0.33449626 1.8162732 -0.16725063 0
-0.25567308 1.8531578 -0.16739702 0
0.16054626 1.8547487 -0.16523999 0
0.2562713 1.8398262 -0.16521491 0
0.35765058 1.8657794 -0.16587858 0
0.44900671 1.8635194 -0.16646354 0
0.54413611 1.8391007 -0.16682617 0
0.67099881 1.8132167 -0.16621922 0
0.76383889 1.8501632 -0.16647772 0
0.82435662 1.8486147 -0.16709559 0
0.96483046 1.8350114 -0.16753602 0
1.4604827 1.804338 -0.16620049 0
1.5177794 1.8746055 -0.16564059 0
1.7413467 1.8465321 -0.16008987 0
1.8674076 1.8018497 -0.15934612 0
1.903 1.836 -0.15899999 0
2.4742589 1.8239307 -0.1680045 0
2.5445735 1.8759134 -0.16825561 0
3.3710001 1.8279999 -0.17399999 0
-2.1653476 1.9707353 -0.16749136 0
-2.0985651 1.9104902 -0.16799425 0
-1.9518404 1.9573629 -0.16878773 0
-1.6550128 1.9413178 -0.16867653 0
-1.2937626 1.9467597 -0.16556403 0
-1.1277466 1.9870272 -0.16438203 0
-1.082 1.909 -0.164 0
-0.91580582 1.9972582 -0.16491462 0
-0.84091139 1.951757 -0.16488421 0
-0.75053883 1.9227848 -0.1652005 0
-0.62538916 1.9264092 -0.16646934 0
-0.54162604 1.9797601 -0.16658767 0
-0.46051088 1.9142873 -0.16627207 0
-0.25248215 1.9738606 -0.16561882 0
0.14792317 1.9314801 -0.16554701 0
0.22245647 1.9506551 -0.16590302 0
0.34787795 1.9326818 -0.16690663 0
0.46817562 1.9458593 -0.16661805 0
0.56085306 1.9535657 -0.16681184 0
0.68677402 1.9285203 -0.16511983 0
0.73699999 1.923 -0.16599999 0
0.84234875 1.9509548 -0.16630709 0
1.0260761 1.9565284 -0.16684005 0
1.5750759 1.9448732 -0.1650807 0
1.810945 1.9195493 -0.15911305 0
2.6500459 1.9538873 -0.1686323 0
-2.2655215 2.0611029 -0.16673703 0
-2.0473619 2.0514514 -0.16815092 0
-1.867 2.0639999 -0.169 0
-1.7390515 2.0412714 -0.1677061 0
-1.3699064 2.0558991 -0.16641009 0
-1.1734933 2.0650542 -0.16476403 0
-0.95234954 2.0795808 -0.16461672 0
-0.83482081 2.0710082 -0.16398184 0
-0.76073253 2.0217052 -0.16452533 0
-0.6637851 2.0484376 -0.16514534 0
-0.53990936 2.0722873 -0.1649874 0
-0.49802899 2.0060997 -0.16539219 0
-0.34413379 2.0516434 -0.16590756 0
-0.26296431 2.0637212 -0.16523765 0
0.12538475 2.03722 -0.16682053 0
0.24505162 2.0647781 -0.16617036 0
0.37031692 2.0580225 -0.16735993 0
0.46585205 2.0457969 -0.16676345 0
0.54895639 2.0658236 -0.16691917 0
0.62174976 2.046164 -0.167 0
0.722 2.0910001 -0.16500001 0
0.85269046 2.0764084 -0.16545381 0
0.9244265 2.0487919 -0.16571574 0
1.0466609 2.0815227 -0.16607204 0
1.193 2.0899999 -0.169 0
1.313 2.0699999 -0.17 0
1.6610206 2.0502746 -0.16424084 0
2.753 2.03 -0.169 0
-2.3656952 2.1514707 -0.16598272 0
-2.1428833 2.1455398 -0.16751412 0
-1.9576368 2.1612811 -0.16831851 0
-1.8511029 2.1745429 -0.1664122 0
-1.7950772 2.1079071 -0.16705915 0
-1.597 2.1719999 -0.177 0
-1.4460504 2.1650388 -0.16725612 0
-1.2192398 2.1430812 -0.16514605 0
-0.98889315 2.1619034 -0.16431881 0
-0.83293104 2.1799278 -0.16311041 0
-0.79068792 2.1039891 -0.16377956 0
-0.69700003 2.154 -0.164 0
-0.54940784 2.12956 -0.16444179 0
-0.36853522 2.1855741 -0.16563028 0
-0.27344647 2.1535819 -0.16485649 0
0.23100001 2.1300001 -0.167 0
0.37687793 2.1486816 -0.16740662 0
0.48100749 2.1418521 -0.16697204 0
0.55400002 2.1224999 -0.167 0
0.7508586 2.1747129 -0.16534357 0
0.86240429 2.1659467 -0.16512808 0
0.93737966 2.1408801 -0.1653896 0
1.042401 2.1596644 -0.16515346 0
1.1281524 2.1590567 -0.16568008 0
1.2377189 2.1645315 -0.16795394 0
1.3613514 2.1428411 -0.16849294 0
1.7469654 2.1556759 -0.16340099 0
-2.4658692 2.2418382 -0.1652284 0
-2.2384045 2.2396283 -0.1668773 0
-2.0482738 2.2585626 -0.16763704 0
-1.9071287 2.2411785 -0.16576526 0
-1.8594038 2.2621169 -0.17055419 0
-1.796 2.2969999 -0.171 0
-1.6675959 2.264678 -0.17398879 0
-1.4968129 2.2377987 -0.16782014 0
-1.3107331 2.2991354 -0.16591009 0
-1.2509933 2.2480543 -0.16376403 0
-1.0471457 2.2454088 -0.1633403 0
-0.87215483 2.2433834 -0.16309285 0
-0.72524452 2.2397976 -0.16419347 0
-0.60502779 2.2155001 -0.16510226 0
-0.56507903 2.2746003 -0.16441782 0
-0.38480285 2.2748611 -0.16544542 0
-0.28392863 2.2434425 -0.16447532 0
0.38325307 2.2483478 -0.16713822 0
0.44302526 2.2232947 -0.16768768 0
0.59367537 2.2057128 -0.16665986 0
0.61635077 2.2914259 -0.16631974 0
0.77971721 2.2584257 -0.16568711 0
0.89480865 2.2468936 -0.16525616 0
0.9485715 2.2342248 -0.1653614 0
1.0398127 2.2472174 -0.16429435 0
1.1689827 2.2400682 -0.1652161 0
1.2824378 2.239063 -0.16690789 0
1.4338785 2.2521029 -0.16623235 0
1.577 2.234 -0.161 0
1.788 2.2060001 -0.163 0
-2.6289999 2.3889999 -0.164 0
-2.5660429 2.332206 -0.16447407 0
-2.3339257 2.3337169 -0.1662405 0
-2.1389108 2.3558438 -0.16695556 0
-2.0191801 2.37445 -0.16447136 0
-1.9538851 2.3346405 -0.16716754 0
-1.8511902 2.3642671 -0.17022085 0
-1.7381918 2.3573561 -0.17097759 0
-1.5553045 2.3602922 -0.16777746 0
-1.3564796 2.3771627 -0.1662921 0
-1.277292 2.3507605 -0.16285124 0
-1.1258769 2.322732 -0.16264932 0
-0.88661945 2.3595331 -0.16337138 0
-0.75348908 2.3255951 -0.16438691 0
-0.64106953 2.3452504 -0.16525562 0
-0.58711857 2.3614006 -0.16462672 0
-0.40107045 2.3641481 -0.16526055 0
-0.29441077 2.3333032 -0.16409415 0
0.40550613 2.3826954 -0.16727643 0
0.51262629 2.3444738 -0.16793844 0
0.63902617 2.3771389 -0.16597961 0
0.80857581 2.3421385 -0.16603068 0
0.95618987 2.3226347 -0.16523628 0
1.077853 2.3765841 -0.16343147 0
1.1334034 2.3463254 -0.16303712 0
1.2098132 2.3210795 -0.16475213 0
1.3495162 2.3508604 -0.1653388 0
1.5064057 2.3613644 -0.16397178 0
1.6522002 2.3398447 -0.16120161 0
-2.4612875 2.4591684 -0.16539142 0
-2.2295475 2.4531252 -0.16627409 0
-2.039885 2.4482114 -0.16658626 0
-1.9339757 2.465168 -0.16905211 0
-1.808 2.4489999 -0.168 0
-1.7852559 2.4191415 -0.16897012 0
-1.6491008 2.4560778 -0.16951223 0
-1.558673 2.4461815 -0.16687892 0
-1.4022262 2.4551897 -0.16667412 0
-1.3175842 2.4265208 -0.16370249 0
-1.2016307 2.4841957 -0.16394795 0
-1.1637539 2.4034638 -0.16329864 0
-0.9189291 2.4442997 -0.16355707 0
-0.80997807 2.4971902 -0.16477382 0
-0.78173357 2.4113927 -0.16458037 0
-0.64313465 2.4616005 -0.1651223 0
-0.41733807 2.4534349 -0.1650757 0
-0.30489293 2.4231639 -0.16371298 0
0.42034149 2.4722605 -0.16736858 0
0.54120201 2.4773581 -0.16850151 0
0.66170156 2.4628518 -0.16563947 0
0.83743441 2.4258513 -0.16637422 0
0.97581947 2.4492607 -0.16557637 0
1.0400596 2.442235 -0.16467866 0
1.1521072 2.458427 -0.16231386 0
1.2710589 2.4425964 -0.16405615 0
1.335 2.461 -0.162 0
1.4165946 2.4626577 -0.16376972 0
1.5547571 2.4342055 -0.16246472 0
1.7274003 2.4456894 -0.16140322 0
-2.52 2.517 -0.16500001 0
-2.3503966 2.5828335 -0.16536544 0
-2.2899721 2.5179794 -0.16581976 0
-2.1150393 2.5601671 -0.16654198 0
-2.0167611 2.5660686 -0.16788338 0
-1.6603397 2.5575149 -0.16921227 0
-1.5973459 2.505363 -0.16775785 0
-1.4479728 2.5332167 -0.16705614 0
-1.3780222 2.5401616 -0.16497934 0
-1.2395077 2.5649278 -0.16459727 0
-0.95123887 2.5290663 -0.16374275 0
-0.83822262 2.5829878 -0.16496728 0
-0.70113909 2.5615005 -0.16551124 0
-0.63119757 2.5350008 -0.16504453 0
-0.43360567 2.5427222 -0.16489084 0
-0.31537509 2.5130246 -0.16333181 0
0.43517688 2.5618255 -0.16746072 0
0.56025255 2.5659478 -0.1688769 0
0.68437696 2.5485649 -0.16529934 0
0.88072228 2.5514207 -0.16688955 0
1.0596893 2.568861 -0.16501874 0
1.164283 2.5612402 -0.16214466 0
1.221 2.526 -0.161 0
1.3517663 2.5409517 -0.16251689 0
1.4343848 2.5558844 -0.16203545 0
1.6272843 2.5434673 -0.16020414 0
1.7775337 2.5162525 -0.16153762 0
1.8276671 2.5868156 -0.16167203 0
-2.3989999 2.635 -0.16500001 0
-2.2286553 2.6926341 -0.16475877 0
-2.1718473 2.6264005 -0.16565038 0
-2.0719512 2.6333358 -0.16710423 0
-1.539466 2.689271 -0.16782017 0
-1.46609 2.6325231 -0.16684717 0
-1.2773845 2.6456597 -0.16524659 0
-1.0158583 2.6985993 -0.16411413 0
-0.98354852 2.613833 -0.16392845 0
-0.86646712 2.6687853 -0.16516073 0
-0.72516692 2.6480007 -0.16561347 0
-0.6532371 2.6218009 -0.16525343 0
-0.4498733 2.632009 -0.16470599 0
-0.33109832 2.6478157 -0.16276006 0
0.45001227 2.6513908 -0.16755287 0
0.57930303 2.6545372 -0.16925228 0
0.70705235 2.6342778 -0.16495922 0
0.92401022 2.67699 -0.16740489 0
1.0568303 2.6516275 -0.16589656 0
1.131 2.6489999 -0.164 0
1.364 2.6270001 -0.163 0
1.444842 2.6331849 -0.16101043 0
1.5205162 2.6358604 -0.16133881 0
1.698 2.6500001 -0.15800001 0
1.8778005 2.6573787 -0.16180643 0
5.3340001 2.622 -0.171 0
5.4141359 2.6623237 -0.16782731 0
-2.277 2.7490001 -0.164 0
-2.1547365 2.7342367 -0.16593549 0
-1.561 2.7260001 -0.168 0
-1.4787524 2.7295625 -0.16710745 0
-1.3152615 2.7263916 -0.16589591 0
-1.0481679 2.783366 -0.16429982 0
-0.89471161 2.7545829 -0.16535419 0
-0.74919474 2.7345009 -0.16571572 0
-0.68629634 2.7520013 -0.16556679 0
-0.46614093 2.7212961 -0.16452113 0
-0.34682155 2.7826066 -0.16218831 0
0.46484762 2.7409558 -0.16764501 0
0.59835356 2.7431269 -0.16962765 0
0.72972775 2.7199907 -0.16461909 0
0.95286882 2.7607028 -0.16774844 0
1.0829999 2.717 -0.16599999 0
1.938967 2.7434709 -0.16197042 0
5.3379998 2.7709999 -0.163 0
5.4942722 2.7026477 -0.16465463 0
5.5744081 2.7429714 -0.16148195 0
5.6545439 2.7832954 -0.15830925 0
-2.221 2.8150001 -0.16500001 0
-1.5200222 2.8071613 -0.16797933 0
-1.3720767 2.8474894 -0.16686988 0
-1.0804777 2.8681326 -0.16448551 0
-0.92295611 2.8403802 -0.16554764 0
-0.74628907 2.8516011 -0.16584906 0
-0.49054235 2.8552265 -0.16424385 0
-0.352 2.8269999 -0.162 0
0.47968301 2.8305211 -0.16773716 0
0.6174041 2.8317165 -0.17000304 0
0.76170158 2.8408518 -0.16413948 0
0.97399998 2.822 -0.168 0
5.4539928 2.8354595 -0.15886356 0
5.5699854 2.899919 -0.15472712 0
5.7346797 2.8236191 -0.15513657 0
5.814816 2.8639431 -0.15196387 0
-1.433446 2.9782934 -0.16792193 0
-1.1127874 2.952899 -0.1646712 0
-0.95120066 2.926178 -0.1657411 0
-0.81599998 2.9749999 -0.16599999 0
-0.76462519 2.9197507 -0.1659601 0
-0.51200002 2.973 -0.164 0
0.4945184 2.9200861 -0.1678293 0
0.63645458 2.920306 -0.17037842 0
5.6473141 2.9428923 -0.15196948 0
5.7246428 2.9858654 -0.14921185 0
5.8949518 2.9042668 -0.14879119 0
5.9750876 2.9445906 -0.1456185 0
6.0552235 2.9849145 -0.14244582 0
-1.1450971 3.0376656 -0.16485688 0
-0.98422259 3.0264876 -0.16596727 0
0.51567686 3.0478256 -0.16796073 0
0.66175252 3.0379477 -0.17087689 0
5.8406358 3.0503249 -0.14507541 0
6.1170001 3.016 -0.14 0
-1.17 3.1029999 -0.16500001 0
5.9566283 3.1147845 -0.14093897 0
6.0110002 3.145 -0.139 0
1.541 4.3579998 -0.167 0
1.642 4.3210001 -0.16500001 0
1.5724349 4.4402885 -0.15251632 0
1.6717898 4.4052196 -0.15490176 0
1.7015797 4.489439 -0.14480349 0
1.6038699 4.5225773 -0.13803264 0
1.7313695 4.5736585 -0.13470525 0
1.6510223 4.6460104 -0.11630712 0
1.7611594 4.6578779 -0.12460699 0
1.7909492 4.7420974 -0.11450873 0
1.820739 4.8263168 -0.10441048 0
-2.359 -2.8080001 -0.0049999999 0
-1.911 -2.8169999 -0.085000001 0
-1.8706629 -2.7548397 -0.093138978 0
0.229 -1.554 -0.048999999 0
-4.7859998 -1.484 -0.011 0
0.21784356 -1.471742 -0.041506864 0
0.19553067 -1.3072262 -0.026520599 0
0.20668712 -1.389484 -0.034013733 0
0.18437423 -1.2249682 -0.019027464 0
1.3597847 -1.2012342 -0.016860573 0
1.4265001 -1.2409999 -0.024 0
1.528 -1.223 -0.030999999 0
2.2527695 -1.2436852 -0.013156664 0
2.3740001 -1.251 -0.0060000001 0
2.6629882 -1.2448876 -0.0074208984 0
2.7549939 -1.2754438 -0.022460449 0
0.17321777 -1.1427102 -0.01153433 0
1.3412679 -1.1685672 -0.0075919959 0
1.4396847 -1.1579256 -0.012407317 0
2.1470778 -1.1827409 -0.0016266508 0
2.5599649 -1.187663 -0.0047626942 0
0.16203067 -1.0602261 -0.0040205978 0
-4.9499598 0.81766915 -0.089607373 0
2.4361422 0.89548397 -0.099383838 0
2.442389 0.96182668 -0.090218857 0
2.5207851 0.92741942 -0.091056824 0
2.6447139 0.97417748 -0.078864902 0
2.5806994 1.0176333 -0.075422861 0
1.8925426 1.1866434 -0.093604662 0
1.9613073 1.166692 -0.089153938 0
1.964251 1.2311721 -0.079725593 0
2.0610092 1.2471724 -0.067671366 0
1.6981747 4.7694435 -0.094581611 0
1.7296097 4.8517323 -0.080097936 0
1.7610446 4.934021 -0.065614253 0
1.8654239 4.9526463 -0.089263096 0
1.7924795 5.0163097 -0.051130578 0
1.8239145 5.0985985 -0.036646903 0
1.9101087 5.0789752 -0.074115716 0
1.834 5.125 -0.032000005 0
1.937 5.1550002 -0.064999998 0
-2.302669 -2.740741 0.0082940925 0
-2.2463381 -2.6734819 0.021588184 0
-2.1900072 -2.6062229 0.034882277 0
-2.1336763 -2.5389636 0.048176371 0
-2.04918 -2.4380751 0.068117507 0
-1.9646837 -2.3371863 0.088058643 0
10.517927 -2.3111963 0.09039712 0
10.172 -2.2520001 0.046 0
10.258482 -2.2667992 0.057099279 0
10.344964 -2.2815981 0.068198562 0
10.431446 -2.2963972 0.079297841 0
-4.7017918 -1.4575405 0.0038046772 0
-4.6175833 -1.4310812 0.018609354 0
-4.5333753 -1.4046217 0.033414032 0
-4.4491673 -1.3781623 0.048218708 0
-4.3649592 -1.3517029 0.063023381 0
-4.2807508 -1.3252435 0.077828057 0
-4.1965427 -1.298784 0.092632733 0
2.3027594 -1.2126122 0.008105306 0
2.6134377 -1.2307565 0.010730973 0
1.2453539 -1.1037025 0.0034182835 0
1.3239332 -1.1373317 0.0040743053 0
2.0413859 -1.1217966 0.009903362 0
2.1602778 -1.1358365 0.036315914 0
2.2315185 -1.1742244 0.022210613 0
2.3897505 -1.1220264 0.051923893 0
2.4500692 -1.1427528 0.016634947 0
2.5388751 -1.1945132 0.024461946 0
2.839 -1.113 0.0020000001 0
1.1840693 -1.0514684 0.014278855 0
1.24245 -1.0684988 0.022305731 0
1.3256848 -1.0739255 0.011592682 0
1.937898 -1.0462841 0.039811123 0
2.0534167 -1.0782547 0.057473879 0
2.2381358 -1.0454383 0.052484889 0
2.320559 -1.0840545 0.041064739 0
2.6329246 -1.0443082 0.03539183 0
2.7409248 -1.0803082 0.017891828 0
10.64765 -2.3333948 0.10704604 0
10.777373 -2.3555934 0.12369496 0
10.863855 -2.3703923 0.13479424 0
10.92 -2.3800001 0.142 0
-1.9083529 -2.2699273 0.10135273 0
-1.859 -2.211 0.113 0
-4.1123347 -1.2723246 0.10743741 0
-4.0281267 -1.2458652 0.12224209 0
-3.984 -1.232 0.13 0
