# .PCD v0.7 - Point Cloud Data file format
VERSION 0.7
FIELDS x y z intensity
SIZE 4 4 4 4
TYPE F F F F
COUNT 1 1 1 1
WIDTH 648
HEIGHT 1
VIEWPOINT 0 0 0 1 0 0 0
POINTS 648
DATA ascii
-18.065849 20.380617 14.106992 18
-18.099907 22.950151 15.830043 18
-17.981672 23.540264 15.13206 17
-17.980246 23.35523 15.308054 18
-17.513895 23.25016 15.831067 18
-13.363256 23.650585 13.219239 17
-13.228129 23.182497 13.947227 18
-12.811364 23.167194 14.087248 18
-12.534723 3.8163102 0.28205085 4
-12.665928 23.755068 13.136275 17
-12.573983 23.443501 13.825768 18
-11.73583 4.2049866 0.26601827 4
-11.951665 23.789455 13.025312 17
-11.936626 23.78443 13.753313 18
-11.706693 23.919197 14.070831 18
-10.857231 5.0722551 0.01297823 3
-10.487273 -7.6835051 -0.12690736 3
-10.175879 4.1572061 0.2469907 4
-10.016611 23.864241 18.848425 22
-9.7117252 -12.920092 11.068829 21
-8.8634901 -7.9210391 0.082085453 3
-8.8401842 -7.2334418 0.075988859 3
-9.1952572 4.3445377 0.21697184 4
-8.8866806 -13.106691 6.9248385 16
-9.0701275 -13.124486 7.4358444 16
-9.0140352 -13.001735 7.772325 17
-8.4598351 -13.090679 6.827827 16
-8.5263004 -13.016968 7.3678169 16.5
-8.6116667 -12.969867 7.6288118 17
-8.2430811 -13.006605 7.3493094 16.5
-8.1032295 -13.009085 10.263307 21
-7.98561 -14.851375 0.6170764 4
-7.6143699 -13.01055 6.6267967 16
-7.9273243 -12.952694 10.663795 22
-7.972445 23.561388 17.862543 22
-7.6466107 23.626839 17.865566 22
-7.2007222 -12.950465 6.5247779 16
-7.4448156 -13.01164 7.0117927 16
-7.356442 -12.864229 7.2412686 17
-7.5439429 24.050583 18.126595 22
-7.0072494 -6.8357806 0.026886521 3
-6.8964143 -14.795715 0.92804337 5
-6.9543276 -14.768991 1.2810408 6
-7.0229011 -14.810669 2.7045486 8
-6.8664546 -14.75633 2.9040368 9
-7.0061417 24.073639 17.994635 22
-7.1620617 24.025923 18.066622 22
-6.8869696 23.921412 19.331638 23
-6.7191434 8.1503773 -0.080982126 3
-6.4820886 -14.75999 0.91652811 5
-6.5522799 -14.788817 1.2830343 6
-6.4765482 -14.747324 2.0730267 7
-6.5322008 -14.791533 2.709034 8
-6.6422648 -12.898138 9.7917576 21
-6.7250524 -12.87556 10.108755 22
-6.3504682 5.705821 -0.13202755 3
-6.1406064 -14.723627 0.85101408 5
-6.1404376 -14.761558 1.2800198 6
-6.0836368 -14.728158 2.0510132 7
-6.1853318 -14.726158 2.6025159 8
-6.3138351 -14.768331 2.8020251 8
-6.0799856 24.162048 12.507715 17
-6.1454916 24.102667 12.994707 18
-6.1374707 24.105118 14.144708 19
-5.934947 -10.771667 -0.14357272 3
-5.8090634 -9.3940105 -0.20777705 3
-5.6402183 2.3023298 -0.12703414 3
-5.7534275 4.2895641 -0.073038124 3
-5.6784525 4.650744 -0.094032824 3
-5.7237182 -14.711226 1.2780015 6
-5.7076182 -14.733031 2.033004 7
-5.8032913 -14.740007 2.5645082 8
-5.6109324 -14.697386 2.8659968 9
-5.635314 24.207434 3.8567526 8
-5.6669288 24.127205 13.026746 18
-5.3267012 -14.717834 2.0129917 7
-5.4104509 -14.712262 2.5209937 8
-5.5046272 24.193214 2.5887628 6
-5.4473186 24.20406 3.4357679 7.5
-5.5560031 -14.700973 3.6289961 10
-5.2704473 24.19265 4.7557817 9
-5.3579764 -12.785387 6.1587081 16
-5.3118963 -12.848039 6.5277171 16
-5.2236853 -12.690578 6.6856914 17
-5.4587502 24.152794 12.468764 17
-5.4447312 24.13475 12.841764 18
-4.8892097 -4.2910542 -0.16152199 2
-4.9675527 -1.9822944 -0.17379808 2
-4.9008613 -1.448028 -0.17185411 2
-4.9949365 3.5702226 0.91246206 8
-4.9518394 -14.689636 1.9919773 7
-5.1157956 -14.700031 2.5769832 8
-4.9093924 24.231909 3.5678139 8
-4.8025084 -12.639385 4.1856713 12
-5.1969919 24.209517 4.0487881 8
-5.0152416 -12.751375 6.0956945 16
-5.0266829 -12.743384 6.6111932 17
-4.4522939 3.6405284 0.22047077 4.5
-4.5851083 3.5914462 0.87296766 8
-4.5443301 3.626266 0.86596888 8
-4.5668025 -12.69457 4.2426729 12.333333
-4.7011185 24.312399 4.7688351 9
-4.7800407 -12.738895 6.5816851 17
-4.7722254 24.206963 21.938822 25
-4.6544371 24.280661 22.596836 26
-4.1563964 1.4717326 -0.16804008 2
-4.0196486 1.6388144 -0.16604304 2
-4.301311 4.3258319 -0.043009561 3
-4.2621307 4.7058187 -0.046997342 3
-4.1884694 3.7656822 0.26297924 4.75
-4.172544 4.1277614 0.23973887 4.5
-4.2334313 4.4748445 0.24333009 4.3333335
-4.1959662 5.0798125 0.17401701 4
-4.1614113 3.8706894 0.53064913 6.3333335
-4.1670709 4.2150202 0.58249146 6.5
-4.2029934 4.5535164 0.6080001 6.5
-4.1137228 5.1214895 0.64402169 6.5
-4.0727329 5.4182701 0.75653404 7
-4.2361608 3.7289357 1.0140773 8.5
-4.1834211 4.2100768 0.97061586 8.25
-4.1923342 4.5423489 1.0693334 8.666667
-4.1253829 5.1744099 1.0410231 8
-4.0846848 5.4000058 1.0590328 8
-4.1532516 6.358335 1.1910652 8
-4.1613159 6.5011353 1.1780703 8
-4.0827098 5.3941746 1.2940328 9
-4.150207 6.501101 1.4190708 9
-4.1516538 6.440197 1.6050687 9
-4.2732668 -12.666086 4.24366 12.5
-4.1797028 -12.724196 6.3296661 16.5
-4.2629972 -12.694717 6.5206642 17
-3.6698809 -0.68630344 -0.17996672 2
-3.7398517 -12.712426 5.9346504 16
-3.803735 -12.671807 6.3666463 17
-3.6324434 -12.648692 6.4066381 17
-3.647898 20.83531 10.707764 17
-3.2446635 -8.77631 -0.20494087 3
-3.4402008 -0.80168259 -0.16996752 2
-3.4557333 -0.48491079 -0.16898885 2
-3.4464512 -0.32698637 -0.16899882 2
-3.3483477 8.2743416 -0.083801709 3
-3.3710015 20.889763 6.0707898 12
-3.3222659 20.878607 6.9257941 13
-3.3822148 20.846743 7.5877876 14
-3.3662202 20.849571 11.162787 18
-3.395401 20.853609 11.973785 19
-3.442863 20.867956 19.327284 25.5
-2.815608 -5.6987209 -0.1913982 2
-2.9181178 -2.1434958 -0.17836322 2
-2.9024279 -1.3013529 -0.18095005 1
-2.8753994 -0.98269272 -0.18147765 1
-2.8292017 -0.67600441 -0.18200237 1
-3.1570652 2.3364799 -0.15803175 2
-2.9393649 9.8276348 -0.10169704 3
-2.973686 -1.1518807 0.10304016 4
-2.9713962 -12.658323 5.8481164 16
-2.9838765 -12.595193 6.1720076 16.6
-2.9197598 20.919565 6.1698327 12
-2.9262908 20.93255 6.9788332 13
-2.9685507 20.936632 7.6893291 14
-3.1477892 20.899004 10.661811 17
-3.1961226 20.882126 10.905806 18
-2.8800781 20.961258 11.205838 18
-2.8320875 -12.787197 14.22963 28
-3.0907164 20.89254 18.906815 25
-2.9235229 20.985048 19.487833 26
-2.4862242 -9.4013033 -0.21287721 3
-2.7405467 -8.4968557 -0.21399914 3
-2.77635 -4.3591671 -0.18158656 2
-2.4120626 -2.2500212 -0.18087506 2
-2.5032122 -1.1211188 -0.12098493 2
-2.5176551 1.5151523 -0.16504073 2
-2.4268703 1.6179935 -0.16603582 2
-2.7101507 2.3436985 -0.16551951 2
-2.5196314 2.5168874 -0.16500577 2
-2.5817444 -1.1601841 0.16689722 5
-2.7539773 -1.1777995 0.48053208 8
-2.4864941 10.853291 3.9133909 13
-2.7270389 -12.594612 6.2705989 17
-2.5689569 21.015585 6.5248699 12
-2.6303868 20.994398 7.0178633 13
-2.4979174 21.084322 7.7283797 14
-2.6545227 21.045647 10.661863 17
-2.7298596 21.094835 10.961858 18
-2.4884357 21.107122 12.020882 19
-2.6335251 -12.73683 14.271117 28
-2.5192609 21.087093 15.025878 22
-2.4384871 21.004843 15.855881 23
-2.5220695 21.013449 19.072874 25
-2.5149996 21.027912 19.368874 26
-2.0524123 -2.8443244 -0.11682048 2
-2.1860464 -2.7222915 -0.17082915 2
-2.1689596 -1.128374 -0.040002152 2.6666667
-2.1229799 -0.27710027 -0.17405377 1
-2.3315623 2.690016 -0.16448936 2
-2.2582061 -1.543426 0.098040417 4
-2.2001069 -1.1378103 0.15668212 5.181818
-2.0252399 9.9201794 0.31138784 4
-2.1711814 -1.1278757 0.42549801 8.5
-2.2250555 -12.582145 5.7685781 16
-2.2008657 -12.525941 6.1255689 17
-2.2047882 21.017548 6.8369045 13
-2.0950677 -12.592578 10.361574 24
-2.1454751 21.051214 10.601911 17
-2.2811568 21.115078 11.0424 18
-2.1866763 -12.855139 14.121117 28
-2.3451228 -12.73279 14.272605 28
-2.1687591 21.053093 15.30191 22
-2.2373555 21.030119 19.517401 26
-2.0940723 21.036089 22.235415 28
-1.8133988 -4.0319118 -0.17967403 2
-1.8150458 -1.6399299 -0.17297567 1
-1.9011252 -1.3961314 -0.17124422 1
-1.9630911 1.5936522 -0.1680221 1
-1.9439681 1.8584781 -0.16900839 1
-1.842345 2.1443293 -0.16998798 1
-1.7354708 2.4790957 -0.16896252 2
-1.7833009 3.6144521 -0.16440518 2
-1.6913147 4.8584919 -0.049832415 3
-1.9271969 7.7842007 -0.08170744 3
-1.8210412 -1.1389663 0.27065641 7.1428571
-1.8407024 4.4631705 0.060133912 4
-1.7107546 5.8201413 0.1462148 4
-1.8017728 9.8996286 0.22274134 4
-1.7400435 -1.1458526 0.43197346 10
-1.7251282 9.9729357 0.66441882 5
-1.8134557 -12.550159 5.8552237 16
-1.8282981 -12.532248 6.0235548 17
-1.8938307 21.049681 6.0169363 12
-1.9109961 21.037693 7.0299339 13
-1.9621934 21.095806 7.6409321 14
-1.8846545 -12.299275 11.111523 25
-1.7006814 -12.865598 14.135099 28
-1.6405749 -12.769627 14.514581 29
-1.9752781 21.19853 14.881936 22
-1.693868 21.081696 15.287956 22
-1.9646223 21.027483 15.837928 23
-1.9495513 21.065296 19.06493 25
-1.7725147 21.063004 19.543697 26
-1.6211425 21.089178 22.242966 28
-1.3075671 -3.2192125 -0.1818129 2
-1.2070732 -2.5082366 -0.17691389 1
-1.204043 -1.6337023 -0.17752002 1
-1.2941271 -1.5286064 -0.17702389 1
-1.5259469 1.0618145 -0.16403152 1
-1.2258632 1.8680738 -0.16495745 1
-1.5838026 2.1676035 -0.1769689 1
-1.5859082 2.6510677 -0.16894136 2
-1.4581926 3.5847259 -0.16487807 2
-1.4414934 -1.4497678 0.34247959 8.5
-1.5113573 -1.461369 0.66076368 12.666667
-1.4135793 -12.257184 11.129663 25
-1.3451864 -12.879951 14.149085 28
-1.581129 21.10536 15.056969 22
-1.4897314 21.049063 15.829978 23
-1.5244923 21.073023 19.038971 25
-1.398288 21.057617 19.583984 26
-0.96479595 -3.33974 -0.18206841 2
-1.1090243 -2.6044424 -0.17790823 1
-1.094669 -1.9322897 -0.17699455 1
-0.89680332 1.6292118 -0.16393985 1
-0.91986036 2.9035022 -0.16686061 2
-0.8929494 9.9183817 0.027500249 3
-1.0489197 -12.217731 11.188475 25
-0.92313415 -12.906746 14.14707 28
-1.0274383 21.112986 19.050024 25
-0.9183194 21.104116 19.634033 26
-0.41809523 -1.215506 -0.0051543098 3
-0.54047424 1.7260755 -0.16632999 0.66666669
-0.47490272 2.0842004 -0.16385312 1
-0.56542534 2.8815055 -0.16481827 2
-0.64530605 4.8653846 0.021277137 3
-0.42713791 9.9562063 0.012552161 3
-0.7033267 -12.25271 11.134963 25
-0.40286106 21.139845 11.095089 18
-0.57331055 -12.93203 14.197057 28
-0.78181547 -12.772107 14.602544 29
-0.51217055 21.132015 15.065578 22
-0.45941579 21.173672 18.898083 25
-0.70193815 21.143429 19.502056 26
-0.43437907 21.124554 19.668083 26
-0.23976134 -3.0130534 -0.18042143 1.5
-0.023633273 -2.7396824 -0.17898275 1
-0.11487682 -1.0304272 -0.020982793 2.5
-0.2059509 1.818697 -0.16724388 0.5
-0.25426197 4.5330315 -0.16019207 2
-0.16802095 -0.98921579 0.1655636 7.9047618
-0.16704701 4.3478341 0.17630987 4
-0.31481287 -12.436038 10.624472 24
-0.24197726 -12.454421 10.87247 25
-0.24377556 -12.209898 11.091934 25
-0.16995575 21.141592 10.883114 17.5
-0.14438358 21.113958 11.884115 19
-0.23400319 21.215893 19.56711 26
0.14267021 -2.544008 -0.12953068 1.5
0.039291479 -1.4743462 -0.049187616 2
0.18082987 -0.95523798 -0.045948204 2
0.15805997 1.9201236 -0.16475803 1
0.33485514 2.0602567 -0.16572021 1
0.3073698 3.117399 -0.1641811 2
0.079938389 3.2106133 -0.16471127 2
0.050586745 6.0938988 -0.14557818 3
0.16933195 -0.96243751 0.17727531 7.9523811
0.23973358 4.3236775 0.30536324 5.3333335
0.237014 4.3251925 0.45769629 6.3333335
0.0078290049 -12.428484 10.381454 24
0.048748735 -12.435088 10.822451 25
0.15694553 -12.18715 11.07641 25
0.075059637 21.170261 11.106141 18
0.13519163 -13.74484 15.193642 28
0.086924396 21.136026 15.192142 22
0.36672771 21.200083 14.991173 22
0.29520264 -13.841577 15.226648 28
0.22783172 -13.202043 15.296556 29
0.089260556 -13.187135 15.404561 29
0.39919072 -13.884624 16.104647 29
0.42641762 -0.93755895 -0.050721649 2
0.60106051 1.5012786 -0.1670167 0
0.63667697 2.0501239 -0.16666476 1
0.53390753 3.0871222 -0.16764688 2
0.5640564 -0.93132371 0.20352843 7.8947368
0.5482983 4.7916493 0.11542705 4
0.75138479 -0.90597773 0.4145568 12
0.60863292 -12.374522 10.576411 24.5
0.72955829 -12.354471 10.843402 25
0.75085235 -12.075171 11.21836 26
0.51441038 -14.358932 15.003712 27
0.51201302 -14.368899 15.370713 28
0.59400654 21.154282 15.262197 22
0.67160869 21.241014 15.360209 22
0.55765408 -13.883368 16.045637 29
0.62166774 21.254473 19.742702 26
1.0667614 -1.1642801 -0.098938458 1.5
1.1658236 1.0338132 -0.16625042 0.66666669
0.83235276 1.8819972 -0.16513145 1
1.048826 4.1787949 -0.16252561 2
0.85873169 5.1502872 -0.060514227 3
1.116589 10.022337 -0.11626506 3
0.94132632 -0.92330772 0.19439322 7
0.96827364 -0.90136546 0.4333863 11.5
0.99906951 10.701993 3.1877515 12
0.87691939 10.729603 3.6907382 13
0.97448891 10.440005 4.0007362 14
1.1353272 -12.340585 10.618876 24.5
0.95037621 -12.135525 11.075357 25
1.0067471 -12.066998 11.251341 26
1.0750988 21.196777 11.412251 18
1.013891 -14.362927 15.134684 27.5
0.99840063 -14.353021 15.333683 28
0.86254156 -13.866916 15.997619 29
1.0138547 -13.831654 16.169603 29
1.1804986 21.246988 19.649265 26
1.290608 -1.7025982 -0.18135123 1
1.4356059 -1.4084431 -0.17844552 1
1.3057604 -1.1029941 -0.017999671 3
1.5618365 -0.097904027 -0.17161453 0.5
1.3777851 0.18527339 -0.17193736 0
1.2609023 0.60877937 -0.17008804 0
1.2868729 0.95583463 -0.16548313 1
1.2322751 1.4666282 -0.16788927 1
1.3342717 4.0591817 -0.15648647 2
1.3226075 -0.90896869 0.18982702 6.5
1.2680166 -0.88437146 0.4685472 11
1.4174242 -12.302819 7.9426012 20
1.4149526 -12.314054 8.2246876 21
1.4210197 -12.313128 10.656352 24.5
1.4092257 21.24963 10.422289 17
1.4113247 -12.162599 11.015663 25
1.3397346 21.21685 10.972281 17.5
1.3874705 -12.033708 11.294312 26
1.2662276 21.196066 11.91427 19
1.3485684 21.283398 19.286282 25
1.4017704 21.220182 19.633286 26
1.6377844 -1.2157429 -0.1745314 1
1.6851443 -1.0553638 -0.17458364 1
1.6372174 -0.54945105 -0.17472526 1
1.6684178 -0.22783463 -0.17258854 1
1.6796306 0.084063917 -0.16995038 1
1.7482938 1.3948921 -0.061298713 2.5
1.8616151 1.8530136 -0.16352947 1
1.9493757 2.6697671 -0.16042241 2
1.6420766 4.3177547 -0.16643071 2
1.9374276 5.0838351 -0.031360734 3
1.7941829 5.5099163 -0.023366559 3
1.7139038 7.8985314 -0.002282514 3
1.8136157 -0.9184981 0.055853851 4
1.7035888 1.4548666 0.090391703 4.5
1.7389786 6.4337573 0.27866086 4
1.8069385 1.325557 0.59614956 10.571428
1.7683749 1.3323476 1.1655569 17
1.7840123 1.4802241 1.2544968 17.5
1.8741664 -12.273615 7.9258175 20
1.8486362 -12.274294 8.1996527 21
1.7388592 -12.30254 10.683997 24.333334
1.8409972 -12.17488 10.967303 25
1.7713559 -12.027349 11.370287 26
1.6512957 21.24626 19.685314 26
1.8388199 21.256409 22.499336 28
2.2933695 -2.6650679 -0.17630306 2
2.3181684 -2.1864936 -0.17341176 2
2.2557318 0.2629745 -0.17111164 1
2.3752885 1.1332793 -0.066450194 3
2.1870341 1.2321562 -0.049710814 2.5
2.3680291 2.2001431 -0.17085332 2
2.1834493 2.7283456 -0.16138321 2
2.271414 -0.88439071 0.22446007 5.5999999
2.0767221 1.1913029 0.27132013 6.5
2.1065934 1.2332991 0.12442488 4.75
2.2882831 4.5464544 0.30654976 5.25
2.2535582 4.5756063 0.44667041 6
2.1734014 -12.26098 7.9547944 20
2.291575 -12.239623 8.2585325 21
2.2405791 -12.282474 10.624792 24
2.1146605 -12.13795 10.987781 25
2.2211564 21.329603 10.854383 17
2.1540024 -11.981934 11.421254 26
2.1933398 21.251637 11.864877 18.5
2.2226288 21.277958 22.446383 28
2.5136354 -1.8780224 -0.17676754 2
2.6162388 -1.5080764 -0.18112884 2
2.4209049 -1.1366863 -0.0036946621 3
2.5539353 1.0452565 -0.18344393 1
2.5606318 2.1354277 -0.17185375 2
2.5540526 2.923388 -0.17032106 2
2.6738048 10.069517 -0.02306523 3
2.6434987 -0.87569535 0.11431568 4.125
2.673063 4.6841221 0.092736967 4
2.4141679 4.4828186 0.40469211 6
2.5495408 -12.228455 7.9692631 20
2.6069577 -12.220057 8.2692566 21
2.6871514 -12.254486 10.629257 24
2.4475265 21.334757 10.444411 17
2.5743966 -12.222929 10.879261 25
2.541873 -11.977505 11.164225 25
2.6711986 -11.948757 11.530711 26
2.5017815 21.3165 11.329415 18
2.5681787 21.295622 22.56492 28
2.817662 -0.95561999 -0.083817057 2
2.8644993 -0.67948163 -0.18265769 2
2.9415638 -0.26333255 -0.18755122 2
3.1502526 0.68938816 -0.18540815 2
3.0450113 0.91606796 -0.18597195 2
3.0364747 -0.853863 0.1849477 4.8333335
2.9502778 -12.188832 8.2112265 20.75
2.9851546 -12.199206 10.968724 25
2.8075898 -11.945078 11.1922 25
3.0773475 -11.920594 11.231175 25
3.0614171 -11.91567 11.618176 26
3.4643054 -1.6384777 -0.19274139 2
3.4226358 4.06358 -0.16868278 2
3.2632055 -0.84128249 0.13132064 4
3.4628594 -12.153422 8.2878475 20.666666
3.3021798 -12.161784 11.026196 25
3.3541806 -11.909035 11.290152 25
3.7330022 3.9202859 -0.16612318 2
3.6491954 5.2274809 -0.013102915 3
3.7536776 -12.129807 8.3284035 20.5
3.9799767 -12.11393 8.449132 21
3.6836922 -12.018635 11.089142 25
3.8972228 -11.930061 11.10711 25
3.7370076 21.293617 10.885558 17
3.968339 21.297638 11.333587 18
3.7369571 21.281563 11.711558 18
3.6765909 21.277786 12.050551 19
4.1927891 1.5320816 -0.18886922 2
4.027729 21.307449 10.444593 17
4.2175884 -11.841457 11.135569 25
4.2499647 21.280491 10.90562 17
4.0587721 21.230227 11.535595 18
4.6911755 2.6006289 -0.15432493 2
4.6882229 2.8965752 -0.15943079 2
4.5749002 5.3021445 -0.031966735 3
4.7536983 6.224 -0.15391512 3
4.5240788 8.1718102 -0.14788553 3
4.6292896 5.2486706 0.0037243799 3
4.6230478 -11.870176 11.116037 25
4.6105452 -14.10374 17.16239 29
4.6615305 -13.841979 17.419346 29
5.1391311 -0.11974654 -0.16847436 2
4.964098 5.2116675 -0.0019138012 3
4.9363198 -11.796115 11.096995 25
4.840342 -11.752947 11.222999 25
5.1993208 24.849758 13.273894 18
4.9422522 -14.055698 17.219357 29
4.9761004 -13.772048 17.489309 29
5.3685083 0.16359666 -0.17260255 2
5.4068594 0.58067274 -0.17624339 2
5.4628577 24.784 7.9719224 12
5.5372634 24.808685 8.3259306 13
5.2437181 24.823845 8.8148966 13
5.5400548 24.797401 12.748931 17
5.3439765 24.778135 13.577908 18
5.4686651 24.81263 13.794925 18
5.4142823 24.746807 14.107915 19
5.7885876 24.688824 4.8919568 9
5.9474282 24.722149 5.4819784 10
5.9241238 24.836876 12.224979 17
5.7783031 24.824398 13.321962 18
6.0449443 24.736742 5.6949906 10
6.2931442 24.692642 6.4390187 11
6.2980947 24.673546 7.5100188 12
6.017622 24.674686 7.9869847 12
6.1666136 24.883131 8.3790102 13
6.2025943 24.737862 9.2790098 14
6.361012 -12.009041 9.7588902 22
6.5658817 -12.082838 8.9758797 20.5
6.4439797 24.84993 8.9090424 13
6.4964857 -12.12503 9.2288952 21
6.6863661 -14.041749 17.048195 28
6.7640476 24.769884 19.180077 23
6.7399426 24.800997 19.279076 23
6.8151278 -3.5794883 -0.17881218 3
6.9273214 1.6101524 -0.14933297 3
7.1868448 -12.004112 9.5048027 21
7.0630879 -14.00118 17.142153 28
7.1519876 -13.889163 17.261126 28
7.0536618 24.886742 18.682117 22
7.5994506 0.95777118 -0.15323067 3
7.4400077 1.3266804 -0.15432365 3
7.3761244 5.3889871 0.025286797 3
7.3813734 -12.078417 9.2677937 20
7.5077448 -11.930873 9.4907541 21
7.4870629 -14.018382 16.395109 27
7.4157162 -14.071052 16.832127 28
7.4842191 -13.772861 17.350073 28
7.2052479 24.744972 19.307131 23
7.6198249 -12.09715 9.2307682 20
7.7202115 -13.973002 17.11508 28
7.8022609 -13.629625 17.413012 28
7.6768632 24.970076 18.867199 22
7.7155986 24.538633 19.299185 23
7.8704734 24.929792 25.160221 26
7.9543519 24.446035 26.511215 27
7.996284 24.209639 27.480209 28
7.9000487 24.452232 27.304207 28
8.3958483 -11.949786 9.4631548 20
8.3087864 -11.854883 9.7556486 21
8.0695505 -13.871544 17.199024 28
8.7599745 -11.795386 9.5795851 20
8.6228447 -11.790668 9.8410997 21
8.5572834 -13.859925 17.166971 27
8.5771837 -13.689736 17.358604 28
8.9948692 -14.18245 16.625978 27
8.9345865 -13.760157 17.265911 27
8.8947439 -13.526078 17.454878 28
9.2080183 5.4343867 0.048997942 3
9.5577755 -13.25437 16.63975 27
9.8447857 -2.2918179 -0.13865079 3
9.6918945 -1.7715559 0.048231486 3
9.9998779 -13.749339 15.424789 25
9.8229599 -13.470359 16.081758 26
10.105356 -1.3272648 0.05303549 3
10.034693 -0.84740758 0.040908895 3
10.286997 -11.665975 10.524373 21
10.204767 -11.611539 11.107373 22
10.153868 -13.675802 15.032759 25
10.2333 25.126606 19.58853 22
10.562803 -0.31576788 -0.18633792 3
10.520207 0.21158315 -0.19348961 3
10.567481 0.74075502 -0.20266019 3
10.771484 -11.626113 10.602304 21
10.51665 -11.465107 11.174306 22
10.532545 24.986055 20.174562 22
11.016048 3.189841 -0.2415214 3
11.138127 1.3349655 0.2940582 4
11.019315 3.0787661 0.11951477 3.6666667
10.975117 3.7205746 0.1113086 3.5
10.929634 4.3375149 0.13910821 4
11.186063 0.41883036 0.46533453 4
11.084958 2.2526054 0.52577412 4.5
11.049275 2.5301445 0.48768988 5
11.022433 2.936878 0.49356106 5
10.991946 3.4693964 0.50188977 5
10.963062 3.9049282 0.50724876 5
10.931311 4.1829309 0.51116014 5
11.164409 0.71326411 1.0532477 6
11.175903 1.0380231 1.143895 6
11.139262 1.3949388 0.95353919 5.75
11.114676 1.8158085 0.91440958 5.5
11.073882 2.2512901 0.99777633 5.6666665
11.060045 2.6095281 0.90946209 5.5999999
11.034595 2.9933677 0.94020718 5.6666665
11.00718 3.3848977 0.9635154 5.5999999
10.971499 3.8455098 0.9572674 5.6666665
10.938974 4.1693821 0.95149684 5.3333335
10.921294 4.5245018 0.97471291 5.6666665
11.180223 0.72855633 1.3542405 7
11.198592 0.95387793 1.4481676 7
11.062404 3.3510864 1.4000844 7
11.042474 3.9038718 1.5992366 7
11.030713 4.1860557 1.5911434 7
11.043793 4.4814863 1.5880414 7
10.986808 3.4011037 1.7234133 8
11.007148 3.6509287 1.6708269 7.5
10.942655 4.237606 1.76614 8
10.953144 3.4697275 2.0538962 8
10.928865 3.8698962 2.0792661 8
10.902597 4.4171743 2.1170857 8
11.14054 -1.4108924 2.8735499 10.666667
11.042481 -0.55433142 2.8686516 11
10.966791 -0.598643 3.3446774 12
11.208906 0.5516696 0.31928995 4
11.201461 0.39794478 0.79633844 5
11.368613 -1.8024276 1.0324553 6
11.202576 0.51864254 1.1223012 6
11.361627 -1.6662601 1.3239182 6.5
11.341543 -1.7663484 1.7146164 7.3333335
11.407249 -1.6298569 2.5769002 10
11.305093 -1.4137323 2.6878562 10
11.282139 -0.99134952 2.6687384 10
11.26361 -0.56837338 2.7941179 10
11.255153 -1.3896595 3.0598578 10.666667
11.270013 -0.98986703 3.0350735 10.666667
11.214738 -0.53909039 3.1666174 11
11.337161 -1.7435411 3.447278 12
11.283745 -1.3816013 3.423851 12
11.251781 -1.120604 3.4187813 12
11.373755 -12.021922 17.231302 27
11.435359 -11.883938 17.426266 27
11.978585 -12.035086 17.039223 27
14.254828 10.59145 1.8554366 6
14.1996 10.630164 2.0934312 7
14.165448 10.54178 2.6804674 8
14.610997 10.124911 1.4205457 6
14.475234 10.194062 1.7205423 6
14.484025 10.105991 2.1655715 7
17.96073 -4.923171 4.1706867 10
17.742647 -4.8868904 5.1257133 11
17.612785 -5.0537143 5.3147788 12
21.180578 0.19386569 1.98271 6
21.101046 -1.5062537 2.2652194 6
21.088636 0.19923507 2.7437239 7
21.192621 -1.6246789 3.0212379 7
21.306517 -1.7218848 1.3882458 5
21.368406 0.19994584 1.3701763 5
21.390198 0.29910105 1.6996433 6
21.255302 -1.7687585 2.5392678 7
21.332657 -1.5439888 3.4131906 8
27.578585 11.392649 15.384087 17
27.42211 11.655347 16.444021 18
27.419634 11.474983 17.200083 19
27.994492 10.83362 15.465204 17
27.796749 11.115017 16.508142 18
27.737278 10.850893 17.263241 19
28.660494 9.6955051 17.581472 19
29.047968 9.0709867 17.708612 19
32.095154 -8.055788 14.810151 16
32.113716 -7.6950884 16.501051 17
