# .PCD v0.7 - Point Cloud Data file format
VERSION 0.7
FIELDS x y z intensity
SIZE 4 4 4 4
TYPE F F F F
COUNT 1 1 1 1
WIDTH 88
HEIGHT 1
VIEWPOINT 0 0 0 1 0 0 0
POINTS 88
DATA ascii
-22.812826 19.860371 15.942921 18
-15.856442 21.000599 13.509082 18
-12.831971 22.004118 27.852236 28
-11.004293 19.255713 11.670221 18
-9.9251909 19.800228 11.468299 18
-9.7079449 19.620989 12.680304 19
-9.6590061 19.625782 15.700306 22
-8.5822926 2.4666257 0.49000916 5
-8.5229645 3.8517413 1.7419695 9
-8.4248075 4.3265157 2.0249608 10
-8.1299772 20.07308 10.831419 17
-8.006093 20.114712 11.150428 18
-8.1669035 19.997181 15.327413 22
-6.9147768 20.281004 14.89951 21
-6.8388848 20.315788 15.334517 22
-5.5271301 20.709198 10.843634 17
-5.5291815 20.727169 11.031634 18
-5.3271728 20.618713 19.509644 26
-4.7575054 20.64282 22.35569 28
-4.1384487 3.9305239 0.43248785 5.5
-3.7620175 4.0644088 0.42800435 6
-2.7958341 24.634567 17.718063 22
-2.4283192 24.623442 22.462099 25
-2.4325316 24.686411 22.706099 26
-2.268044 24.865774 14.267126 19
-2.2140417 24.820677 17.239126 21
-1.8371006 4.5823922 0.3541455 5
-1.7891965 25.072025 12.363185 17
-1.4686217 25.088184 13.029215 18
-1.289928 4.7536693 0.43820584 6
-1.2468866 11.141039 4.1985397 14
-1.1409731 4.8747144 0.31322753 5
-1.1756307 -0.77148271 0.43141705 12.5
-1.1596674 24.313902 25.956205 28
-0.70313007 20.863615 3.7340827 9
-0.61478221 11.122424 3.8406045 13
-0.60523695 20.872597 4.8710923 10
-0.45416537 -0.61959702 0.059059322 5.5
-0.56017387 -0.61677682 0.36283046 16
-0.47752547 -0.58202928 0.24431176 12.5
-0.4409565 -0.59648979 0.70480478 26
-0.22048897 -0.50594962 0.0037379761 3
-0.32129788 -0.53873897 0.2637704 14.5
-0.24436527 -0.70212412 0.55677134 21
-0.39051101 -0.53807789 0.48178852 21
-0.33659515 24.647692 22.829306 26
-0.07983005 -0.46442443 0.42568704 21
0.27403992 -0.36964065 0.11855575 8
0.25779495 -0.35235155 0.34555447 16.5
0.42786816 -0.35240993 0.12651101 7
0.52185857 -0.33958077 0.28348455 12
0.89270175 1.5516654 0.11464139 5.5
0.98282945 1.3368918 0.37671965 10
0.84911811 5.1174064 0.37648323 5
0.98230118 1.3416177 0.6687178 14.5
0.96832919 1.5127741 0.61164981 13
0.94303101 1.3951292 0.94169998 18
0.92287147 1.4431471 0.99568242 19
1.0726607 1.2398961 0.3797498 10
2.5859296 6.2144136 0.61276889 6
2.6415217 6.0849986 0.3237718 5
2.6665561 13.508197 2.8870981 9
2.7278192 13.273082 3.1090949 10
2.771841 12.483443 4.3770638 13
6.5696115 7.1986551 2.2013466 10
7.4405689 2.4981143 1.1163687 7
7.5115328 2.6603529 1.5103029 9
7.4112735 2.7498071 1.9222881 10
7.4617167 2.4909151 2.0633681 11
7.4269934 2.8951406 2.4732366 12
7.4039159 2.7060027 2.6713042 13
7.4545789 2.7501965 2.9262812 14
8.1038198 0.14977951 1.7060183 9
8.0286283 0.11413341 2.2320418 11
8.0305328 0.097092688 2.4270465 12
8.07129 0.56893927 2.7138948 13
8.4029913 13.214435 3.4358182 10
13.593167 -2.7184212 2.1869271 8
13.787849 -2.9167993 1.9139491 7
13.852782 -2.5160201 1.2788289 6
13.823012 -3.7082434 2.7991548 9
14.210195 -4.2030263 1.3052208 6
16.480333 -7.254425 5.2166195 12
16.604328 -7.6163373 4.7846856 11
22.51841 -10.986527 10.754563 15
22.48831 -11.105659 11.745598 16
22.760519 14.195009 14.656034 18
23.288675 13.711202 11.052119 15
