# .PCD v0.7 - Point Cloud Data file format
VERSION 0.7
FIELDS x y z intensity
SIZE 4 4 4 4
TYPE F F F F
COUNT 1 1 1 1
WIDTH 1076
HEIGHT 1
VIEWPOINT 0 0 0 1 0 0 0
POINTS 1076
DATA ascii
-1.719 -2.596 -0.22499999 0
-1.6791422 -2.5327861 -0.22381526 0
-1.6312375 -2.45681 -0.22239134 0
-1.5593805 -2.3428454 -0.22025546 0
-1.358 -2.348 -0.219 0
-1.4875236 -2.2288811 -0.21811959 0
-1.3550576 -2.2609015 -0.21766686 0
-1.2833017 -2.2218513 -0.2163322 0
-1.4248095 -2.1724524 -0.21684784 0
-1.3521664 -2.1587956 -0.2161074 0
-1.2428678 -2.1535676 -0.21488814 0
1.7180681 -2.1540809 -0.20523804 0
-1.4486229 -2.0327396 -0.21493506 0
-1.3453982 -2.0493495 -0.21443507 0
-1.2375038 -2.0688202 -0.21378744 0
-1.1619999 -2.017 -0.212 0
1.6486193 -2.0628915 -0.20191658 0
-1.4665523 -1.9261084 -0.21388395 0
-1.3571229 -1.9072397 -0.21243505 0
-1.2773592 -1.9435399 -0.21237403 0
-1.193 -1.961 -0.212 0
-1.5140001 -1.8329999 -0.212 0
-1.4517293 -1.8467245 -0.21274945 0
-1.3125615 -1.8461198 -0.21121752 0
-1.232 -1.8729999 -0.211 0
-4.3753757 -1.7107526 -0.20801097 0
-1.531 -1.767 -0.211 0
-1.4477993 -1.755018 -0.21075314 0
-1.3572431 -1.7302415 -0.21024983 0
-1.268 -1.785 -0.20999999 0
-4.2520943 -1.6659381 -0.23050275 0
-1.4437841 -1.668941 -0.20958568 0
-1.3517247 -1.6416765 -0.20870493 0
-2.1539381 -1.5872684 -0.21559259 0
-2.0650368 -1.524603 -0.2135873 0
-1.346 -1.559 -0.208 0
-2.1734445 -1.4494393 -0.21289276 0
-1.9587774 -1.4497023 -0.21119048 0
-2.0592699 -1.3762619 -0.21068862 0
-1.9506509 -1.306645 -0.20859171 0
-1.8525183 -1.3748015 -0.20879364 0
-1.7816789 -1.3248677 -0.20719576 0
-1.8420318 -1.2370281 -0.20649482 0
-1.7108394 -1.2749338 -0.20559788 0
-1.64 -1.225 -0.204 0
-1.7334127 -1.1674113 -0.20439793 0
-1.661 -1.1210001 -0.20299999 0
-2.3391862 -1.0543649 -0.21884945 0
-2.2254508 -1.0036386 -0.21486153 0
-2.2249999 -0.94099998 -0.205 0
-2.1462293 -0.93823916 -0.20793378 0
-2.0636077 -0.93145615 -0.20918681 0
-2.2049999 -0.84200001 -0.2025 0
-2.1661568 -0.82706559 -0.20199433 0
-2.0685902 -0.8470946 -0.20178017 0
-1.9425883 -0.8504796 -0.20284905 0
-1.8208431 -0.82318246 -0.20067471 0
-2.0579181 -0.75874126 -0.20094213 0
-1.9340141 -0.71380097 -0.20003241 0
-3.6670001 0.23199999 -0.208 0
-3.544795 0.22134337 -0.20550886 0
-3.410537 0.20963572 -0.20277199 0
-3.3210318 0.20183063 -0.20094742 0
-3.5292497 0.3873713 -0.20376733 0
-3.427999 0.37443784 -0.20191969 0
-3.3394992 0.3631331 -0.20030473 0
2.5672691 -2.3098619 -0.1903913 0
2.6070001 -2.345 -0.191 0
2.4994421 -2.2498758 -0.18935218 0
2.3637884 -2.1299033 -0.18727392 0
2.4316154 -2.1898894 -0.18831305 0
2.262048 -2.0399241 -0.18571523 0
2.5940001 -2.0190001 -0.18799999 0
-4.9400001 -1.916 -0.10499999 0
1.5683438 -1.9574862 -0.19807731 0
2.1603076 -1.9499447 -0.18415652 0
2.4618306 -1.9153109 -0.1888527 0
2.5332561 -1.9713454 -0.18839189 0
-4.8685036 -1.8900102 -0.11804389 0
-4.7452221 -1.8451958 -0.14053565 0
-4.6219397 -1.8003814 -0.16302744 0
1.4880682 -1.8520808 -0.19423804 0
2.0585673 -1.8599656 -0.18259783 0
2.354692 -1.831259 -0.18954392 0
-4.539752 -1.7705052 -0.17802195 0
-4.4575639 -1.7406288 -0.19301647 0
1.3810341 -1.7115403 -0.18911903 0
1.4345511 -1.7818105 -0.19167854 0
1.8890001 -1.71 -0.18000001 0
1.9568269 -1.7699863 -0.18103914 0
2.2475536 -1.7472073 -0.19023514 0
1.327517 -1.6412702 -0.18655951 0
1.794 -1.61 -0.19499999 0
2.1404152 -1.6631554 -0.19092634 0
1.274 -1.571 -0.184 0
1.7519503 -1.5703852 -0.19322062 0
1.9618512 -1.5230691 -0.19207838 0
2.0332768 -1.5791036 -0.19161756 0
1.595431 -1.4229294 -0.1865973 0
1.6580387 -1.4819118 -0.18924662 0
1.8547127 -1.4390173 -0.19276959 0
1.4702156 -1.3049648 -0.18129864 0
1.5328233 -1.363947 -0.18394798 0
1.9767203 -1.340035 -0.17590158 0
1.4076078 -1.2459824 -0.17864932 0
1.8507332 -1.2578695 -0.17509007 0
3.145 -1.215 -0.191 0
1.345 -1.187 -0.176 0
1.6662204 -1.1375351 -0.17390159 0
1.7686249 -1.1615412 -0.18043596 0
1.8099999 -1.146 -0.18700001 0
1.9256693 -1.1182287 -0.17340203 0
2.011168 -1.1660593 -0.17394401 0
2.9510107 -1.1438392 -0.1848938 0
3.0774128 -1.1902071 -0.18887256 0
1.5555128 -1.0653343 -0.17318849 0
1.6581495 -1.0439423 -0.18099661 0
1.7500111 -1.0615635 -0.17808789 0
1.8490024 -1.0753388 -0.17291602 0
2.2496886 -1.0103151 -0.1707895 0
2.3477349 -1.0551839 -0.16929388 0
2.5718043 -1.0047357 -0.17295752 0
2.6560724 -1.0356476 -0.17561004 0
2.7403405 -1.0665596 -0.17826253 0
2.8246086 -1.0974715 -0.18091504 0
1.3710001 -0.94499999 -0.17200001 0
1.4471712 -0.94843471 -0.17261228 0
1.550007 -0.95048589 -0.17490591 0
1.6573347 -0.96811438 -0.17170101 0
2.0527349 -0.92018378 -0.17379388 0
2.170907 -0.9742626 -0.17199124 0
2.2984562 -0.90379667 -0.16528288 0
2.319 -0.912 -0.16500001 0
2.4454021 -0.95836782 -0.16897877 0
1.3845 -0.83749998 -0.17 0
1.4656671 -0.86088985 -0.170486 0
1.8614864 -0.81961918 -0.17139912 0
1.9589287 -0.85732955 -0.16919883 0
2.0582607 -0.8078838 -0.16859022 0
2.1383259 -0.83985472 -0.16748777 0
2.2183909 -0.8718257 -0.16638532 0
-1.9523697 -0.7727623 -0.19916314 0
-1.8267307 -0.74930763 -0.19815032 0
-1.7389474 -0.76272011 -0.19776431 0
-1.6574912 -0.72761631 -0.19573042 0
1.6270957 -0.70809293 -0.16599999 0
1.7570957 -0.77042627 -0.17 0
1.8594416 -0.72021937 -0.16835286 0
1.9641155 -0.75187188 -0.16459543 0
2.1230617 -0.71775609 -0.165207 0
2.240437 -0.75835371 -0.16352421 0
-2.1483874 -0.6506114 -0.19587 0
-2.0590854 -0.6504159 -0.19576755 0
-1.9752159 -0.62407076 -0.19480076 0
-1.8514112 -0.68384081 -0.19942594 0
-1.7615285 -0.67447776 -0.19750446 0
-1.6806028 -0.64396018 -0.19660649 0
-1.5739911 -0.67011631 -0.19523042 0
-1.492 -0.63599998 -0.19400001 0
1.387 -0.60699999 -0.16599999 0
1.4670318 -0.64069766 -0.16599999 0
1.5470638 -0.67439526 -0.16599999 0
1.6190646 -0.61487257 -0.16318297 0
1.7547514 -0.65139228 -0.16709758 0
1.8693824 -0.61942637 -0.16451007 0
1.9519837 -0.63396907 -0.16312313 0
2.035681 -0.66073388 -0.16495484 0
2.1502595 -0.64203572 -0.16040249 0
2.2245002 -0.66499996 -0.15900001 0
-2.5020001 -0.52999997 -0.191 0
-2.4560966 -0.52017605 -0.19129238 0
-2.1277215 -0.52776599 -0.19335045 0
-2.0566139 -0.56998861 -0.19360012 0
-1.9740833 -0.5468787 -0.19280615 0
-1.8582256 -0.54784101 -0.19232814 0
-1.7236079 -0.54503536 -0.19190037 0
-1.6216707 -0.5563252 -0.19427003 0
-1.521 -0.56400001 -0.197 0
1.376 -0.52499998 -0.164 0
1.4570216 -0.55495751 -0.16372766 0
1.538043 -0.58491504 -0.16345532 0
1.6530817 -0.53913772 -0.16103013 0
1.7550968 -0.54921854 -0.16709763 0
1.86224 -0.5395053 -0.16305764 0
1.9396716 -0.52866274 -0.16072808 0
2.0483668 -0.54840195 -0.15978821 0
2.1635001 -0.53499997 -0.15549999 0
-2.3256679 -0.4922626 -0.19212313 0
-2.2387152 -0.47365367 -0.19267698 0
-2.1517627 -0.45504472 -0.19323081 0
-2.0429759 -0.46020275 -0.19348577 0
-1.9574878 -0.44073415 -0.19383043 0
-1.8309704 -0.46103466 -0.19248958 0
-1.7406849 -0.45936093 -0.19148065 0
-1.6576567 -0.43717822 -0.19099653 0
-1.5556655 -0.45189208 -0.18979855 0
-1.472 -0.46599999 -0.189 0
1.3660001 -0.447 -0.162 0
1.4480233 -0.47332507 -0.1617229 0
1.5251877 -0.45842189 -0.16029385 0
1.66155 -0.44639257 -0.1613322 0
1.7554932 -0.45998037 -0.16423082 0
1.8524963 -0.44225502 -0.16053645 0
1.922731 -0.42726433 -0.15864058 0
2.046145 -0.45359474 -0.15744129 0
2.1359999 -0.447 -0.155 0
-1.8474288 -0.38991341 -0.19516924 0
-1.717 -0.36199999 -0.19599999 0
-1.6010236 -0.38232827 -0.19386448 0
-1.517 -0.36199999 -0.19400001 0
-1.471 -0.389 -0.189 0
1.3529999 -0.33700001 -0.1595 0
1.435931 -0.35770592 -0.15899149 0
1.5173955 -0.33963007 -0.15782405 0
1.6632769 -0.35574105 -0.16217683 0
1.7532182 -0.35770711 -0.16040367 0
1.8389465 -0.34497237 -0.15852232 0
1.9382744 -0.32427278 -0.15401679 0
2.066843 -0.32959098 -0.15139601 0
1.6515 -0.23899999 -0.163 0
1.7471272 -0.24299221 -0.15889043 0
1.8599825 -0.26563054 -0.15492621 0
1.6405001 -0.15700001 -0.162 0
1.7526299 -0.15347096 -0.156693 0
1.850886 -0.15071353 -0.1514608 0
1.9524629 -0.16651466 -0.15134193 0
2.0220001 -0.17299999 -0.149 0
-2.3595076 -0.048 -0.18663198 0
-2.2563434 -0.048 -0.18884264 0
-2.1458359 -0.048 -0.19121066 0
1.597 -0.017999999 -0.15899999 0
1.6539243 -0.066341415 -0.15754989 0
1.748842 -0.040994272 -0.15291056 0
1.8170086 -0.034160942 -0.14924391 0
1.9508266 -0.073633105 -0.14791127 0
-2.3442764 0.0074151414 -0.18558486 0
-2.2503688 0.0048868549 -0.18811315 0
-2.1420922 0.0019717137 -0.1910283 0
-2.063 0.097999997 -0.19 0
1.5796667 0.057666663 -0.15733333 0
1.6459776 0.060347546 -0.1537441 0
1.7599981 0.040083729 -0.1484721 0
2.3789999 0.071000002 -0.153 0
2.4649153 0.074083425 -0.15145829 0
2.5508306 0.07716684 -0.14991657 0
2.6367459 0.080250263 -0.14837487 0
2.7226613 0.083333686 -0.14683317 0
2.8515344 0.087958813 -0.1445206 0
2.9862037 0.092791975 -0.14210403 0
-3.2315264 0.19402552 -0.19912285 0
-3.1420212 0.18622041 -0.19729827 0
-3.0525157 0.17841531 -0.19547372 0
-2.9630105 0.1706102 -0.19364914 0
-2.8735051 0.16280511 -0.19182457 0
-2.7839999 0.155 -0.19 0
-2.329 0.118 -0.184 0
-2.2442887 0.11163072 -0.18591079 0
-2.1355155 0.10345229 -0.18836431 0
-2.0486665 0.1954934 -0.18615749 0
1.558 0.15099999 -0.15650001 0
1.6529514 0.14927155 -0.15094191 0
1.7424623 0.14668591 -0.14628716 0
2.345 0.126 -0.152 0
2.4308159 0.1306349 -0.15045503 0
2.5166318 0.13526981 -0.14891006 0
2.6453557 0.14222214 -0.14659262 0
2.7740796 0.1491745 -0.14427517 0
2.8598955 0.1538094 -0.14273021 0
2.9508557 0.15872215 -0.14109263 0
-2.8084998 0.29530475 -0.19061495 0
-2.72 0.28400001 -0.189 0
-2.2429712 0.24663858 -0.18138205 0
-2.1591282 0.23518477 -0.18384273 0
-2.0601478 0.246099 -0.18776387 0
1.5507174 0.24540751 -0.15247431 0
1.648869 0.25863004 -0.14789729 0
1.711 0.26699999 -0.145 0
2.2690001 0.228 -0.149 0
2.3537006 0.23618723 -0.1472137 0
2.4384012 0.24437445 -0.14542739 0
2.5231018 0.25256169 -0.14364108 0
2.6501527 0.26484254 -0.14096162 0
2.7772038 0.27712336 -0.13828216 0
2.8380001 0.28299999 -0.13699999 0
-3.2509995 0.3518284 -0.19868976 0
-3.1624994 0.34052366 -0.1970748 0
-3.0739996 0.32921892 -0.19545984 0
-2.9854996 0.31791419 -0.19384488 0
-2.8969998 0.30660945 -0.19222991 0
-2.1632917 0.36783311 -0.1791342 0
-2.0511749 0.34529987 -0.18408053 0
-1.9690218 0.36599678 -0.18127844 0
-1.8644347 0.38219482 -0.17584549 0
-1.782413 0.37569803 -0.17356706 0
-1.6674275 0.36363521 -0.17441233 0
-1.5561424 0.33354506 -0.17547077 0
-1.472 0.34099999 -0.17299999 0
1.479 0.38299999 -0.153 0
1.5391419 0.3389304 -0.15291914 0
1.6517837 0.35886085 -0.14533828 0
2.1735001 0.3495 -0.146 0
2.2574277 0.36191368 -0.14425956 0
2.3413553 0.3743273 -0.1425191 0
2.4503067 0.36142603 -0.14156431 0
2.534409 0.37290138 -0.13975242 0
2.6185112 0.38437673 -0.13794053 0
2.7026134 0.39585209 -0.13612862 0
-2.431 0.49599999 -0.17399999 0
-2.3517826 0.4800877 -0.17425802 0
-2.2188694 0.45338964 -0.17469098 0
-2.1382709 0.46609434 -0.17352907 0
-2.0572667 0.44884953 -0.17367202 0
-1.9498047 0.45417815 -0.17182785 0
-1.8345649 0.43857682 -0.17098415 0
-1.746819 0.42983651 -0.17036761 0
1.4713334 0.45866668 -0.154 0
1.5531774 0.45122921 -0.14864857 0
1.6391006 0.44004652 -0.14474942 0
1.751 0.44999999 -0.14 0
2.0969999 0.465 -0.14399999 0
2.148869 0.44933611 -0.14314301 0
2.25365 0.4608058 -0.1408937 0
2.3804741 0.46707296 -0.13810906 0
2.4507458 0.44040927 -0.13815415 0
2.5677662 0.43875986 -0.13665502 0
2.6515195 0.45211184 -0.13498603 0
2.7280002 0.43150002 -0.1345 0
-2.3515947 0.53968263 -0.17000479 0
-2.2623706 0.51952869 -0.17030862 0
-2.050565 0.52653265 -0.17195231 0
-1.9608213 0.56120986 -0.16941142 0
-1.8719879 0.52554315 -0.16924474 0
-1.7534543 0.51226342 -0.16812798 0
-1.6519338 0.58359599 -0.16549787 0
-1.546245 0.56112802 -0.16466382 0
-1.4465847 0.56539363 -0.16469595 0
-1.364 0.53349996 -0.1655 0
1.4236666 0.55999994 -0.15233333 0
1.5381263 0.54994905 -0.14811537 0
1.6369386 0.54761165 -0.1429164 0
1.717 0.53100002 -0.14 0
1.8436849 0.57289708 -0.13867518 0
2.0409999 0.55400002 -0.14300001 0
2.1225746 0.57411432 -0.14124399 0
2.2041492 0.59422863 -0.13948798 0
2.3452139 0.51501673 -0.13885809 0
2.4279518 0.53168899 -0.13714412 0
2.5531914 0.53794986 -0.1344427 0
2.6354742 0.54457295 -0.13260907 0
2.7304394 0.53383696 -0.13025448 0
2.8179307 0.55052793 -0.12829083 0
2.9127111 0.56860948 -0.1261636 0
-1.926 0.66900003 -0.167 0
-1.8547837 0.66249949 -0.16529047 0
-1.7497089 0.6348542 -0.16483153 0
-1.6518291 0.64269906 -0.1652406 0
-1.565578 0.65920538 -0.16309997 0
-1.3536593 0.64672458 -0.16244748 0
-1.272 0.685 -0.161 0
1.373 0.65799999 -0.15000001 0
1.4531826 0.65474385 -0.15011512 0
1.5554533 0.6554842 -0.14646649 0
1.6621574 0.64378256 -0.14140362 0
1.7588403 0.66393256 -0.13894936 0
1.8526018 0.6752736 -0.13792421 0
1.9711233 0.64626473 -0.14078347 0
2.0610893 0.63317728 -0.14075024 0
2.1587813 0.66954118 -0.13788386 0
2.2570355 0.65918398 -0.13689622 0
2.3550782 0.66030902 -0.13615862 0
2.4488733 0.65457147 -0.13421994 0
2.541224 0.67734289 -0.13223197 0
-2.1300001 0.77100003 -0.16 0
-2.0479803 0.74151218 -0.16065527 0
-1.9643576 0.71144813 -0.16132337 0
-1.8449485 0.7459262 -0.16290507 0
-1.7461948 0.74195051 -0.16188288 0
-1.6500864 0.73151857 -0.1610049 0
-1.5510763 0.74706137 -0.16087724 0
-1.4495969 0.73530424 -0.15978391 0
-1.3263249 0.75575256 -0.15858038 0
-1.228 0.74000001 -0.15800001 0
-1.186 0.796 -0.156 0
1.348 0.74924999 -0.15100001 0
1.449254 0.76542151 -0.14577858 0
1.550868 0.76801991 -0.14506733 0
1.623024 0.73812085 -0.14016937 0
1.7345771 0.75358516 -0.14259247 0
1.8441634 0.75753558 -0.14011052 0
1.9453211 0.76036149 -0.13816985 0
2.0265799 0.72226167 -0.13811329 0
2.1486473 0.76434636 -0.13611852 0
2.2578859 0.75161672 -0.13542908 0
2.3420379 0.74291438 -0.13318194 0
2.4481907 0.76207465 -0.13218004 0
2.5161433 0.73212063 -0.13225594 0
-2.0221872 0.8443929 -0.15723991 0
-1.953029 0.85434467 -0.15643358 0
-1.8677185 0.86356044 -0.15618464 0
-1.7480251 0.83953124 -0.15817066 0
-1.6458111 0.85418534 -0.15819572 0
-1.5456938 0.83562917 -0.15831664 0
-1.4643713 0.83781666 -0.15827177 0
-1.3664705 0.86997348 -0.15578435 0
-1.2593344 0.84481025 -0.15540476 0
-1.148 0.85299999 -0.155 0
1.275 0.85699999 -0.148 0
1.3561968 0.86803019 -0.1464749 0
1.4492563 0.84593022 -0.14186004 0
1.5500184 0.85480899 -0.13863434 0
1.6523402 0.83187848 -0.13228951 0
1.7701101 0.83177918 -0.13909735 0
1.8487271 0.85663408 -0.14020331 0
1.9548783 0.85583425 -0.13755691 0
2.0576551 0.83696872 -0.13655929 0
2.1380427 0.86842233 -0.13470395 0
2.2453144 0.86875081 -0.13230588 0
2.3520932 0.8344875 -0.13279387 0
2.4454079 0.83787864 -0.13073999 0
2.5782127 0.82710111 -0.12513937 0
2.6625288 0.85354412 -0.12258784 0
2.7149999 0.87 -0.121 0
-1.9458493 0.94553107 -0.15371984 0
-1.8338646 0.94821459 -0.15415467 0
-1.7356707 0.93313044 -0.1543338 0
-1.6464403 0.93726891 -0.15693858 0
-1.5354052 0.92977804 -0.15629081 0
-1.4440622 0.95296741 -0.1546111 0
-1.3536974 0.95727319 -0.15414277 0
-1.2539977 0.9487167 -0.15414698 0
-1.1378994 0.93470037 -0.1529019 0
-1.069 0.96799999 -0.152 0
1.199 0.986 -0.147 0
1.2596109 0.93721402 -0.14752835 0
1.3584584 0.95182794 -0.14269118 0
1.4703598 0.95223945 -0.13923874 0
1.5266559 0.94975585 -0.13499203 0
1.6437759 0.94706374 -0.11734301 0
1.734512 0.9723857 -0.10290635 0
1.9368078 0.93591958 -0.13657023 0
2.0420303 0.95286989 -0.13248758 0
2.1654627 0.95139092 -0.13272931 0
2.2631924 0.95366633 -0.13245367 0
2.3417063 0.94082367 -0.12979318 0
2.4763148 0.99209511 -0.12384637 0
-2.826 1.075 -0.184 0
-1.8941138 1.0179203 -0.15205586 0
-1.7555994 1.0560498 -0.15290242 0
-1.6531174 1.0498807 -0.15302958 0
-1.5580523 1.0371857 -0.15500595 0
-1.4440315 1.0662671 -0.15390286 0
-1.3402975 1.0226133 -0.15341142 0
-1.2537169 1.0540931 -0.15160009 0
-1.1568966 1.0481317 -0.15168941 0
-1.0507176 1.0474985 -0.1497809 0
-0.98400003 1.081 -0.15000001 0
1.1666666 1.0559999 -0.14733332 0
1.2507764 1.0499486 -0.14318077 0
1.3506246 1.0437329 -0.14101484 0
1.4438989 1.0442337 -0.13744293 0
1.5665761 1.04372 -0.13577552 0
1.6517588 1.0802599 -0.13353349 0
2.0609894 1.0018713 -0.13391654 0
2.1519558 1.0346909 -0.1305559 0
2.2475879 1.042864 -0.12939343 0
2.5781798 1.0321972 -0.12062649 0
-3.1102939 1.1916809 -0.17659168 0
-3.0392203 1.1625106 -0.17844376 0
-2.968147 1.1333405 -0.18029584 0
-2.8970735 1.1041703 -0.18214792 0
-2.6930001 1.169 -0.18000001 0
-1.8399854 1.1065999 -0.15208709 0
-1.7726758 1.1864822 -0.15123801 0
-1.6993413 1.1376718 -0.15183327 0
-1.4512 1.1508083 -0.15229118 0
-1.3331116 1.1500082 -0.15104991 0
-1.2447931 1.1282636 -0.15137881 0
-1.1555017 1.1683739 -0.14883052 0
-1.0631831 1.1650196 -0.14884925 0
-0.96293509 1.1675543 -0.14869213 0
1.0802723 1.1699651 -0.14352286 0
1.1472208 1.1482147 -0.14235032 0
1.2629848 1.14808 -0.13751042 0
1.3524964 1.1522638 -0.13579391 0
1.4497583 1.1552328 -0.13858287 0
1.539656 1.1339831 -0.13450192 0
1.628517 1.1619337 -0.13455467 0
1.7392323 1.1457374 -0.13074866 0
1.8101113 1.1715672 -0.12946764 0
2.2999787 1.1157427 -0.12583308 0
2.3796418 1.1536999 -0.12313859 0
2.4423299 1.1831243 -0.11444831 0
-3.1329999 1.201 -0.176 0
-2.9590001 1.294 -0.17299999 0
-2.8617861 1.2483168 -0.17555825 0
-2.7605145 1.2007267 -0.17822331 0
-2.1719999 1.2589999 -0.15899999 0
-1.802 1.206 -0.15099999 0
-1.6050112 1.2523824 -0.14990941 0
-1.538409 1.2003059 -0.15052752 0
-1.437561 1.236789 -0.14883475 0
-1.352 1.226 -0.15099999 0
-1.2499325 1.2748502 -0.14807379 0
-1.1489569 1.2614026 -0.14801757 0
-1.0423307 1.2549841 -0.14755896 0
-0.94276679 1.2510045 -0.14787267 0
-0.85299999 1.261 -0.148 0
-0.63300002 1.255 -0.15000001 0
0.96600002 1.289 -0.14300001 0
1.084 1.2029999 -0.139 0
1.1864004 1.2396661 -0.13650906 0
1.2560111 1.2698313 -0.13329209 0
1.3463489 1.2228465 -0.12984383 0
1.4485313 1.271693 -0.11118764 0
1.5378623 1.226102 -0.13707632 0
1.6355531 1.2472738 -0.13355093 0
1.7388026 1.2626371 -0.13087441 0
1.8610039 1.2451693 -0.12842979 0
1.9451885 1.2759188 -0.12503813 0
2.0330338 1.2979748 -0.11978552 0
2.4511867 1.2164472 -0.10087695 0
2.5118191 1.2263216 -0.11619488 0
2.6117289 1.2934824 -0.12029231 0
-2.3494532 1.3655579 -0.16329668 0
-2.2429812 1.3016231 -0.16071866 0
-1.7029999 1.329 -0.149 0
-1.6716135 1.3044589 -0.14929129 0
-1.5653102 1.3475256 -0.14759748 0
-1.2433157 1.3528216 -0.14713712 0
-1.1487479 1.3714221 -0.14681576 0
-1.0554434 1.3453691 -0.14693938 0
-0.95898229 1.3516061 -0.14671513 0
-0.84456807 1.3477063 -0.14719242 0
-0.74718016 1.3762203 -0.14805764 0
-0.6416319 1.3463459 -0.14869189 0
-0.54018468 1.3381308 -0.14860068 0
-0.46266666 1.3453335 -0.148 0
-0.373 1.38 -0.146 0
0.296 1.397 -0.13699999 0
0.79900002 1.3890001 -0.13600001 0
1.0195209 1.3571658 -0.14113609 0
1.595342 1.3103771 -0.13322401 0
1.6721047 1.3414036 -0.13342147 0
1.7614809 1.3667883 -0.13037355 0
1.8598516 1.3520383 -0.12819944 0
2.0405993 1.3716152 -0.1216585 0
2.1493962 1.3740352 -0.11066464 0
2.6919999 1.332 -0.13 0
-2.5269065 1.4721158 -0.16759337 0
-2.4559252 1.4294926 -0.1658747 0
-1.627 1.401 -0.147 0
-1.3294736 1.4457324 -0.14620569 0
-1.1191092 1.4494607 -0.14523762 0
-1.049934 1.4451376 -0.14506717 0
-0.94876605 1.4525869 -0.14563398 0
-0.84645057 1.4622437 -0.14633492 0
-0.75670946 1.4487746 -0.14706798 0
-0.65199572 1.457574 -0.14619821 0
-0.56267518 1.4612314 -0.14588723 0
-0.45018035 1.449936 -0.14558849 0
-0.34258604 1.4555674 -0.14440259 0
-0.249 1.4529999 -0.14399999 0
-0.183 1.489 -0.14300001 0
0.17 1.492 -0.138 0
0.235 1.447 -0.138 0
0.31089446 1.4736626 -0.13678096 0
0.74899995 1.4545 -0.1375 0
0.84981751 1.4360149 -0.13766402 0
0.90633261 1.4823751 -0.13812876 0
1.0730417 1.4253316 -0.13927218 0
1.1265624 1.4934974 -0.13740827 0
1.7698625 1.442572 -0.13027377 0
1.8455586 1.4514408 -0.13264647 0
1.9535682 1.4226111 -0.12624784 0
2.0257921 1.4762698 -0.12471182 0
2.1525192 1.4477383 -0.1185902 0
2.2283776 1.4494957 -0.11418156 0
-2.585 1.507 -0.169 0
-1.4325438 1.556881 -0.14509141 0
-1.1528864 1.5566967 -0.14270958 0
-1.0283324 1.5515299 -0.14379473 0
-0.94363558 1.5311428 -0.14477386 0
-0.86191308 1.5246966 -0.14564326 0
-0.75522041 1.5666934 -0.14636874 0
-0.64493251 1.5462707 -0.14502126 0
-0.54080057 1.5458193 -0.14477639 0
-0.43612453 1.5622544 -0.14399225 0
-0.35596895 1.5714335 -0.14301367 0
-0.26210994 1.5468872 -0.14181432 0
-0.14283124 1.5498589 -0.14062263 0
-0.0049999999 1.592 -0.13699999 0
0.14213049 1.5458736 -0.13763937 0
0.24829906 1.5406476 -0.138 0
0.32578889 1.5503252 -0.13656193 0
0.7591989 1.5353094 -0.13610715 0
0.83400893 1.5617083 -0.13385297 0
0.95466518 1.5587502 -0.13525751 0
1.033 1.59 -0.13699999 0
1.1800833 1.5616632 -0.13554436 0
1.866465 1.5375466 -0.12952267 0
1.9406619 1.56313 -0.12939632 0
2.0498688 1.56848 -0.12310566 0
2.1385264 1.5287359 -0.12835073 0
2.247 1.512 -0.116 0
-1.5324013 1.6651318 -0.14393896 0
-1.3385453 1.6744184 -0.14180559 0
-1.2613275 1.620882 -0.14221285 0
-1.1562356 1.635788 -0.14105991 0
-1.0519893 1.6493382 -0.14042056 0
-0.9496972 1.6642787 -0.14063424 0
-0.87393069 1.6383237 -0.14102103 0
-0.75509161 1.6631743 -0.14342199 0
-0.65025949 1.6502182 -0.14182301 0
-0.54508346 1.6483011 -0.14208768 0
-0.44649318 1.6540221 -0.1419915 0
-0.35154799 1.6707073 -0.14022383 0
-0.232343 1.6603206 -0.13846307 0
-0.15632914 1.6327177 -0.1389119 0
-0.015971793 1.6681858 -0.13758764 0
0.056000002 1.683 -0.138 0
0.1566845 1.6412805 -0.13623349 0
0.2378 1.6489999 -0.13640001 0
0.33956113 1.6386627 -0.13678096 0
0.83282191 1.6595364 -0.13306442 0
0.95926231 1.6595254 -0.13183919 0
1.0420561 1.6494225 -0.13308534 0
1.2603645 1.6639118 -0.13274851 0
1.978 1.631 -0.12800001 0
2.0380001 1.604 -0.12800001 0
2.1655998 1.6117141 -0.11525008 0
-1.6238025 1.7642635 -0.14287791 0
-1.3710909 1.7582219 -0.13949367 0
-1.2614951 1.7384824 -0.13888904 0
-1.1497425 1.7467327 -0.13882212 0
-1.0557647 1.7367038 -0.1392712 0
-0.95507526 1.7589951 -0.13844924 0
-0.83918071 1.7327472 -0.13933659 0
-0.74033731 1.7535869 -0.13987045 0
-0.64322698 1.7339764 -0.13913502 0
-0.55406356 1.7433571 -0.13934411 0
-0.44343489 1.7551763 -0.13873693 0
-0.35001335 1.7435051 -0.13806239 0
-0.26456529 1.7398589 -0.13729183 0
-0.016706152 1.7584841 -0.1355584 0
0.07955841 1.7566448 -0.13529573 0
0.14547411 1.7410836 -0.13409156 0
0.25387704 1.7392664 -0.13391991 0
0.36422107 1.7370436 -0.1344994 0
0.45699999 1.776 -0.13500001 0
0.542 1.79 -0.133 0
0.65899998 1.7283334 -0.132 0
0.75107956 1.7560182 -0.13084759 0
0.87160593 1.7363937 -0.13071173 0
0.93724185 1.7963488 -0.12743561 0
1.0500941 1.7615778 -0.12822999 0
1.1292287 1.7374396 -0.13056886 0
1.3406457 1.7661606 -0.12995264 0
-1.7456709 1.8964392 -0.14146319 0
-1.6847367 1.8303514 -0.14217055 0
-1.5021811 1.8766738 -0.13822232 0
-1.4259727 1.8268918 -0.13813406 0
-1.3350749 1.8356489 -0.13669848 0
-1.2377563 1.8472517 -0.13635114 0
-1.1371825 1.857347 -0.1362831 0
-1.0457029 1.8470125 -0.13697264 0
-0.94385248 1.8555316 -0.13593534 0
-0.85961312 1.8330072 -0.13744785 0
-0.74207115 1.8434629 -0.13650727 0
-0.65636677 1.842611 -0.13669297 0
-0.54749596 1.8394779 -0.13762465 0
-0.437902 1.8479816 -0.13649714 0
-0.34802976 1.8371919 -0.13527866 0
-0.2757251 1.8556924 -0.1350092 0
-0.017440509 1.8487824 -0.13352916 0
0.07717523 1.8709346 -0.13288715 0
0.14616367 1.8507916 -0.13159831 0
0.24478751 1.8308442 -0.1318437 0
0.32765657 1.8464037 -0.13141082 0
0.44225267 1.8558137 -0.13036898 0
0.54184407 1.8527015 -0.13109849 0
0.66046 1.8464439 -0.12911226 0
0.7365911 1.8703164 -0.12780692 0
0.85415626 1.8414178 -0.12900211 0
0.94222212 1.8549732 -0.12730855 0
1.0429488 1.8565129 -0.1270656 0
1.1609045 1.8477325 -0.12671183 0
1.2254574 1.8848791 -0.12413774 0
1.342083 1.8248068 -0.12755059 0
-1.8066051 1.962527 -0.14075582 0
-1.5357363 1.9642316 -0.13541488 0
-1.4473264 1.9425988 -0.13457873 0
-1.351918 1.9506866 -0.13437843 0
-1.2576568 1.9518372 -0.13406365 0
-1.1345325 1.9466419 -0.13460782 0
-1.0489405 1.9312803 -0.13320029 0
-0.94997454 1.946999 -0.13368547 0
-0.84747648 1.9543183 -0.13444835 0
-0.75111687 1.9496944 -0.13398738 0
-0.64717239 1.9572228 -0.13392541 0
-0.55311793 1.9459916 -0.13466975 0
-0.4421221 1.9398003 -0.13408355 0
-0.33291566 1.9503858 -0.13291509 0
-0.26872143 1.9264679 -0.13329411 0
-0.01817487 1.9390807 -0.1314999 0
0.058662854 1.9496179 -0.13134287 0
0.14322533 1.9641136 -0.129575 0
0.26700631 1.9421226 -0.129007 0
0.36350146 1.9636154 -0.12831581 0
0.46078807 1.9325111 -0.12755567 0
0.56380898 1.9554143 -0.12691616 0
0.64480978 1.9712858 -0.12577139 0
0.75628757 1.9600947 -0.12465002 0
0.84796107 1.929495 -0.12446249 0
0.94488645 1.9592862 -0.124896 0
1.0462196 1.9406894 -0.12435851 0
1.1495067 1.959434 -0.12178084 0
1.2480655 1.9543201 -0.12268254 0
1.3984979 1.9348412 -0.1203036 0
-1.9284735 2.0947027 -0.1393411 0
-1.8675393 2.028615 -0.14004846 0
-1.6385441 2.0452199 -0.13523626 0
-1.5749824 2.0606461 -0.13213855 0
-1.46805 2.0470994 -0.13213232 0
-1.3475106 2.0358353 -0.13195154 0
-1.267 2.017 -0.133 0
-1.1517941 2.0442927 -0.13174947 0
-1.0629287 2.0602481 -0.13069777 0
-0.95873576 2.0474086 -0.13093743 0
-0.84448695 2.0658016 -0.13105804 0
-0.75079554 2.0560386 -0.1310135 0
-0.65893656 2.0590572 -0.13180779 0
-0.57178789 2.0540552 -0.13195519 0
-0.45817974 2.0393648 -0.13245715 0
-0.35188577 2.0522001 -0.1307945 0
-0.28208214 2.0157018 -0.13144116 0
-0.038100537 2.0149 -0.13106491 0
0.029916277 2.0411744 -0.1285001 0
0.14962675 2.0520744 -0.1276238 0
0.24843042 2.0524838 -0.12687047 0
0.32539439 2.070785 -0.12547123 0
0.42173237 2.0528362 -0.12452123 0
0.56562561 2.0494316 -0.12221787 0
0.64990103 2.0646734 -0.12216146 0
0.77479535 2.0563364 -0.12126062 0
0.86007112 2.0356662 -0.12070471 0
0.94420469 2.0718403 -0.11974378 0
1.0541675 2.0225508 -0.12177896 0
1.1461581 2.0289454 -0.12138029 0
1.2545292 2.0485754 -0.11817904 0
1.313343 2.0511594 -0.11885331 0
1.4678714 2.0329721 -0.1137813 0
-5.6149998 2.1860001 -0.16500001 0
-1.9894078 2.1607904 -0.13863374 0
-1.6950001 2.115 -0.134 0
-1.4170001 2.138 -0.12800001 0
-1.3955238 2.104754 -0.12889095 0
-1.2030852 2.1316853 -0.13002951 0
-1.0303997 2.1942992 -0.12828697 0
-0.95108318 2.1231246 -0.1294529 0
-0.86218625 2.1592429 -0.12880088 0
-0.75408399 2.1427586 -0.12880561 0
-0.65391582 2.1555243 -0.12919457 0
-0.52667284 2.1638331 -0.13002846 0
-0.46719888 2.1299248 -0.13001554 0
-0.35227355 2.1609313 -0.12829506 0
-0.29544285 2.1049359 -0.12958822 0
-0.041888237 2.1502376 -0.12771425 0
0.030888293 2.1307964 -0.12647822 0
0.1313294 2.1538684 -0.12576567 0
0.22732574 2.1641748 -0.1242325 0
0.33827329 2.155242 -0.12336548 0
0.44543457 2.1265662 -0.12203125 0
0.64900237 2.1368353 -0.12303771 0
0.73399997 2.1075001 -0.1195 0
0.84605819 2.1418641 -0.11786959 0
0.95200002 2.154 -0.116 0
1.0415847 2.1532247 -0.11639391 0
1.1466697 2.1369436 -0.11507555 0
1.2332948 2.1763074 -0.11353921 0
1.3555633 2.1378946 -0.11338931 0
1.4179149 2.1797583 -0.11127549 0
1.5386225 2.1330514 -0.10712951 0
-5.8484077 2.2823045 -0.15930712 0
-5.7706051 2.2502031 -0.16120476 0
-5.6928024 2.2181015 -0.16310237 0
-2.0439999 2.22 -0.138 0
-1.2470269 2.2392743 -0.12858367 0
-1.0676329 2.2753491 -0.12666813 0
-0.92896825 2.2512202 -0.12694468 0
-0.83310843 2.2387166 -0.12666357 0
-0.75269288 2.2517927 -0.12586984 0
-0.65923637 2.2415321 -0.12782574 0
-0.56309503 2.2728586 -0.12706517 0
-0.44742948 2.2242103 -0.12759885 0
-0.34945062 2.2699478 -0.12639141 0
-0.045675941 2.2855749 -0.12436359 0
0.031860311 2.2204185 -0.12445635 0
0.13698897 2.2425728 -0.12389022 0
0.24715503 2.276257 -0.12153977 0
0.34146622 2.2362375 -0.12136912 0
0.675753 2.2235441 -0.12054714 0
0.85480952 2.2325103 -0.11593052 0
1.2970001 2.2090001 -0.112 0
1.363 2.204 -0.111 0
1.437 2.2090001 -0.11 0
2.9519999 2.26 -0.101 0
-6.1069999 2.3889999 -0.153 0
-6.0429144 2.3625584 -0.15456305 0
-5.9262104 2.3144059 -0.1574095 0
-1.3338916 2.3984954 -0.12560757 0
-1.2904593 2.3188848 -0.12709561 0
-1.1048663 2.3563988 -0.12504929 0
-0.94309652 2.3607597 -0.12463075 0
-0.86817294 2.3559141 -0.12473252 0
-0.75176752 2.33991 -0.12581994 0
-0.67187446 2.328198 -0.12501474 0
-0.54271072 2.378799 -0.126637 0
-0.49651998 2.3002253 -0.12760425 0
-0.36335903 2.3590224 -0.12462331 0
-0.048201073 2.3757999 -0.12212982 0
0.042921867 2.3380208 -0.12170553 0
0.14264855 2.3312769 -0.12201478 0
0.25150001 2.3195 -0.1205 0
0.71587884 2.3536072 -0.11681128 0
0.8874445 2.3164287 -0.11325227 0
3.0487094 2.3417592 -0.10029921 0
-1.3773241 2.478106 -0.12411952 0
-1.1470497 2.4482245 -0.12321523 0
-0.963 2.4089999 -0.1235 0
-0.57490808 2.475724 -0.12493608 0
-0.4056493 2.4343224 -0.12353398 0
-0.34888569 2.4618716 -0.12217644 0
-0.050726205 2.4660249 -0.11989605 0
0.03451512 2.4669785 -0.11883974 0
0.13843362 2.4204986 -0.12028319 0
0.75600481 2.4836707 -0.11307542 0
0.93639684 2.442306 -0.10923491 0
-1.41 2.5380001 -0.123 0
-0.54500002 2.5280001 -0.123 0
-0.42010546 2.5232377 -0.12185073 0
-0.36224639 2.5511055 -0.12032349 0
-0.053625673 2.5696249 -0.11733113 0
0.0060000001 2.533 -0.118 0
0.78275537 2.5703795 -0.11058485 0
0.98667461 2.5715919 -0.10510877 0
-0.4352808 2.6165767 -0.12008373 0
-0.37730357 2.65167 -0.11823528 0
0.80950594 2.6570883 -0.10809427 0
0.83200002 2.73 -0.106 0
0.20100001 3.29 -0.109 0
0.34999999 3.2309999 -0.111 0
0.048 3.375 -0.109 0
0.20492679 3.3792548 -0.1061345 0
0.35842624 3.3213987 -0.10797755 0
-0.031423084 3.447835 -0.10650577 0
0.047343362 3.4618075 -0.10584813 0
0.20885357 3.4685094 -0.10326901 0
0.36685246 3.4117978 -0.10495509 0
-1.6447351 3.5412636 -0.11733937 0
-1.3660001 3.5780001 -0.112 0
-0.197 3.5220001 -0.109 0
-0.035692345 3.5763395 -0.10202304 0
0.046686724 3.5486152 -0.10269627 0
0.21278036 3.5577643 -0.10040352 0
0.37527871 3.5021966 -0.10193264 0
-1.6979407 3.6650541 -0.11535751 0
-1.3963774 3.6590514 -0.11146235 0
-1.215 3.694 -0.111 0
-0.24896978 3.6437893 -0.10668804 0
-1.7334111 3.7475812 -0.11403626 0
-1.426755 3.7401028 -0.1109247 0
-1.2417321 3.7773194 -0.11000067 0
-0.954 3.779 -0.105 0
-0.30421603 3.7609081 -0.10392799 0
-0.21777108 3.7727022 -0.10078818 0
-1.7688814 3.8301082 -0.11271501 0
-1.4571323 3.8211541 -0.11038704 0
-1.2684643 3.8606386 -0.10900134 0
-0.97518235 3.8662755 -0.10387977 0
-0.31332403 3.8413625 -0.10089198 0
-1.822087 3.9538989 -0.11073314 0
-1.5178872 3.9832568 -0.10931173 0
-1.4875098 3.9022055 -0.10984939 0
-1.2951964 3.9439578 -0.10800201 0
-0.99636471 3.9535508 -0.10275955 0
-1.8752927 4.0776892 -0.10875127 0
-1.5482647 4.0643082 -0.10877408 0
-1.3219285 4.027277 -0.10700268 0
-1.1143665 4.0812721 -0.10718387 0
-1.0537735 4.0204134 -0.10531966 0
-1.910763 4.1602163 -0.10743003 0
-1.5853211 4.1631799 -0.10811821 0
-1.3620267 4.152256 -0.10550368 0
-1.1387329 4.1625443 -0.10536774 0
-1.0387294 4.1281018 -0.10051911 0
-1.9462334 4.2427435 -0.10610878 0
-1.4021249 4.277235 -0.10400467 0
-1.1630994 4.2438159 -0.1035516 0
-1.976 4.3119998 -0.105 0
-1.4289286 4.3607774 -0.10300267 0
-1.1874659 4.325088 -0.10173547 0
-0.65200001 -1.462 -0.046 0
-2.325 -1.3660001 -0.093000002 0
-2.2521605 -1.3230585 -0.081421897 0
-0.61723304 -1.3432819 -0.04187569 0
-0.5809322 -1.3031274 -0.037502762 0
-2.1429014 -1.258646 -0.064054728 0
-0.64856505 -1.2369599 -0.039634038 0
-0.56404352 -1.22684 -0.035041146 0
-2.0336421 -1.1942337 -0.046687569 0
-1.9608026 -1.1512921 -0.035109457 0
-1.8879631 -1.1083504 -0.023531348 0
-1.5190001 -1.171 -0.052000001 0
-1.4402845 -1.1379993 -0.044385694 0
-1.3459711 -1.1150584 -0.0406431 0
-1.2539999 -1.115 -0.044 0
-1.017 -1.1109999 -0.046 0
-0.95200002 -1.12975 -0.04425 0
-0.85249996 -1.1145 -0.039999999 0
-0.79900002 -1.104 -0.041000001 0
-0.65967333 -1.1446806 -0.036119219 0
-0.553298 -1.135156 -0.029918749 0
-0.46133336 -1.155 -0.027333334 0
-0.39199999 -1.152 -0.035 0
-1.8279999 -1.073 -0.013999999 0
-1.4001379 -1.0809973 -0.02754277 0
-1.3217956 -1.0441151 -0.018443275 0
-1.2440189 -1.0422615 -0.021940393 0
-1.1592405 -1.0533421 -0.030185558 0
-1.0418701 -1.0817968 -0.039860558 0
-0.94450313 -1.0516979 -0.031862095 0
-0.85142779 -1.046309 -0.02904731 0
-0.7362448 -1.0688877 -0.034576427 0
-0.63416922 -1.0496248 -0.025978899 0
-0.53873175 -1.0456631 -0.022380874 0
-0.46143669 -1.0556515 -0.020206308 0
-0.3837418 -1.0492939 -0.029200848 0
-0.059746996 -1.0656252 -0.012242463 0
0.2 -1.006 -0.0020000001 0
-1.2786379 -0.98899734 -0.0025427695 0
-1.1356149 -0.9767167 -0.0074812863 0
-1.0578538 -0.96470851 -0.0087324549 0
-0.94153279 -0.97164887 -0.016589679 0
-0.85264421 -0.9514029 -0.012262437 0
-0.7600581 -0.94741523 -0.012421764 0
-0.6421513 -0.95178354 -0.01392871 0
-0.55081815 -0.93302983 -0.0098316493 0
-0.44776911 -0.94676572 -0.017146805 0
-0.3520976 -0.94412076 -0.024893682 0
-0.2545 -0.91775 -0.02675 0
-0.055181749 -0.98261219 -0.011556902 0
-0.73500526 -0.88618749 -0.0027943347 0
-0.51956588 -0.88027644 -0.0012627803 0
-0.44733334 -0.89400005 -0.011999999 0
-0.35299152 -0.86007071 -0.018463364 0
-0.25314054 -0.83795762 -0.021458514 0
-0.15800001 -0.80800003 -0.035999998 0
-0.04762049 -0.85593766 -0.023863696 0
-0.30461937 -0.77914125 -0.014510426 0
-0.22775167 -0.7534771 -0.018379616 0
-0.1726325 -0.74068779 -0.02097529 0
-0.040648196 -0.73537505 -0.030545479 0
0.044763312 -0.74371588 -0.012502967 0
0.31099999 -0.72399998 -0.021 0
-0.22049999 -0.67550004 -0.014 0
-0.15766647 -0.66216296 -0.013978119 0
-0.042499997 -0.63699996 -0.021 0
0.027240172 -0.64552569 -0.017387541 0
0.27362698 -0.6367963 -0.0074590533 0
0.38952485 -0.65016997 -0.0050920807 0
0.34299999 -0.574 -0.011 0
1.8455045 0.96699476 -0.094021142 0
1.9537612 0.96112067 -0.0421996 0
2.0421295 0.98754936 -0.055715054 0
1.7456322 1.0565181 -0.070259295 0
2.0498314 1.0238593 -0.052338526 0
2.1480987 1.0499004 -0.068372928 0
2.2720647 1.0997747 -0.087357529 0
1.7419373 1.122105 -0.026992775 0
2.2505093 1.1201532 -0.076607734 0
2.3598127 1.1575564 -0.094537146 0
1.8673892 1.2001212 -0.049145512 0
1.9397115 1.2450969 -0.061916407 0
2.0120335 1.2900727 -0.074687302 0
2.0843558 1.3350484 -0.087458201 0
3.1454186 2.4235182 -0.099598415 0
3.2098916 2.4780242 -0.099131219 0
3.2743645 2.5325303 -0.098664023 0
3.3388374 2.5870364 -0.098196827 0
3.3659999 2.6099999 -0.097999997 0
0.491 3.4760001 -0.1 0
0.38370496 3.5925956 -0.098910183 0
0.5040893 3.5644586 -0.09799438 0
-0.038538516 3.6620092 -0.099034555 0
0.046030086 3.6354227 -0.099544406 0
0.21670714 3.6470191 -0.097538032 0
0.39213121 3.6829944 -0.095887721 0
0.51717865 3.6529169 -0.095988758 0
-0.04138469 3.7476792 -0.096046075 0
0.045373447 3.7222302 -0.096392542 0
0.22063394 3.7362738 -0.094672538 0
0.40055743 3.7733934 -0.092865266 0
0.53026795 3.7413754 -0.093983136 0
-0.22469479 3.8562696 -0.0980509 0
-0.044230863 3.833349 -0.093057595 0
0.044388488 3.8524415 -0.091664746 0
0.22456072 3.8255286 -0.091807045 0
0.40898368 3.8637922 -0.089842811 0
0.54335725 3.8298337 -0.091977522 0
-0.32243204 3.9218166 -0.097855978 0
-0.23161848 3.939837 -0.095313624 0
-0.047077034 3.9190187 -0.090069115 0
0.043403532 3.9826527 -0.086936958 0
0.22848751 3.9147835 -0.088941559 0
0.41740993 3.9541912 -0.086820357 0
0.55644655 3.9182923 -0.0899719 0
-0.33277002 4.0131354 -0.094409987 0
-0.23927107 4.0322022 -0.092288174 0
-0.049961604 4.0058441 -0.087040313 0
0.043000001 4.0359998 -0.085000001 0
0.23437768 4.048666 -0.084643319 0
0.42583615 4.04459 -0.083797902 0
0.57608056 4.0509796 -0.086963467 0
0.23800001 4.131 -0.082000002 0
0.43426239 4.1349888 -0.080775447 0
0.59571451 4.1836677 -0.083955035 0
-1.0599117 4.2153773 -0.099398889 0
0.442 4.2179999 -0.078000002 0
0.60880387 4.2721262 -0.081949413 0
-1.1022764 4.3899279 -0.097158447 0
-1.0810941 4.3026524 -0.098278672 0
0.61500001 4.3140001 -0.081 0
-1.2240155 4.4469957 -0.099011272 0
-1.1234589 4.4772034 -0.09603823 0
-1.251 4.5370002 -0.097000003 0
-1.1446412 4.5644789 -0.094918005 0
-1.1619999 4.6360002 -0.093999997 0
8.9090004 -5.309 0.075000003 0
8.7680283 -5.2347417 0.092472583 0
8.8385143 -5.2718706 0.083736293 0
0.77286184 -1.2777648 0.043585636 0
0.66867399 -1.1071897 0.030355435 0
0.71519887 -1.1833596 0.036263354 0
0.62214911 -1.0310197 0.024447516 0
-1.1693845 -0.9417339 0.0094275996 0
-1.0312079 -0.9099524 0.0082476959 0
-0.82800001 -0.90200001 0.0009999983 0
-0.41853404 -0.95143777 0.0091211041 0
-0.067677625 -0.91590756 0.021133894 0
0.18440776 -0.92744666 0.003328996 0
0.57562429 -0.95484978 0.018539596 0
-0.97000003 -0.89499998 0.0069999993 0
-0.84863335 -0.87638736 0.0029880032 0
-0.72466666 -0.861 0.00066666678 0
-0.63924545 -0.86266792 0.0029798765 0
-0.5502733 -0.84058809 0.0044245212 0
-0.47279763 -0.83177727 0.0051559522 0
-0.36965448 -0.84190047 0.021193769 0
-0.058090366 -0.83443904 0.013951713 0
0.077398896 -0.85956824 0.031726755 0
0.16881551 -0.84889334 0.0086579919 0
0.23385789 -0.85880542 0.031190788 0
0.48257458 -0.80250984 0.0067237578 0
0.52909946 -0.87867981 0.012631677 0
-0.33553404 -0.76543784 0.029621106 0
-0.052664287 -0.75651681 0.012202587 0
0.06719853 -0.76375759 0.01496901 0
0.17619358 -0.75158662 0.015360974 0
0.4360497 -0.72633994 0.00081583858 0
-0.043825477 -0.66172969 0.013968972 0
0.059599265 -0.69237882 0.0024845051 0
0.13993792 -0.64323413 0.019332111 0
0.15899999 -0.58700001 1.5121171e-14 0
0.242 -0.56300002 0.0040000007 0
8.5552845 -5.1226768 0.11884073 0
8.6622992 -5.1790476 0.10557702 0
