# .PCD v0.7 - Point Cloud Data file format
VERSION 0.7
FIELDS x y z intensity
SIZE 4 4 4 4
TYPE F F F F
COUNT 1 1 1 1
WIDTH 1403
HEIGHT 1
VIEWPOINT 0 0 0 1 0 0 0
POINTS 1403
DATA ascii
-1.163733 -3.7334447 -0.21142504 0
-1.1289192 -3.6149006 -0.20926507 0
-0.85600001 -3.6099999 -0.20200001 0
-1.1033727 -3.5279117 -0.20768006 0
-0.85048354 -3.5840178 -0.20178945 0
-1.0778261 -3.4409225 -0.20609504 0
-0.82359421 -3.4573712 -0.20076314 0
-1.0522795 -3.3539336 -0.20451003 0
-1.0267329 -3.2669446 -0.20292503 0
-1.0011864 -3.1799557 -0.20134002 0
-2.8110001 -3.082 -0.215 0
-2.7935662 -3.0638676 -0.21487851 0
-2.7317255 -2.9995489 -0.21444757 0
-2.6698847 -2.9352303 -0.21401662 0
-2.6080441 -2.8709116 -0.21358567 0
-2.5462034 -2.8065929 -0.21315473 0
-2.4843628 -2.7422745 -0.21272378 0
-2.4225221 -2.6779559 -0.21229284 0
-2.3606813 -2.6136372 -0.21186189 0
-2.2988408 -2.5493186 -0.21143094 0
-2.237 -2.4849999 -0.211 0
-4.007 -2.0020001 -0.233 0
-2.289 -2.003 -0.208 0
-3.9692364 -1.9836286 -0.2335325 0
-3.8472509 -1.9242845 -0.23525262 0
-3.7252655 -1.86494 -0.23697275 0
-3.6439419 -1.8253772 -0.2381195 0
-2.276 -1.897 -0.206 0
-3.5626183 -1.7858144 -0.23926625 0
-3.4812946 -1.7462515 -0.24041301 0
-3.3999708 -1.7066886 -0.24155976 0
-3.3186471 -1.6671258 -0.24270651 0
-3.2373235 -1.6275629 -0.24385326 0
-3.1559999 -1.5880001 -0.245 0
-2.105 -1.398 -0.205 0
-2.0324259 -1.3514919 -0.20391841 0
-1.9576226 -1.3035555 -0.20280361 0
-2.1294351 -1.2740726 -0.20576833 0
-2.0332253 -1.2189546 -0.20478055 0
-1.8454177 -1.2316508 -0.2011314 0
-1.9595803 -1.1767637 -0.20402443 0
-1.8859352 -1.1345727 -0.20326833 0
-2.2538033 -1.0107565 -0.20973985 0
-1.8122901 -1.0923818 -0.20251222 0
-1.7386451 -1.0501909 -0.20175612 0
-1.665 -1.008 -0.20100001 0
-2.2379999 -0.94099998 -0.207 0
-2.167459 -0.94222659 -0.20710789 0
-2.0761387 -0.93262124 -0.20648421 0
-2.2299721 -0.84610736 -0.20591256 0
-2.1261382 -0.83604175 -0.20517372 0
-2.0508082 -0.84496212 -0.20465247 0
-1.9461594 -0.85736114 -0.20387377 0
-1.8309364 -0.82478356 -0.20199098 0
-2.2416916 -0.74153161 -0.20525278 0
-2.1377273 -0.75473964 -0.20477942 0
-2.0601909 -0.75525039 -0.20491022 0
-1.9696527 -0.7490716 -0.2042032 0
-1.8645866 -0.760912 -0.20275095 0
-1.771444 -0.74840194 -0.20145655 0
-1.6857613 -0.71347153 -0.20005846 0
-2.2225158 -0.65841162 -0.20485343 0
-2.1232824 -0.63815129 -0.2036401 0
-2.0438347 -0.66744649 -0.20296468 0
-1.9615033 -0.64060342 -0.20199721 0
-1.8629756 -0.66741872 -0.20325814 0
-1.7477499 -0.64202678 -0.20231564 0
-1.6399305 -0.62621433 -0.20204064 0
-1.551 -0.61400002 -0.20100001 0
-2.234879 -0.5587756 -0.20403329 0
-2.1372139 -0.53434849 -0.20402932 0
-2.0521686 -0.56475198 -0.20265466 0
-1.9673071 -0.54145992 -0.20187889 0
-1.8723135 -0.53928238 -0.20075971 0
-1.7150186 -0.58414871 -0.20118959 0
-1.6315093 -0.55607438 -0.2005948 0
-1.564 -0.57700002 -0.20200001 0
-2.2293067 -0.47379827 -0.20317149 0
-2.1308906 -0.45167726 -0.2040744 0
-2.04707 -0.45923442 -0.20506008 0
-1.9651114 -0.4402037 -0.20569435 0
-1.8582816 -0.47209013 -0.20289002 0
-1.7397906 -0.42698443 -0.20487063 0
-1.8518614 -0.38895965 -0.2066343 0
-1.622 -0.384 -0.208 0
-2.2417221 -0.045261893 -0.20310317 0
-2.5548978 0.072599053 -0.2020891 0
-2.4625967 0.070148587 -0.20263365 0
-2.3467984 0.067074299 -0.20331682 0
-2.2375755 0.022248415 -0.20406449 0
-2.5357223 0.17141078 -0.2013911 0
-2.4576876 0.15708715 -0.20218998 0
-2.3445938 0.15104356 -0.20384499 0
-2.2314999 0.14500001 -0.20550001 0
-2.4430957 0.2439689 -0.20131247 0
-2.365665 0.26644605 -0.20307338 0
-2.2556663 0.25636151 -0.20564336 0
-2.4501212 0.34314024 -0.20155703 0
-2.3553097 0.35136768 -0.20384224 0
-2.2540612 0.36106643 -0.20786713 0
-2.4486351 0.42037272 -0.20157115 0
-2.3661802 0.40416366 -0.20509486 0
-4.1129999 0.55699998 -0.23899999 0
-4.0443964 0.56386036 -0.23442641 0
-4.248332 0.67814064 -0.23796108 0
-4.1220002 0.65600002 -0.241 0
-4.704 0.75800002 -0.227 0
-4.6273279 0.74456269 -0.22884434 0
-4.543107 0.72980225 -0.23087028 0
-4.466373 0.75471097 -0.23241693 0
-4.3556228 0.75213784 -0.23434496 0
-4.2335281 0.77893806 -0.23434654 0
-4.1476564 0.76664603 -0.23529978 0
-4.0617852 0.754354 -0.23625299 0
-3.9890001 0.755 -0.234 0
-4.6666918 0.84094906 -0.2295402 0
-4.5541496 0.83115345 -0.23070113 0
-4.4218526 0.82354009 -0.23153009 0
-4.3352818 0.8098321 -0.23202407 0
-4.2381454 0.89412618 -0.22901388 0
-4.1518588 0.87859464 -0.2292604 0
-4.0655727 0.8630631 -0.22950694 0
-3.9792862 0.84753156 -0.22975346 0
-3.8929999 0.83200002 -0.23 0
-4.5881453 0.95712614 -0.22801387 0
-4.4538612 0.93295503 -0.22839755 0
-4.314024 0.95435864 -0.23034286 0
-4.2217126 0.97854465 -0.23393878 0
-4.1398082 0.95802981 -0.23595919 0
-4.0579042 0.9375149 -0.23797959 0
-3.9760001 0.917 -0.23999999 0
-4.5029998 1.049 -0.227 0
-4.4674249 1.0400894 -0.22787756 0
-4.3855205 1.0195745 -0.22989798 0
-4.2126579 1.0923016 -0.227 0
-4.1279263 1.0738413 -0.227 0
-4.0431948 1.0553809 -0.227 0
-3.9328425 1.0659204 -0.2306864 0
-3.8503656 1.0447302 -0.2315 0
-3.789 1 -0.227 0
-4.427 1.1390001 -0.227 0
-4.3821211 1.1292223 -0.227 0
-4.2627492 1.1506813 -0.22743195 0
-4.1478872 1.1666803 -0.22949113 0
-4.0676651 1.1427603 -0.23111835 0
-3.9447885 1.1561236 -0.23189932 0
-3.8225665 1.1677036 -0.23252654 0
-3.743 1.142 -0.234 0
-4.3141651 1.2162602 -0.22611836 0
-4.2247 1.2976109 -0.22507963 0
-4.1408329 1.2705181 -0.22663271 0
-4.0612664 1.2448144 -0.22810617 0
-3.9468079 1.2581657 -0.22899172 0
-3.8336105 1.2698138 -0.22993588 0
-3.7553053 1.2424068 -0.23146793 0
-3.677 1.215 -0.233 0
-3.598 1.2819999 -0.23100001 0
-4.1370001 1.376 -0.22400001 0
-4.0685263 1.3520343 -0.22533971 0
-3.9510598 1.3618041 -0.2269862 0
-3.8334241 1.3697357 -0.22807547 0
-3.7549493 1.3404905 -0.22905032 0
-3.6764748 1.3112452 -0.23002516 0
-3.3391671 1.367857 -0.21590805 0
-3.2590001 1.334 -0.215 0
-3.1289999 1.3660001 -0.20999999 0
-4.074924 1.4597356 -0.22507547 0
-3.9903734 1.4282261 -0.22612579 0
-3.5796683 1.4694278 -0.21863216 0
-3.4594178 1.4186423 -0.21727011 0
-3.3707597 1.4744595 -0.2145483 0
-3.2498798 1.4202298 -0.21227415 0
-3.0079999 1.483 -0.20900001 0
-3.8485847 1.5829993 -0.22167814 0
-3.7400022 1.5371417 -0.22044824 0
-3.6361773 1.5431019 -0.2193184 0
-3.5319328 1.5467659 -0.2175805 0
-3.4513464 1.5106127 -0.21606441 0
-3.1638641 1.5615679 -0.21205118 0
-3.085932 1.5222839 -0.21052559 0
-3.8199999 1.676 -0.223 0
-3.7736926 1.6552254 -0.22212881 0
-3.6931062 1.6190722 -0.2206127 0
-3.3586946 1.6597776 -0.21586515 0
-3.2417965 1.6008518 -0.21357676 0
-2.852 1.661 -0.20900001 0
-3.6210001 1.7920001 -0.221 0
-3.5535252 1.7579875 -0.21967912 0
-3.4755931 1.7187035 -0.21815354 0
-3.0525627 1.7819953 -0.20702726 0
-2.9522815 1.7214975 -0.20801362 0
-3.1382086 1.8336635 -0.20618483 0
2.4200001 -4.5079999 -0.101 0
2.3959215 -4.4622231 -0.10370548 0
2.3327832 -4.3421898 -0.11079966 0
2.269645 -4.2221565 -0.11789383 0
2.2275529 -4.1421337 -0.12262328 0
2.1854608 -4.0621119 -0.12735273 0
0.13746077 -3.9610825 -0.18995506 0
2.1223226 -3.9420781 -0.13444692 0
0.068481237 -3.8351748 -0.19548528 0
0.13437471 -3.852813 -0.18969789 0
2.0591843 -3.8220446 -0.14154109 0
-0.043000001 -3.7479999 -0.19 0
0.067173764 -3.7460082 -0.19453783 0
0.13182788 -3.7634614 -0.18948565 0
2.0170922 -3.7420223 -0.14627054 0
-0.041768827 -3.6796696 -0.18964824 0
0.065885052 -3.6586668 -0.19360511 0
0.15917222 -3.6684206 -0.19491017 0
1.975 -3.6619999 -0.15099999 0
-0.58399999 -3.5339999 -0.198 0
-0.20446658 -3.5554891 -0.19094074 0
-0.039374672 -3.5467939 -0.18896419 0
0.057133377 -3.5494845 -0.19151741 0
0.14796527 -3.5737755 -0.19263771 0
0.25314003 -3.5670733 -0.19679631 0
-0.57388616 -3.4595251 -0.1972338 0
-0.40578681 -3.4328518 -0.19377869 0
-0.324 -3.4219999 -0.193 0
-0.27743447 -3.4271359 -0.18991613 0
-0.19844154 -3.4593561 -0.19027129 0
-0.036980517 -3.4139185 -0.18828015 0
0.063086882 -3.4395041 -0.19151892 0
0.13699499 -3.4599655 -0.19081903 0
0.24623337 -3.4712889 -0.19516052 0
0.32723835 -3.4802783 -0.19758549 0
-0.79670489 -3.3307245 -0.19973683 0
-0.56270891 -3.3772202 -0.19638704 0
-0.35883784 -3.3454635 -0.19273999 0
-0.26831624 -3.3230906 -0.18942766 0
-0.1723299 -3.3543427 -0.18987818 0
-0.052038081 -3.3163905 -0.18864204 0
0.06179817 -3.3521628 -0.19058619 0
0.14576335 -3.3401654 -0.19154625 0
0.25312001 -3.347014 -0.1921685 0
0.31756392 -3.3774638 -0.19530916 0
0.5256145 -3.3497629 -0.18882328 0
0.6839335 -3.349045 -0.18690065 0
0.76133788 -3.3353984 -0.1859169 0
-0.77877867 -3.2462933 -0.19905262 0
-0.54594302 -3.2537627 -0.19511691 0
-0.35303432 -3.2628469 -0.19209445 0
-0.26076353 -3.2369089 -0.18902305 0
-0.17149933 -3.2571354 -0.18900812 0
-0.041009713 -3.2521565 -0.18830602 0
0.05075473 -3.2519107 -0.19007674 0
0.15452871 -3.2342367 -0.19015169 0
0.25398326 -3.262795 -0.19069326 0
0.30569476 -3.2513247 -0.19251642 0
0.51581931 -3.2543509 -0.18809773 0
0.66698039 -3.2543809 -0.18532115 0
0.7443406 -3.2474375 -0.18506703 0
0.8972792 -3.2278528 -0.18115881 0
0.95697325 -3.2556334 -0.18061031 0
-0.76085246 -3.1618621 -0.19836842 0
-0.52917725 -3.1303051 -0.19384676 0
-0.33310539 -3.1545632 -0.19116823 0
-0.25321084 -3.150727 -0.18861844 0
-0.17448051 -3.149452 -0.18809043 0
-0.060226478 -3.1434517 -0.18707924 0
0.040441491 -3.1499605 -0.1874415 0
0.13150001 -3.1395001 -0.189 0
0.25793612 -3.1305218 -0.18957788 0
0.50470483 -3.1460876 -0.18727443 0
0.65109366 -3.1656721 -0.18384103 0
0.72900546 -3.1680782 -0.18430027 0
0.87639934 -3.1453774 -0.17996567 0
0.95493126 -3.1520572 -0.17856941 0
1.1426269 -3.154851 -0.17459117 0
-0.96286643 -3.0494723 -0.19896251 0
-0.74292624 -3.0774312 -0.1976842 0
-0.51800001 -3.0480001 -0.193 0
-0.37799999 -3.092 -0.191 0
-0.27264953 -3.040483 -0.18908447 0
-0.1709833 -3.0212445 -0.18722036 0
-0.060551632 -3.0585372 -0.18647683 0
0.039999999 -3.0610001 -0.18700001 0
0.25095639 -3.0465465 -0.18793091 0
0.66677105 -3.0431612 -0.18256383 0
0.71367031 -3.0887189 -0.18353352 0
0.85551947 -3.062902 -0.17877254 0
0.9319427 -3.0692143 -0.17730784 0
1.087271 -3.0702333 -0.17355181 0
1.170176 -3.0786486 -0.1729586 0
1.3194313 -3.046473 -0.16980676 0
3.628 -3.0079999 -0.101 0
-0.9245466 -2.9189889 -0.196585 0
-0.72500002 -2.993 -0.197 0
-0.26626635 -2.9539888 -0.18855631 0
-0.16549164 -2.9336224 -0.18661019 0
-0.06087679 -2.9736228 -0.1858744 0
0.278 -2.957 -0.186 0
0.65116012 -2.9591269 -0.18144038 0
0.86030263 -2.9419775 -0.17618206 0
0.90895414 -2.9863715 -0.17604627 0
1.0458558 -2.9452548 -0.17171928 0
1.1251431 -2.9536519 -0.17090386 0
1.2798777 -2.9503968 -0.16843425 0
3.4932981 -2.9007952 -0.10604697 0
3.5643311 -2.9573281 -0.10338553 0
-0.89899999 -2.832 -0.19499999 0
-0.2475888 -2.8469963 -0.18768544 0
-0.16 -2.846 -0.186 0
-0.094999999 -2.895 -0.185 0
0.58754683 -2.8108361 -0.17792052 0
0.60343355 -2.899545 -0.17940065 0
0.79287988 -2.8154755 -0.17519313 0
0.83836842 -2.8593183 -0.17495471 0
1.0422753 -2.8244658 -0.16936794 0
1.245893 -2.8678472 -0.16725495 0
1.4145575 -2.8392963 -0.16660097 0
3.4222651 -2.8442624 -0.10870843 0
-0.28400001 -2.756 -0.18799999 0
0.5716601 -2.722127 -0.17644039 0
0.77200001 -2.733 -0.17399999 0
0.83998853 -2.7378428 -0.17226157 0
0.97683036 -2.7369571 -0.16866507 0
1.050088 -2.7453241 -0.16747931 0
1.1779236 -2.7027481 -0.1648964 0
1.2119083 -2.7852976 -0.16607568 0
1.3623505 -2.7356434 -0.16492669 0
1.4299999 -2.71 -0.162 0
1.655 -2.721 -0.156 0
3.2801988 -2.7311969 -0.11403131 0
3.3512318 -2.7877297 -0.11136987 0
0.55577338 -2.6334181 -0.17496026 0
0.81699997 -2.655 -0.171 0
0.94922024 -2.6536381 -0.16744338 0
1.020066 -2.661993 -0.16610947 0
1.1439389 -2.6201982 -0.16371712 0
1.3225861 -2.6566944 -0.16365145 0
1.4069895 -2.6668832 -0.16155319 0
1.6162307 -2.6542647 -0.1555644 0
3.1381326 -2.6181312 -0.11935421 0
3.2091656 -2.674664 -0.11669276 0
0.53988671 -2.544709 -0.17348014 0
0.95582706 -2.5744905 -0.16548067 0
1.1099541 -2.5376487 -0.16253784 0
1.2828218 -2.5777452 -0.16237621 0
1.345706 -2.5520511 -0.16036323 0
1.4853122 -2.5238347 -0.16097154 0
1.546047 -2.5802844 -0.15852863 0
2.9960663 -2.5050657 -0.1246771 0
3.0670993 -2.5615983 -0.12201566 0
-2.918 -2.4400001 -0.101 0
-2.8493569 -2.4570451 -0.10555496 0
-2.7485256 -2.4066262 -0.12086277 0
0.52399999 -2.4560001 -0.17200001 0
0.89399999 -2.487 -0.16500001 0
0.94501102 -2.4536655 -0.16268492 0
1.0759695 -2.4550991 -0.16135855 0
1.243591 -2.4519541 -0.16003333 0
1.4608297 -2.4350173 -0.1568664 0
1.5618645 -2.4456999 -0.15804538 0
2.9250331 -2.4485328 -0.12733854 0
-2.8181317 -2.3555319 -0.1173336 0
-2.6828792 -2.3489654 -0.13331094 0
-1.3352534 -2.3486326 -0.1919134 0
1.0419847 -2.3725495 -0.16017927 0
1.1635287 -2.340898 -0.15855049 0
1.243567 -2.3606644 -0.15837994 0
1.3963659 -2.3738821 -0.15840824 0
1.4356837 -2.3434803 -0.15353577 0
1.5616022 -2.3313389 -0.15837984 0
1.613 -2.348 -0.15899999 0
1.941793 -2.328424 -0.14795154 0
2.8540001 -2.392 -0.13 0
-2.7503653 -2.2982154 -0.1284169 0
-2.6499157 -2.2661018 -0.14262965 0
-2.5515862 -2.2336435 -0.1582073 0
-1.2857201 -2.2559416 -0.19142297 0
1.008 -2.29 -0.15899999 0
1.1428101 -2.2347519 -0.15703428 0
1.2027113 -2.2841096 -0.15758663 0
1.3499531 -2.2628729 -0.15533338 0
1.4775976 -2.2641625 -0.15684719 0
1.548932 -2.2555563 -0.1570369 0
1.8765273 -2.2507634 -0.14751279 0
1.951 -2.2309999 -0.147 0
-2.6148324 -2.1835825 -0.15058351 0
-2.547066 -2.126266 -0.1616668 0
-2.4531164 -2.1471524 -0.17687955 0
-1.22454 -2.1414561 -0.19081724 0
1.084 -2.1830001 -0.156 0
1.1210001 -2.131 -0.156 0
1.2629464 -2.1489527 -0.15456329 0
1.3427476 -2.1395261 -0.15288135 0
1.4601587 -2.1634881 -0.15501104 0
1.5416663 -2.1374002 -0.15003459 0
1.7604101 -2.1125937 -0.14673217 0
1.8302439 -2.1444778 -0.14668801 0
1.9013968 -2.1746867 -0.14666025 0
-2.445416 -2.0402913 -0.17829175 0
-2.3546464 -2.0606608 -0.19555183 0
-1.16336 -2.0269709 -0.19021149 0
1.236805 -2.0533361 -0.1523944 0
1.335039 -2.0480649 -0.15273888 0
1.4358826 -2.0391493 -0.15134037 0
1.5742687 -2.0464151 -0.14760737 0
1.7424967 -2.0416882 -0.14609435 0
1.926 -2.003 -0.14300001 0
-2.3437665 -1.9543165 -0.1949167 0
-1.22 -1.9400001 -0.19 0
-1.1543815 -1.9439025 -0.18990383 0
1.174 -1.999 -0.152 0
1.24584 -1.9450108 -0.15078981 0
1.327733 -1.9363892 -0.15025923 0
1.4354746 -1.9406935 -0.14867431 0
1.5482558 -1.9495862 -0.14651909 0
1.6540899 -1.9397361 -0.14549251 0
1.7232645 -1.9724578 -0.14544018 0
1.8673425 -1.9427632 -0.1427744 0
-1.303 -1.822 -0.192 0
-1.2586646 -1.8524507 -0.19106749 0
-1.1467906 -1.841904 -0.19013543 0
-1.0817866 -1.8743236 -0.18940383 0
1.2539999 -1.83 -0.148 0
1.3402162 -1.8498201 -0.15039496 0
1.4394852 -1.8570173 -0.14620733 0
1.5281757 -1.8362544 -0.14517093 0
1.6045096 -1.8376385 -0.14462678 0
1.775074 -1.8480105 -0.14241952 0
1.8484426 -1.8339112 -0.14073297 0
1.9130259 -1.8673948 -0.14066018 0
-1.3380572 -1.7380584 -0.19301854 0
-1.2484015 -1.7481734 -0.19238548 0
-1.1417392 -1.741202 -0.19113199 0
-1.0565 -1.777 -0.1895 0
1.2621663 -1.7384001 -0.15053459 0
1.3438368 -1.7491204 -0.14564212 0
1.4602569 -1.7552043 -0.14457263 0
1.5451323 -1.7702289 -0.14422008 0
1.6520493 -1.7216737 -0.14194635 0
1.7408476 -1.7562819 -0.14096873 0
1.8449545 -1.7449725 -0.13986062 0
1.9078523 -1.7197094 -0.13996938 0
-1.919 -1.628 -0.198 0
-1.4040316 -1.6155081 -0.19402757 0
-1.3464415 -1.6457098 -0.19362649 0
-1.2229877 -1.6709656 -0.19319269 0
-1.153 -1.6585 -0.1925 0
1.210133 -1.6641201 -0.15062767 0
1.3385 -1.6489999 -0.14399999 0
1.4192181 -1.6667472 -0.1438985 0
1.590537 -1.6585053 -0.14170976 0
1.6605387 -1.6500921 -0.13999027 0
1.7494265 -1.6565943 -0.13966201 0
1.8360325 -1.6565018 -0.1396618 0
2.198899 -1.6223456 -0.13065074 0
2.2840137 -1.6819117 -0.13008614 0
-1.8543832 -1.5767694 -0.19750422 0
-1.7891066 -1.5250155 -0.19700338 0
-1.3320317 -1.534008 -0.19452757 0
-1.2515382 -1.5631509 -0.19310041 0
-1.194 -1.592 -0.19400001 0
1.1320832 -1.5527 -0.1507673 0
1.367 -1.568 -0.14300001 0
1.4675124 -1.5321684 -0.14123659 0
1.5540661 -1.5705673 -0.140237 0
1.6538985 -1.5682158 -0.13946339 0
1.7390244 -1.5711263 -0.13924634 0
1.8817507 -1.5422909 -0.1387926 0
1.928 -1.579 -0.139 0
2.0546422 -1.5213897 -0.13160768 0
2.1267705 -1.5718677 -0.13112922 0
2.3189466 -1.5483788 -0.12712972 0
-1.72383 -1.4732616 -0.19650252 0
-1.6585534 -1.4215077 -0.19600168 0
-1.25 -1.4765 -0.19400001 0
1.0540333 -1.44128 -0.15090691 0
1.44583 -1.4402978 -0.13959499 0
1.5678574 -1.4543358 -0.13890937 0
1.6420162 -1.4857509 -0.1388309 0
1.7485005 -1.4365273 -0.13819507 0
1.8151256 -1.4894091 -0.13849384 0
1.9464495 -1.4456728 -0.13232538 0
2.1365211 -1.4288588 -0.13048467 0
2.2439418 -1.4512644 -0.12736624 0
2.3605001 -1.462 -0.12549999 0
-1.5606383 -1.3438768 -0.19525042 0
1.04 -1.3499999 -0.15000001 0
1.4395 -1.3385 -0.13850001 0
1.5126721 -1.371917 -0.13827696 0
1.6485628 -1.3572046 -0.13774692 0
1.7661284 -1.319478 -0.13352154 0
1.8382568 -1.3699559 -0.13304308 0
1.961149 -1.3139596 -0.13370991 0
2.0414534 -1.3344851 -0.13028476 0
2.1472108 -1.3316927 -0.1279352 0
2.2382998 -1.3509445 -0.12708844 0
2.3473287 -1.3621845 -0.12477152 0
2.4030001 -1.304 -0.124 0
1.0433681 -1.2534002 -0.14660542 0
1.482 -1.225 -0.13699999 0
1.5486251 -1.2778819 -0.13729876 0
1.694 -1.2690001 -0.134 0
1.8939317 -1.2409468 -0.1321249 0
1.974236 -1.2614722 -0.12869975 0
2.05615 -1.2404723 -0.13004422 0
2.1609707 -1.2365705 -0.12743999 0
2.2406452 -1.2502718 -0.12568495 0
2.3503442 -1.2411083 -0.1240889 0
2.4300001 -1.248 -0.123 0
-1.7332129 -1.1597459 -0.19945921 0
-1.6584097 -1.1118095 -0.19834439 0
1.066789 -1.1428434 -0.1435136 0
1.742118 -1.118736 -0.13034987 0
1.8467453 -1.1481574 -0.13139991 0
1.9425514 -1.1410408 -0.13133883 0
2.0615356 -1.1602122 -0.12815516 0
2.1657348 -1.1786269 -0.12561771 0
2.2619147 -1.1392275 -0.12502435 0
2.3492236 -1.1400231 -0.12462024 0
2.4490633 -1.1870755 -0.12409888 0
-1.5462048 -1.0399048 -0.1966722 0
1.5873727 -1.0235786 -0.13144995 0
1.6647453 -1.0711573 -0.13089992 0
1.8541837 -1.0369067 -0.12990442 0
1.9568932 -1.0336595 -0.1277242 0
2.0355833 -1.0751493 -0.12699714 0
2.1456954 -1.0621705 -0.12590916 0
2.3688645 -1.014801 -0.12400942 0
2.4497025 -1.0510583 -0.12343934 0
2.5120001 -1.079 -0.123 0
-1.434 -0.96799999 -0.19499999 0
1.51 -0.97600001 -0.132 0
1.6836838 -0.92390668 -0.12890443 0
1.7640256 -0.96636009 -0.12835664 0
1.8494029 -0.92312789 -0.12857753 0
1.9283737 -0.96245492 -0.12791312 0
2.0256119 -0.98751158 -0.12631012 0
2.1263511 -0.90602911 -0.12571967 0
2.2476079 -0.96041512 -0.12486455 0
2.4655254 -0.91265082 -0.13792147 0
2.549341 -0.94448221 -0.13916165 0
2.6059999 -0.96600002 -0.14 0
1.523 -0.83899999 -0.13 0
1.6033418 -0.88145334 -0.12945221 0
1.7424514 -0.85406393 -0.12778877 0
1.9646755 -0.83351457 -0.12685984 0
2.0455134 -0.86977184 -0.12628976 0
2.2559862 -0.83307242 -0.134821 0
2.3817096 -0.88081944 -0.13668127 0
2.4668832 -0.80196577 -0.12338848 0
2.5674353 -0.83431435 -0.12304915 0
-1.6674682 -0.75289178 -0.19899549 0
-1.585734 -0.71694589 -0.19749774 0
1.8434188 -0.77912861 -0.12771496 0
1.9626312 -0.7216627 -0.13048036 0
2.046447 -0.75349402 -0.13172056 0
2.1302626 -0.78532541 -0.13296074 0
2.261934 -0.7291491 -0.12632273 0
2.3730145 -0.76171899 -0.12752123 0
2.4491472 -0.77672005 -0.13199361 0
2.580487 -0.70951462 -0.12315238 0
2.615 -0.71899998 -0.123 0
-1.6038806 -0.67973578 -0.19902922 0
-1.513 -0.66350001 -0.197 0
1.795 -0.65799999 -0.12800001 0
1.8718948 -0.64907855 -0.12732992 0
1.9501424 -0.62429929 -0.12668815 0
2.0347168 -0.65178323 -0.12685476 0
2.1457973 -0.68435311 -0.12805325 0
2.2576551 -0.60833657 -0.12776512 0
2.3432641 -0.63189274 -0.12789263 0
2.4451761 -0.66405827 -0.12648635 0
-1.8763068 -0.58722341 -0.1996803 0
-1.7655462 -0.53752446 -0.19838662 0
-1.548 -0.528 -0.2 0
1.693 -0.55299997 -0.126 0
1.7809935 -0.56933141 -0.12635492 0
1.8747296 -0.55160397 -0.12692694 0
1.9587927 -0.52608794 -0.12706265 0
2.0444019 -0.54964399 -0.12719017 0
2.146631 -0.55790591 -0.12885186 0
2.2533467 -0.52777219 -0.12915157 0
2.369169 -0.53582293 -0.12940656 0
2.4290521 -0.54985017 -0.1293906 0
2.5173013 -0.56974441 -0.12369327 0
2.6252232 -0.59446907 -0.12310737 0
-1.7026567 -0.49064118 -0.19887985 0
-1.6278615 -0.44829202 -0.19877577 0
-1.543 -0.42500001 -0.198 0
1.7685372 -0.46223786 -0.12740383 0
1.8498341 -0.44581982 -0.12818484 0
1.9528232 -0.43875027 -0.12829965 0
2.0559776 -0.46227443 -0.12882425 0
2.1464272 -0.44766644 -0.12910418 0
2.2404921 -0.43186888 -0.12941052 0
2.3436868 -0.44989809 -0.13003342 0
2.4380188 -0.44771248 -0.1282334 0
2.5436673 -0.4547281 -0.12377518 0
2.6376486 -0.47201562 -0.12304176 0
1.755 -0.35766664 -0.12900001 0
1.8511925 -0.35126516 -0.12974615 0
1.9477727 -0.35414955 -0.12958229 0
2.034409 -0.37072432 -0.12937342 0
2.1448336 -0.38136405 -0.12688759 0
2.2696123 -0.30542752 -0.12997797 0
2.3568249 -0.3179689 -0.12966388 0
2.4413583 -0.33334017 -0.13089985 0
2.5648775 -0.33797386 -0.12387287 0
2.651 -0.34999999 -0.123 0
1.763 -0.226 -0.132 0
1.8335488 -0.24272077 -0.13154849 0
1.9423929 -0.26093554 -0.1316728 0
2.0506382 -0.27412406 -0.13105768 0
2.1378508 -0.28666541 -0.13074359 0
2.2322717 -0.2449019 -0.13109162 0
2.3416667 -0.21011528 -0.13483796 0
2.4341388 -0.21931724 -0.13498881 0
1.8279999 -0.15899999 -0.134 0
1.9564166 -0.17177883 -0.13420948 0
2.0848334 -0.18455765 -0.13441898 0
2.1704445 -0.19307685 -0.13455865 0
2.4538517 -0.10228363 -0.13697761 0
1.836 -0.071000002 -0.13600001 0
1.9222432 -0.07536675 -0.13613647 0
2.0516081 -0.081916884 -0.13634115 0
2.1809733 -0.088467002 -0.13654584 0
2.2672167 -0.092833757 -0.1366823 0
2.3534598 -0.097200505 -0.13681877 0
1.6440001 0.058000002 -0.13500001 0
1.7272916 0.018571742 -0.13442826 0
1.8232915 0.039571743 -0.13642827 0
1.9392 0.032627005 -0.13633259 0
2.0590849 0.049417589 -0.13738042 0
2.1749935 0.042472854 -0.13728477 0
2.2629192 0.043198131 -0.13749889 0
2.3508446 0.043923408 -0.13771302 0
2.4561353 0.044824343 -0.13796358 0
-2.5380001 0.131 -0.2 0
1.653 0.13600001 -0.13699999 0
1.7403948 0.12176157 -0.13671789 0
1.8292897 0.12702313 -0.13693579 0
1.9181845 0.13228469 -0.13715369 0
2.0515265 0.14017703 -0.13748053 0
2.1848688 0.14806937 -0.13780735 0
2.2737637 0.15333094 -0.13802525 0
2.3626585 0.15859249 -0.13824314 0
2.4577765 0.16417703 -0.13848051 0
-2.5050001 0.249 -0.2 0
1.6554999 0.255 -0.14 0
1.7442629 0.22594991 -0.139 0
1.8325257 0.23689981 -0.139 0
1.9207885 0.24784972 -0.139 0
2.0531828 0.26427457 -0.139 0
2.1855772 0.28069943 -0.139 0
2.27384 0.29164934 -0.139 0
-2.49 0.308 -0.2 0
1.648 0.354 -0.1415 0
1.7375094 0.35195971 -0.14118607 0
1.8268409 0.34747642 -0.14077938 0
1.9142615 0.36396465 -0.14066908 0
2.0492015 0.36418438 -0.14050227 0
2.1806023 0.38724583 -0.14033636 0
2.3621027 0.30259922 -0.139 0
2.4521828 0.31377459 -0.139 0
4.5609999 0.31799999 -0.115 0
4.6473999 0.32263803 -0.10877177 0
4.7338004 0.32727608 -0.10254353 0
-2.4189992 0.47462791 -0.19886473 0
-2.331399 0.45960462 -0.19738355 0
-2.25863 0.47230378 -0.1967666 0
-2.1572201 0.45865214 -0.19572909 0
-2.0465333 0.42288375 -0.19344862 0
-1.971 0.49700001 -0.19 0
1.6389999 0.45449999 -0.14399999 0
1.7580795 0.46099985 -0.14392667 0
1.8401111 0.45235634 -0.14226069 0
1.9506218 0.44318148 -0.14133799 0
2.0828195 0.44776207 -0.14067212 0
2.1697836 0.46651447 -0.14050654 0
2.2639434 0.42991754 -0.14022782 0
2.3513637 0.44640577 -0.14011753 0
2.4416423 0.46344697 -0.14000359 0
4.5279999 0.42300001 -0.116 0
4.616004 0.42938551 -0.11077548 0
4.7480102 0.4389638 -0.10293871 0
-2.405 0.53100002 -0.199 0
-2.360759 0.56011277 -0.19804089 0
-2.2465639 0.55565965 -0.19545671 0
-2.1401315 0.55569112 -0.19450094 0
-2.0428772 0.53706378 -0.19400032 0
-1.985 0.58399999 -0.19499999 0
1.626 0.57700002 -0.147 0
1.7465644 0.55726749 -0.14478338 0
1.8406881 0.54344589 -0.14411363 0
1.9680055 0.52545989 -0.14274596 0
2.0711071 0.54614711 -0.14164039 0
2.1506791 0.55202764 -0.1401687 0
2.2422965 0.55454606 -0.13974458 0
2.3377016 0.56210887 -0.14073546 0
2.4290926 0.5535621 -0.14000487 0
-2.3211987 0.64890832 -0.1969225 0
-2.2391195 0.64381695 -0.19647492 0
-2.1195123 0.65328962 -0.195389 0
-2.0357599 0.65270346 -0.19470663 0
-1.951 0.64999998 -0.19400001 0
-1.6215626 0.68604976 -0.18963245 0
-1.5420001 0.64999998 -0.189 0
1.5940001 0.6735 -0.14750001 0
1.6807364 0.68828613 -0.14679894 0
1.7560717 0.64444757 -0.14658122 0
1.8682604 0.64516187 -0.14530966 0
1.9575632 0.62405115 -0.1440092 0
2.0417802 0.65080923 -0.14373043 0
2.1559381 0.62876129 -0.1424679 0
2.2407129 0.65386003 -0.14200482 0
2.3474057 0.6290254 -0.1373952 0
2.4366739 0.64708239 -0.13947821 0
2.5650001 0.67799997 -0.132 0
4.494 0.634 -0.12 0
4.5820956 0.64313668 -0.11481126 0
4.6701913 0.65227336 -0.10962252 0
4.7582874 0.66141003 -0.10443379 0
-2.2576492 0.75733805 -0.19542713 0
-2.1698489 0.72663212 -0.19501571 0
-2.0885341 0.72564185 -0.19446176 0
-1.9640586 0.78766525 -0.19345993 0
-1.8766251 0.77609962 -0.19226491 0
-1.7409065 0.74012446 -0.19058114 0
-1.5457736 0.74268007 -0.18732584 0
-1.352919 0.77303886 -0.18420592 0
-1.222 0.73500001 -0.183 0
1.553 0.76700002 -0.148 0
1.6717842 0.73130327 -0.14759563 0
1.7553471 0.75739288 -0.14759637 0
1.8460848 0.73844349 -0.14651299 0
1.9397177 0.74777514 -0.1459263 0
2.0281196 0.75549531 -0.14539674 0
2.1433942 0.73083854 -0.14445607 0
2.244668 0.7741766 -0.14416122 0
2.3571091 0.74065447 -0.14225493 0
2.4189999 0.73900002 -0.141 0
-2.2019999 0.88700002 -0.19499999 0
-2.141705 0.86182845 -0.19460973 0
-2.0272462 0.84181464 -0.19335729 0
-1.9220488 0.85013199 -0.19181363 0
-1.8260946 0.8587203 -0.19030333 0
-1.7396419 0.84108043 -0.18895498 0
-1.6620946 0.80172026 -0.18830332 0
-1.5461173 0.8881036 -0.18621579 0
-1.468838 0.84207773 -0.18541184 0
-1.3568513 0.86480761 -0.18443497 0
-1.2592543 0.84452999 -0.18277173 0
-1.164 0.82099998 -0.18099999 0
1.5394006 0.8689658 -0.14880352 0
1.6332324 0.8084259 -0.1473209 0
1.7405405 0.85903239 -0.1479011 0
1.8426282 0.84517467 -0.14779268 0
1.9543002 0.86574239 -0.14612098 0
2.0659804 0.83508736 -0.1457683 0
2.1738017 0.8421436 -0.14514568 0
2.2771673 0.84820974 -0.14421226 0
2.3826447 0.85402811 -0.14323092 0
2.438482 0.8306163 -0.14366843 0
-2.1387131 0.96101981 -0.19328666 0
-2.0638745 0.94563818 -0.19246125 0
-1.9729266 0.93109536 -0.19141997 0
-1.8565935 0.95620036 -0.18986562 0
-1.7263379 0.9675777 -0.18841183 0
-1.6233966 0.93412954 -0.18701974 0
-1.5067027 0.96361518 -0.18586993 0
-1.431777 0.91421139 -0.18515244 0
-1.3454576 0.95264053 -0.18306494 0
-1.1606864 0.9975214 -0.18099999 0
-1.074 0.97000003 -0.1805 0
1.4445 0.96350002 -0.14950001 0
1.5560538 0.96299893 -0.14987029 0
1.6654911 0.95152402 -0.14792383 0
1.7462144 0.94773942 -0.14875558 0
1.8536696 0.946769 -0.14782101 0
1.9621226 0.96613002 -0.14669798 0
2.0681984 0.93771106 -0.14565045 0
2.163929 0.93812197 -0.14462841 0
2.2456455 0.97426778 -0.14403482 0
2.3401749 0.93738806 -0.14479721 0
2.4233413 0.93661487 -0.14401655 0
4.4485989 0.94821036 -0.12194671 0
4.5823965 0.96984142 -0.11578687 0
4.6715951 0.98426217 -0.11168031 0
4.7607932 0.99868292 -0.10757374 0
-2.102 1.025 -0.192 0
-1.9513514 1.0678002 -0.19041887 0
-1.8700677 1.0512037 -0.18968874 0
-1.7644521 1.0456617 -0.18816051 0
-1.671277 1.0432115 -0.18715245 0
-1.5542717 1.04865 -0.18585865 0
-1.454332 1.0316249 -0.18430391 0
-1.332 1.0695 -0.183 0
-1.2253727 1.0520427 -0.18099999 0
-1.113896 1.0545633 -0.18000001 0
-1.0089999 1.053 -0.17900001 0
1.0482253 1.0419024 -0.15500346 0
1.386 1.0470001 -0.15000001 0
1.4809999 1.069 -0.152 0
1.5449401 1.0585262 -0.14956035 0
1.6435694 1.0496736 -0.15014644 0
1.7290112 1.041983 -0.14926267 0
1.820449 1.0583886 -0.14773846 0
1.9240611 1.0505329 -0.14657898 0
2.0294809 1.0398068 -0.14576866 0
2.139957 1.0581224 -0.14474061 0
2.2519858 1.0643723 -0.14587829 0
2.3581221 1.0476124 -0.14218262 0
2.428 1.0445 -0.14199999 0
4.8499918 1.0131036 -0.10346718 0
-2.018934 1.1271334 -0.19096394 0
-1.939155 1.1534008 -0.19000456 0
-1.8343835 1.1383137 -0.18873565 0
-1.7314798 1.1118267 -0.18802238 0
-1.672081 1.1895936 -0.18678185 0
-1.599498 1.1369374 -0.18595588 0
-1.4452764 1.1527559 -0.18414564 0
-1.351843 1.1522393 -0.18276912 0
-1.2692491 1.1460847 -0.18099999 0
-1.1515222 1.1430752 -0.17950001 0
-1.0421848 1.1404598 -0.178 0
-0.93599999 1.1305 -0.17649999 0
0.81900001 1.161 -0.15800001 0
0.977 1.141 -0.15700001 0
1.0442448 1.1617186 -0.15577745 0
1.1314714 1.1412597 -0.1535047 0
1.2050275 1.1571209 -0.15203117 0
1.327 1.131 -0.15000001 0
1.4479176 1.1517884 -0.15064101 0
1.5535241 1.1486768 -0.15028313 0
1.6409562 1.1535063 -0.1500399 0
1.7513357 1.1538197 -0.14986545 0
1.8685822 1.1500393 -0.14857771 0
1.9749041 1.1487613 -0.14686103 0
2.0803003 1.1359568 -0.1450246 0
2.1842866 1.1318989 -0.14503552 0
2.2669754 1.1611991 -0.14343475 0
2.3721745 1.1627241 -0.1433695 0
-1.9525 1.225 -0.19 0
-1.8492889 1.2527702 -0.18894558 0
-1.744664 1.2422498 -0.18760784 0
-1.6081145 1.2637731 -0.18596341 0
-1.5249838 1.2528706 -0.18368137 0
-1.4557682 1.2533431 -0.18258655 0
-1.3529394 1.2525445 -0.18158755 0
-1.2681072 1.2513496 -0.18123469 0
-1.1575549 1.2643793 -0.178 0
-1.0454987 1.2601001 -0.17649999 0
-0.9411248 1.253042 -0.176 0
-0.84350002 1.2444999 -0.176 0
0.75400001 1.2509999 -0.16 0
0.84377837 1.2573457 -0.15816019 0
0.91272831 1.2895184 -0.15677212 0
1.0793884 1.2587687 -0.15612113 0
1.1648865 1.2306578 -0.15298295 0
1.2384259 1.246457 -0.15151039 0
1.3610134 1.2184982 -0.15089293 0
1.4436288 1.262053 -0.14791991 0
1.5514826 1.2507452 -0.14973211 0
1.6608753 1.2430671 -0.14606263 0
1.7468485 1.2578186 -0.14488816 0
1.8400066 1.2595119 -0.14938359 0
1.9379056 1.2592092 -0.14941466 0
2.0343018 1.2262212 -0.14728582 0
2.14592 1.2537605 -0.14564261 0
2.2238166 1.2460757 -0.14369485 0
2.3238297 1.2690462 -0.14259651 0
2.411 1.214 -0.14399999 0
-1.867 1.331 -0.189 0
-1.7411718 1.3701596 -0.18744512 0
-1.6611257 1.3383429 -0.18637012 0
-1.5687525 1.3262427 -0.18515289 0
-1.4499915 1.3444568 -0.18113783 0
-1.3472761 1.342332 -0.1815619 0
-1.2395272 1.364379 -0.18117969 0
-1.1656584 1.3432101 -0.17900001 0
-1.0717649 1.3555778 -0.176 0
-0.96698946 1.3517832 -0.176 0
-0.86664283 1.3459454 -0.1756981 0
-0.71499997 1.386 -0.175 0
0.685 1.345 -0.161 0
0.77053392 1.3454142 -0.15914665 0
0.85679507 1.349955 -0.15928955 0
0.93717432 1.3595961 -0.15699914 0
1.1561798 1.3470953 -0.15546198 0
1.2819924 1.3240895 -0.15070334 0
1.3474728 1.3650646 -0.1466372 0
1.4725071 1.351827 -0.13810487 0
1.5691109 1.3418453 -0.14737493 0
1.6529555 1.3307849 -0.14363809 0
1.7514317 1.3412899 -0.13824236 0
1.8533876 1.3500692 -0.14178546 0
1.9447575 1.3649448 -0.14910641 0
2.0507314 1.3520526 -0.14877205 0
2.1468725 1.3737336 -0.14791547 0
2.2568295 1.3518889 -0.14594595 0
2.302 1.368 -0.148 0
-1.7404324 1.4375159 -0.18691078 0
-1.6502752 1.4304008 -0.18558085 0
-1.5336832 1.4617209 -0.18376249 0
-1.4415643 1.4405644 -0.18260702 0
-1.3691128 1.4490695 -0.17984636 0
-1.2587267 1.4598169 -0.17901962 0
-1.1612478 1.4467186 -0.17712311 0
-1.0419816 1.4551204 -0.176 0
-0.93660712 1.4523635 -0.17524526 0
-0.73791379 1.4725136 -0.17281167 0
-0.6566667 1.4386667 -0.17433333 0
-0.59200001 1.48 -0.17200001 0
0.58200002 1.477 -0.164 0
0.65094888 1.4428613 -0.16179331 0
0.74078554 1.4476056 -0.16000383 0
0.84478515 1.4473271 -0.15864651 0
0.95415723 1.452275 -0.15618521 0
1.0272284 1.4465183 -0.15527213 0
1.21 1.409 -0.155 0
1.3399698 1.413358 -0.14481334 0
1.4271063 1.4679533 -0.13846868 0
1.5387607 1.4122406 -0.13115731 0
1.6449409 1.4316651 -0.14054945 0
1.7422713 1.4396054 -0.14222506 0
1.8420453 1.4469461 -0.13710991 0
1.9454961 1.4530636 -0.13031113 0
2.050776 1.4566767 -0.137383 0
2.1477845 1.4646868 -0.14916848 0
2.2288554 1.4501452 -0.14857873 0
-1.618 1.5420001 -0.184 0
-1.5516174 1.5506175 -0.18293358 0
-1.4061087 1.5455163 -0.1817188 0
-1.3155 1.5415 -0.177 0
-1.268315 1.555974 -0.17758402 0
-1.1549233 1.5570756 -0.17756109 0
-1.0427856 1.5693908 -0.1758962 0
-0.95499998 1.574 -0.176 0
-0.828008 1.5998459 -0.16572754 0
-0.75970012 1.5582527 -0.17241557 0
-0.65724295 1.5320452 -0.17366926 0
-0.55033118 1.5593725 -0.1735 0
0.495 1.573 -0.16500001 0
0.55420214 1.5427289 -0.16410984 0
0.63861203 1.570632 -0.16272318 0
0.74112219 1.5402187 -0.16072696 0
0.8921355 1.5476569 -0.15658662 0
0.94368613 1.5543104 -0.15700629 0
1.017 1.506 -0.155 0
1.39 1.518 -0.15099999 0
1.4579842 1.5640287 -0.14408395 0
1.5318912 1.5602587 -0.12754883 0
1.6712677 1.5330677 -0.1172622 0
1.7540506 1.5446801 -0.13499258 0
1.854156 1.5501684 -0.13712755 0
1.9526715 1.5512097 -0.13066015 0
2.0591917 1.5645459 -0.14713535 0
2.1603465 1.527022 -0.14802572 0
2.3283329 1.545495 -0.14906555 0
-1.4773179 1.6229477 -0.18194924 0
-1.3640201 1.6488972 -0.1806621 0
-1.2205307 1.6455127 -0.17612217 0
-1.1419295 1.6465842 -0.17549433 0
-1.0548383 1.6518204 -0.17594658 0
-0.96105212 1.6594235 -0.17352669 0
-0.8742258 1.6663758 -0.1708789 0
-0.75855684 1.656397 -0.17382224 0
-0.66066313 1.6447501 -0.17292869 0
-0.55964869 1.6576539 -0.17328505 0
-0.4524433 1.6526129 -0.17259797 0
-0.36399999 1.6670001 -0.171 0
0.396 1.668 -0.167 0
0.45573831 1.6523836 -0.16565043 0
0.53147119 1.6502177 -0.16444808 0
0.64975834 1.6439962 -0.16216049 0
0.75776082 1.6590208 -0.16066967 0
0.84338069 1.6363075 -0.15817177 0
0.98199999 1.6210001 -0.15800001 0
1.0011916 1.6387589 -0.1553874 0
1.5553141 1.6397438 -0.13393545 0
1.6548368 1.6903882 -0.11482324 0
1.8274945 1.6364331 -0.12582697 0
1.9452385 1.664547 -0.13851856 0
2.0437725 1.6600046 -0.12245794 0
-1.4119999 1.706 -0.18099999 0
-1.1439923 1.7346164 -0.17527901 0
-1.0741484 1.751853 -0.1740478 0
-0.9401297 1.7473335 -0.16601299 0
-0.85198945 1.7570347 -0.17411961 0
-0.74758309 1.7581087 -0.17340623 0
-0.62774897 1.7546827 -0.17283762 0
-0.55136085 1.7537798 -0.17234474 0
-0.44346848 1.7570829 -0.16004284 0
-0.33694005 1.7516102 -0.16513127 0
-0.273 1.7390001 -0.17050001 0
0.26800001 1.7635 -0.167 0
0.34924316 1.7442477 -0.16681772 0
0.43030438 1.7593179 -0.16567062 0
0.53450334 1.7331947 -0.16398689 0
0.64741331 1.7594718 -0.16228358 0
0.77249998 1.7474999 -0.1595 0
0.8352918 1.763871 -0.16038282 0
1.0734792 1.7523973 -0.15446848 0
1.2555 1.7535 -0.152 0
1.3408396 1.7807519 -0.15179411 0
1.576087 1.7170249 -0.14962362 0
1.6440051 1.7613097 -0.13800576 0
1.7163095 1.7554529 -0.10846044 0
2.0503333 1.7582858 -0.11443956 0
-1.2339542 1.8916992 -0.17867403 0
-1.1859657 1.8202744 -0.17825551 0
-1.0602584 1.8246591 -0.17301497 0
-0.92717427 1.8624063 -0.17414598 0
-0.66008258 1.8484552 -0.17255841 0
-0.53766257 1.8387982 -0.1709924 0
-0.4278909 1.8676426 -0.13776177 0
-0.34984016 1.8352938 -0.15535003 0
-0.26766619 1.8471818 -0.15430918 0
-0.16446871 1.8469534 -0.17081432 0
0.22699071 1.8403867 -0.16688526 0
0.3500219 1.8513069 -0.16617146 0
0.45897156 1.8310039 -0.16485965 0
0.54629612 1.8371292 -0.16281003 0
0.65715718 1.8530257 -0.16199228 0
0.72250795 1.8516879 -0.16150872 0
0.87205571 1.8451612 -0.15984376 0
1.1457666 1.8660357 -0.15354958 0
1.2730585 1.8692226 -0.15145941 0
1.3946793 1.8525039 -0.15158822 0
1.7409177 1.836067 -0.12342927 0
-1.2819427 1.963124 -0.17909253 0
-0.96595341 1.9395405 -0.17407645 0
-0.56347001 1.9335055 -0.17213464 0
-0.43699998 1.9095 -0.131 0
-0.33761021 1.9200405 -0.15183377 0
-0.28099999 1.942 -0.139 0
-0.15738243 1.9475561 -0.16960286 0
0.063500002 1.9465001 -0.16850001 0
0.25298145 1.9367737 -0.16643719 0
0.36005473 1.9468514 -0.16543853 0
0.44450521 1.9403381 -0.16463885 0
0.55400229 1.9362437 -0.16275005 0
0.63948619 1.9739233 -0.16186912 0
0.76934391 1.9765837 -0.1606783 0
0.90881968 1.9264516 -0.15930469 0
1.1589792 1.9393973 -0.15396848 0
1.322117 1.9404453 -0.15091881 0
1.448519 1.9242558 -0.15138234 0
1.5023587 1.9960077 -0.15117645 0
1.7621739 1.91605 -0.14824723 0
1.8323507 1.9510603 -0.12661839 0
-1.503 2.0810001 -0.18000001 0
-1.3299313 2.0345488 -0.17951104 0
-1.0347135 2.0553679 -0.16058125 0
-0.18073948 2.0448599 -0.16877627 0
0.065953411 2.0368309 -0.16782632 0
0.229 2.0039999 -0.167 0
0.33675906 2.0295408 -0.16517818 0
0.44558236 2.0402434 -0.16416556 0
0.53882074 2.0576975 -0.16248359 0
0.66612214 2.0589767 -0.16116013 0
0.72000003 2.0409999 -0.161 0
0.80056787 2.0598478 -0.16012467 0
0.96396554 2.0483871 -0.15849611 0
1.1668336 2.0057993 -0.15424187 0
1.2473863 2.0618212 -0.15250663 0
1.3711755 2.011668 -0.15037823 0
1.420234 2.0828907 -0.14983764 0
1.5561984 2.0677598 -0.15097056 0
1.8862319 2.0487332 -0.14732964 0
-1.5551896 2.152189 -0.18058641 0
-1.4342958 2.1915822 -0.18000001 0
-1.3642786 2.12832 -0.17918591 0
-1.1005815 2.1694436 -0.17443597 0
-1.0612185 2.1607704 -0.15539391 0
-0.898 2.1670001 -0.17399999 0
0.060523491 2.1491313 -0.16685712 0
0.34348005 2.1476336 -0.16502988 0
0.44772616 2.1458774 -0.16394129 0
0.54223645 2.1638923 -0.16215186 0
0.63467938 2.1534119 -0.16019939 0
0.73207849 2.1249185 -0.16075906 0
0.86489594 2.1695559 -0.15878554 0
1.0350556 2.1521611 -0.15634376 0
1.252501 2.1433976 -0.15272564 0
1.3385332 2.1690714 -0.15109916 0
1.4692925 2.1541133 -0.14929706 0
1.610038 2.1395116 -0.15076467 0
1.9482608 2.1150749 -0.14687085 0
2.0102899 2.1814165 -0.14641206 0
-1.6334739 2.2589722 -0.18146601 0
-1.4447689 2.2627091 -0.17900001 0
-1.1333346 2.2402496 -0.1502437 0
-1.0613167 2.2537313 -0.17574218 0
-0.93213964 2.2508318 -0.17390516 0
0.071486369 2.2626715 -0.16618998 0
0.35118246 2.2567306 -0.16477001 0
0.46558923 2.2335663 -0.16341195 0
0.56517053 2.2507401 -0.16143982 0
0.65271491 2.2800097 -0.15944594 0
0.74457818 2.2294431 -0.15986209 0
0.85183406 2.242842 -0.15878822 0
0.93332207 2.2755718 -0.15735309 0
1.0699179 2.2529442 -0.15630062 0
1.132593 2.2903275 -0.15310799 0
1.2861673 2.2545984 -0.15248376 0
1.3624465 2.2629132 -0.15084797 0
1.5428803 2.2609475 -0.14848617 0
1.6638777 2.2112637 -0.15055878 0
1.7177175 2.2830155 -0.1503529 0
2.066 2.2409999 -0.146 0
2.371773 2.2861712 -0.10549704 0
-1.7117581 2.3657556 -0.1823456 0
-1.5308872 2.3387463 -0.18000001 0
-1.4544196 2.3338804 -0.178 0
-1.2056621 2.3883243 -0.15007271 0
-1.1489118 2.3242357 -0.16261379 0
-0.96627927 2.3346636 -0.17381033 0
0.047261387 2.3737829 -0.16511013 0
0.10061816 2.3322225 -0.16592249 0
0.35155118 2.3857613 -0.16453755 0
0.43044418 2.3444445 -0.16361889 0
0.53605819 2.3535578 -0.16158898 0
0.642407 2.3455656 -0.15973815 0
0.75944442 2.3491104 -0.15800549 0
0.87195349 2.3389122 -0.15773579 0
0.94780207 2.3719063 -0.15714407 0
1.1384126 2.3599432 -0.15409026 0
1.3345517 2.3354526 -0.15125349 0
1.4392132 2.3284657 -0.14576393 0
1.587 2.325 -0.148 0
1.7715572 2.3547673 -0.15014702 0
2.4358487 2.3474476 -0.1186647 0
-1.7639477 2.4369445 -0.182932 0
-1.6274787 2.4859107 -0.18000001 0
-1.5434805 2.4336567 -0.17866667 0
-1.241613 2.4588001 -0.17008342 0
-1.1596088 2.4480596 -0.17509764 0
-1.0004189 2.4184952 -0.1737155 0
0.048513662 2.4641395 -0.16453215 0
0.10427269 2.422528 -0.16515312 0
0.36443895 2.4757016 -0.16417193 0
0.44643024 2.4331808 -0.16327363 0
0.56990719 2.4615722 -0.16050553 0
0.6414333 2.4546497 -0.15973669 0
0.7280826 2.4378834 -0.15730736 0
0.85004437 2.4467273 -0.15667041 0
0.95844007 2.4685035 -0.15687297 0
1.0039661 2.434715 -0.15605924 0
1.1408714 2.4287903 -0.15503709 0
1.214186 2.446655 -0.15121597 0
1.3612068 2.4448097 -0.15001394 0
1.5102788 2.4457939 -0.12458356 0
1.8099999 2.4059999 -0.15000001 0
2.4999242 2.4087238 -0.13183235 0
2.5639999 2.47 -0.145 0
-1.842232 2.5437279 -0.1838116 0
-1.6757745 2.5594926 -0.18000001 0
-1.5968393 2.5547612 -0.178 0
-1.2628613 2.5528853 -0.17423697 0
-1.0516284 2.5442429 -0.17357326 0
0.049765937 2.554496 -0.16395418 0
0.10792723 2.5128336 -0.16438374 0
0.37732676 2.5656419 -0.16380633 0
0.46241629 2.5219169 -0.16292834 0
0.53704154 2.584321 -0.16129452 0
0.64540178 2.5547943 -0.15895283 0
0.75390542 2.524806 -0.15647078 0
0.82700253 2.5585325 -0.1553393 0
0.95128024 2.5406613 -0.15571743 0
1.0569491 2.5540724 -0.15508884 0
1.1783072 2.5061855 -0.15405563 0
1.2353626 2.5541997 -0.15167207 0
1.4243617 2.5556669 -0.1477744 0
1.5529182 2.5161905 -0.11187535 0
-1.9342582 2.6692555 -0.1848456 0
-1.7240703 2.6330748 -0.18000001 0
-1.6443125 2.6283879 -0.178 0
-1.2579008 2.6423876 -0.17445311 0
-1.1028378 2.6699905 -0.17343099 0
0.051018216 2.6448526 -0.16337621 0
0.11340904 2.6482921 -0.16322967 0
0.39021456 2.6555822 -0.16344072 0
0.44925308 2.625144 -0.1629888 0
0.55490458 2.6720097 -0.16076517 0
0.66336465 2.6506951 -0.15816642 0
0.75926244 2.6515083 -0.15620494 0
0.85329592 2.6388893 -0.15426254 0
0.93267781 2.6714742 -0.15347683 0
1.0214001 2.6281724 -0.15545495 0
1.1099322 2.67343 -0.15411846 0
1.2744788 2.6319792 -0.15070833 0
1.3365755 2.6811461 -0.14837795 0
1.4875169 2.6665244 -0.14553487 0
-1.780683 2.7193284 -0.18000001 0
-1.693393 2.7045074 -0.178 0
-1.327 2.779 -0.17399999 0
-1.2972176 2.7201188 -0.17419529 0
-1.1369774 2.7538223 -0.17333616 0
0.052270491 2.7352092 -0.16279824 0
0.11889085 2.7837503 -0.16207561 0
0.43369579 2.7299149 -0.16288829 0
0.54142344 2.7727795 -0.16137087 0
0.60555595 2.7533088 -0.15905038 0
0.98900002 2.7279999 -0.153 0
1.0744134 2.7626162 -0.15426095 0
1.1452543 2.7530015 -0.15347153 0
1.2906142 2.7383711 -0.15111125 0
1.3866861 2.7771549 -0.14721598 0
1.473 2.7850001 -0.14399999 0
1.5492067 2.7748098 -0.14334728 0
-1.1711171 2.8376541 -0.17324133 0
0.053761385 2.842783 -0.16211012 0
0.12254539 2.8740559 -0.16130623 0
0.46322569 2.8438561 -0.16241685 0
0.55699998 2.8540001 -0.161 0
1.171 2.8110001 -0.153 0
1.3305249 2.8208833 -0.15006489 0
1.5154009 2.8593707 -0.13194354 0
1.6031656 2.8649633 -0.13081639 0
-1.2052567 2.9214859 -0.1731465 0
0.124 2.9100001 -0.161 0
0.42887792 2.9254031 -0.16234389 0
0.50099999 2.9319999 -0.162 0
1.5578016 2.9337416 -0.11988708 0
1.6473312 2.9379265 -0.11863276 0
-1.2486982 3.0281589 -0.17302583 0
0.44100001 3.01 -0.162 0
1.6458497 3.009501 -0.10713988 0
0.59500003 3.223 -0.154 0
0.62378699 3.3536365 -0.14148393 0
0.65257394 3.484273 -0.12896785 0
0.67176527 3.5713642 -0.1206238 0
0.69095659 3.6584551 -0.11227976 0
0.71014786 3.7455461 -0.1039357 0
-0.034000002 4.592 -0.146 0
-0.037752777 4.6817622 -0.14427575 0
-0.041505557 4.7715249 -0.1425515 0
-0.045258332 4.8612871 -0.14082725 0
-0.049011111 4.9510498 -0.139103 0
-0.052763887 5.040812 -0.13737875 0
-0.056516666 5.1305742 -0.13565449 0
-0.060269445 5.2203369 -0.13393025 0
-0.065898612 5.3549805 -0.13134387 0
-0.071000002 5.4770002 -0.12899999 0
-2.503 6.1669998 -0.16599999 0
-1.974 6.1370001 -0.161 0
-2.5264926 6.2428355 -0.16558784 0
-2.0178928 6.2553921 -0.15957645 0
-2.5617318 6.3565893 -0.16496962 0
-2.0617852 6.3737836 -0.15815291 0
-2.5969706 6.4703436 -0.1643514 0
-2.091047 6.4527111 -0.15720388 0
-2.6170001 6.5349998 -0.164 0
-2.1203089 6.5316391 -0.15625484 0
-2.1542854 6.6232834 -0.15515292 0
-3.056 -2.503 -0.011 0
-3.0739999 -2.484 -0.0060000001 0
-2.862 -2.4189999 -0.0060000001 0
-3.05 -2.3529999 -0.0060000001 0
-3.2639999 -2.2909999 -0.0060000001 0
-3.112 -2.2909999 -0.0060000001 0
-3.152 -2.109 -0.0049999999 0
-3.3469999 -1.927 -0.0060000001 0
-3.2679999 -1.98 -0.0060000001 0
-3.8 -1.627 -0.041999999 0
-3.7181921 -1.5905011 -0.030479115 0
-3.636384 -1.554002 -0.018958228 0
-3.5545759 -1.5175031 -0.0074373409 0
4.8202004 0.33191413 -0.096315302 0
4.9498005 0.33887118 -0.086972952 0
5.079401 0.34582826 -0.077630602 0
5.165801 0.35046631 -0.071402371 0
5.2129998 0.35299999 -0.068000004 0
4.8800163 0.44854209 -0.095101938 0
4.96802 0.45492759 -0.089877419 0
5.0560241 0.4613131 -0.084652901 0
5.1440282 0.46769863 -0.07942839 0
5.259016 0.47604206 -0.072601937 0
4.8463831 0.67054677 -0.099245049 0
4.9344788 0.67968345 -0.094056316 0
5.0225744 0.68882012 -0.088867575 0
5.1106701 0.6979568 -0.083678842 0
5.1987658 0.70709348 -0.078490108 0
5.2750001 0.71499997 -0.074000001 0
4.9391899 1.0275244 -0.099360615 0
5.0283885 1.0419451 -0.095254049 0
5.1175871 1.0563658 -0.091147482 0
5.2513847 1.0779969 -0.08498764 0
5.3379998 1.092 -0.081 0
2.0615959 1.5481399 -0.097835675 0
2.1518111 1.5825214 -0.087673388 0
2.1209412 1.6224957 -0.092210248 0
-0.90700001 1.791 -0.060000002 0
1.8700284 1.7143085 -0.096419513 0
1.9362819 1.7747221 -0.089471951 0
-0.92797971 1.8329594 -0.066327207 0
1.8392552 1.8855823 -0.09573485 0
1.972 1.855 -0.050499994 0
-1.0073175 1.9916351 -0.090254493 0
-0.96764863 1.9122972 -0.07829085 0
1.885 1.934 -0.090999998 0
1.9873191 1.9185139 -0.026491135 0
2.0513947 1.9797901 -0.039658792 0
2.1154704 2.0410664 -0.052826442 0
2.1795461 2.1023426 -0.065994091 0
2.2436216 2.1636188 -0.079161741 0
2.3076973 2.224895 -0.09232939 0
1.5955577 2.5865874 -0.099167123 0
1.6381971 2.6569843 -0.086458907 0
1.6799999 2.7260001 -0.074000001 0
1.6426033 3.0824831 -0.095774159 0
1.7356625 3.083853 -0.094265521 0
1.685004 3.1568539 -0.083717704 0
1.7798281 3.1568162 -0.082081906 0
1.7274048 3.2312245 -0.071661241 0
1.8239937 3.2297797 -0.069898285 0
1.7779028 3.3197978 -0.057302389 0
1.8730797 3.3108716 -0.056357335 0
0.72933918 3.8326371 -0.095591664 0
0.74853051 3.9197283 -0.08724761 0
0.77336085 4.0324097 -0.076451778 0
1.826 -5.257 0.046999998 0
1.7961922 -5.1738691 0.057708733 0
1.7514805 -5.0491734 0.073771834 0
1.7067688 -4.9244771 0.089834943 0
2.2030001 -4.8429999 0.029999999 0
2.1659923 -4.7658124 0.044274431 0
2.0919766 -4.6114368 0.072823294 0
2.1289845 -4.6886244 0.058548864 0
2.0549688 -4.5342493 0.087097727 0
-3.0045102 -2.4284081 0.0032652933 0
-2.9870574 -2.4476371 0.0032063397 0
-2.9265676 -2.3825455 0.014971633 0
-2.8573515 -2.3270679 0.02670745 0
-2.7673922 -2.3362741 0.015970558 0
-3.1906698 -2.239197 0.0023553139 0
-3.0394235 -2.2409029 0.0080228793 0
-2.9452658 -2.2726464 0.0087657953 0
-2.7535272 -2.2438519 0.044311173 0
-2.6727843 -2.2535481 0.037941113 0
-3.1173396 -2.1873941 0.010710628 0
-3.0440094 -2.135591 0.019065943 0
-2.9668472 -2.1908059 0.022045758 0
-2.8674011 -2.166501 0.029800113 0
-2.770709 -2.1387243 0.033375453 0
-2.6363728 -2.1732233 0.058805984 0
-2.5600214 -2.1293533 0.077839792 0
-3.0416038 -2.0501554 0.01677008 0
-2.9688435 -2.0571439 0.035164274 0
-2.8595219 -2.0612986 0.042934045 0
-2.7250021 -2.0628352 0.05366686 0
-2.6310635 -2.0315864 0.053063188 0
-2.5528274 -2.0670619 0.063489698 0
-2.4617844 -2.0690482 0.086941116 0
-3.1938121 -1.9333813 0.0038206996 0
-2.9358113 -1.9614658 0.025310241 0
-2.8529518 -1.9512422 0.051020507 0
-2.7506886 -1.9283793 0.052487202 0
-2.6402531 -1.9653695 0.085148722 0
-2.5612407 -1.9780173 0.062907055 0
-2.4513369 -1.9547075 0.077379525 0
-3.2716584 -1.8815651 0.0035470799 0
-3.1579709 -1.8614464 0.01336778 0
-3.0454369 -1.8401438 0.023462098 0
-2.7561131 -1.8530136 0.060922246 0
-2.656142 -1.8446163 0.074858949 0
-2.4400001 -1.885 0.079999998 0
-3.1209757 -1.7906953 0.022641238 0
-3.0456343 -1.7452604 0.032188319 0
-2.9712491 -1.793525 0.033282798 0
-2.8599677 -1.7235969 0.048013844 0
-2.6475596 -1.7647536 0.065723889 0
-2.5460486 -1.7393866 0.077595115 0
-2.9702928 -1.6998255 0.0417354 0
-2.8572807 -1.6316731 0.056056015 0
-2.7486863 -1.6536688 0.062744893 0
-2.6744986 -1.6070501 0.072565593 0
-2.7442687 -1.5635208 0.070376642 0
-2.6665001 -1.559 0.077 0
-3.631 -1.469 0.0060000001 0
-3.5519371 -1.4343023 0.014475758 0
-3.4727681 -1.4810042 0.004083544 0
-3.3500562 -1.4262558 0.021364873 0
-3.4659371 -1.3703023 0.017475758 0
-3.3632374 -1.3367224 0.031500157 0
-3.227344 -1.3715074 0.038646203 0
-3.1455362 -1.3350085 0.050167087 0
-3.3033054 -1.2891017 0.034340315 0
-3.2305717 -1.2793322 0.046944633 0
-3.1521163 -1.2490089 0.05676759 0
-3.0612626 -1.2357202 0.066217266 0
-2.9684601 -1.2560053 0.07510443 0
-3.006 -1.1900001 0.077 0
1.6769608 -4.8413467 0.10054368 0
1.647153 -4.7582159 0.11125241 0
1.6173452 -4.6750851 0.12196115 0
1.5670891 -4.5349259 0.14001618 0
2.017961 -4.4570613 0.10137217 0
1.9624493 -4.34128 0.12278381 0
1.923 -4.2589998 0.138 0
-2.5044596 -2.0600965 0.10265073 0
-2.4355171 -2.0047336 0.11685707 0
-2.3959999 -1.973 0.125 0
-2.5313885 -1.8902239 0.10618304 0
-2.4464061 -1.8315635 0.12260295 0
-2.6170471 -1.782999 0.10744379 0
-2.5290275 -1.7207494 0.12367555 0
