# .PCD v0.7 - Point Cloud Data file format
VERSION 0.7
FIELDS x y z intensity
SIZE 4 4 4 4
TYPE F F F F
COUNT 1 1 1 1
WIDTH 1069
HEIGHT 1
VIEWPOINT 0 0 0 1 0 0 0
POINTS 1069
DATA ascii
-0.056000002 -4.302 -0.227 0
0.98799998 -4.355 -0.242 0
-0.054676078 -4.2299933 -0.22545542 0
0.96502626 -4.2449803 -0.23865208 0
-0.053008467 -4.1392937 -0.22350988 0
0.47299999 -4.1020002 -0.229 0
0.74813044 -4.1874347 -0.233834 0
0.93723261 -4.1118779 -0.23460174 0
-0.95999998 -4.0209999 -0.226 0
-0.86979312 -4.0506816 -0.21051371 0
-0.051340863 -4.0485945 -0.22156434 0
0.44291094 -4.007668 -0.22684155 0
0.72696197 -4.0519567 -0.22979274 0
0.91870356 -4.0231433 -0.23190153 0
-0.94363075 -3.946563 -0.22436307 0
-0.85000002 -3.9630001 -0.223 0
-0.65259641 -3.9180951 -0.22065282 0
-0.234 -3.941 -0.22 0
-0.049673252 -3.9578953 -0.2196188 0
0.33447868 -3.9298272 -0.22373231 0
0.43999958 -3.9228392 -0.22429529 0
0.54400003 -3.908 -0.22400001 0
0.70666307 -3.9220436 -0.22591749 0
0.9001745 -3.9344084 -0.2292013 0
-0.92433846 -3.8588338 -0.22243385 0
-0.63802248 -3.8155916 -0.2185477 0
-0.37256968 -3.8708227 -0.2188623 0
-0.22832415 -3.8559694 -0.21817945 0
-0.19297609 -3.8773441 -0.2208086 0
-0.048005644 -3.8671958 -0.21767326 0
0.23589978 -3.8174992 -0.21898496 0
0.32946271 -3.8319478 -0.22115652 0
0.43213272 -3.837676 -0.22182824 0
0.53435642 -3.8374152 -0.22221716 0
0.69313049 -3.8354349 -0.223334 0
0.88164538 -3.8456738 -0.22650109 0
-0.90504616 -3.7711046 -0.22050461 0
-0.62585205 -3.7299929 -0.21678975 0
-0.33817935 -3.7563853 -0.21614376 0
-0.22240862 -3.7673483 -0.21628201 0
-0.14704947 -3.7634311 -0.21705288 0
-0.023636624 -3.7636249 -0.2158726 0
0.22094989 -3.7427495 -0.21674249 0
0.32496804 -3.744241 -0.21884845 0
0.42426586 -3.7525129 -0.21936119 0
0.52220571 -3.7484801 -0.21997081 0
0.67959785 -3.7488263 -0.2207505 0
0.86311632 -3.7569389 -0.22380087 0
-0.88575381 -3.6833754 -0.21857539 0
-0.61368167 -3.6443944 -0.2150318 0
-0.33041888 -3.6492705 -0.21406515 0
-0.2164931 -3.6787271 -0.21438459 0
-0.14787222 -3.6495295 -0.21432298 0
-0.025228174 -3.6904931 -0.21461362 0
-4.5528504e-15 -3.6400001 -0.215 0
0.32047337 -3.6565342 -0.21654037 0
0.41259935 -3.6452332 -0.21592943 0
0.51005501 -3.6595449 -0.21772446 0
0.66606522 -3.6622176 -0.21816699 0
0.84458721 -3.6682043 -0.22110066 0
-0.85681534 -3.5517817 -0.21568154 0
-0.60151124 -3.5587957 -0.21327385 0
-0.35282788 -3.5415289 -0.21254492 0
-0.24959572 -3.5456231 -0.21149939 0
-0.14850256 -3.5689545 -0.21239667 0
-0.04216902 -3.5497484 -0.21086386 0
0.31597868 -3.5688272 -0.2142323 0
0.45498431 -3.5669913 -0.21516617 0
0.65253264 -3.5756087 -0.2155835 0
0.82605815 -3.5794694 -0.21840043 0
-0.82787693 -3.4201877 -0.21278769 0
-0.58934081 -3.4731972 -0.2115159 0
-0.34799999 -3.461 -0.211 0
-0.27996117 -3.4144189 -0.20888026 0
-0.13775098 -3.4345834 -0.20881133 0
-0.039667606 -3.4136994 -0.20794554 0
0.31148401 -3.4811203 -0.21192423 0
0.44380254 -3.4773867 -0.21285757 0
0.639 -3.4890001 -0.213 0
0.78899997 -3.402 -0.213 0
0.80752903 -3.4907348 -0.21570022 0
-0.80858457 -3.3324585 -0.21085846 0
-0.57108521 -3.3447993 -0.20887898 0
-0.27222088 -3.3270643 -0.2071602 0
-0.15116617 -3.3211098 -0.20637159 0
-0.037999999 -3.323 -0.206 0
0.33370754 -3.3606482 -0.20901226 0
0.46752751 -3.3482723 -0.20986223 0
-0.78929228 -3.2447293 -0.20892923 0
-0.26448059 -3.2397094 -0.20544013 0
-0.14895776 -3.2343106 -0.2044487 0
0.29800001 -3.2179999 -0.205 0
0.37631932 -3.2474117 -0.20655626 0
0.44930142 -3.21487 -0.20649271 0
-2.6055937 -3.1751781 -0.23587605 0
-2.5489898 -3.1087971 -0.23296008 0
-0.76999998 -3.1570001 -0.207 0
-0.2567403 -3.1523547 -0.20372008 0
-0.18099999 -3.1470001 -0.20299999 0
0.361 -3.112 -0.20299999 0
0.43715072 -3.1259351 -0.20424636 0
-2.4947917 -3.0452375 -0.23016806 0
-0.249 -3.0650001 -0.20200001 0
0.42500001 -3.0369999 -0.20200001 0
2.1670001 -3.0150001 -0.20100001 0
-2.440594 -2.9816782 -0.22737604 0
-2.3863959 -2.9181187 -0.22458403 0
2.1262586 -2.9586341 -0.20049599 0
-2.3321981 -2.8545594 -0.22179201 0
-3.1170001 -2.7060001 -0.211 0
-2.2780001 -2.7909999 -0.219 0
-3.0505066 -2.649159 -0.210805 0
-2.9479222 -2.5614657 -0.21050417 0
-2.8453376 -2.4737725 -0.21020333 0
-2.776948 -2.4153104 -0.21000278 0
-2.7085583 -2.3568482 -0.20980223 0
-2.6401687 -2.2983861 -0.20960167 0
-2.5717793 -2.2399242 -0.20940112 0
-2.5033896 -2.181462 -0.20920056 0
-2.4349999 -2.1229999 -0.20900001 0
-1.0281378 -4.7521338 -0.11062332 0
-1.0083448 -4.6644521 -0.12310962 0
-0.98855168 -4.5767708 -0.13559592 0
-0.95886207 -4.4452486 -0.15432537 0
-0.9291724 -4.3137259 -0.17305481 0
-0.9093793 -4.2260447 -0.18554111 0
-0.88958621 -4.1383629 -0.1980274 0
2.0870485 -3.0535026 -0.19887429 0
2.0265307 -2.9653375 -0.19810987 0
1.9506812 -2.8548367 -0.19715177 0
2.0478601 -2.8501694 -0.1995261 0
2.146559 -2.8451192 -0.1963658 0
1.8748317 -2.7443359 -0.19619367 0
1.9694614 -2.7417045 -0.19855623 0
2.0657713 -2.7385454 -0.19442809 0
2.1667633 -2.7391698 -0.19295983 0
1.8576641 -2.6519542 -0.19657063 0
2.011425 -2.666852 -0.19312458 0
2.1093574 -2.6665242 -0.19192858 0
1.495 -2.553 -0.19499999 0
1.7484158 -2.5601678 -0.19459683 0
1.8387972 -2.5609298 -0.19693975 0
1.9529428 -2.548506 -0.19076169 0
2.0541875 -2.5967085 -0.1909375 0
2.1949897 -2.5224164 -0.19049881 0
2.2260001 -2.5580001 -0.191 0
1.4360243 -2.4520788 -0.17576192 0
1.6725663 -2.4496672 -0.19363874 0
1.7603986 -2.4524651 -0.19596988 0
1.8483857 -2.4517727 -0.18921405 0
1.9438483 -2.4570775 -0.18895537 0
2.1369908 -2.4558644 -0.18956147 0
1.3770485 -2.3511579 -0.15652385 0
1.652 -2.3600001 -0.19400001 0
1.7668661 -2.344233 -0.18725878 0
1.8610938 -2.3523543 -0.18746875 0
2.0499928 -2.3560362 -0.18815544 0
2.1305633 -2.3361926 -0.182 0
-1.4251027 -2.2495046 -0.18990494 0
1.3228657 -2.2584386 -0.13884924 0
1.6853465 -2.2366931 -0.18530351 0
1.7783393 -2.2476311 -0.18598214 0
1.9629948 -2.2562082 -0.18674941 0
2.0474386 -2.2453208 -0.182 0
2.1580544 -2.2582793 -0.18099999 0
-1.3760546 -2.1677577 -0.18870865 0
1.2627442 -2.1156089 -0.12304304 0
1.3056802 -2.1862612 -0.1083038 0
1.6495 -2.1364999 -0.184 0
1.7231697 -2.1778154 -0.18499108 0
1.8469974 -2.1231041 -0.1848747 0
1.9422699 -2.1637018 -0.18327068 0
2.0508316 -2.1466687 -0.18099999 0
-1.330904 -2.0925066 -0.18760741 0
-1.2857534 -2.0172555 -0.18650618 0
1.2198081 -2.0449567 -0.13778228 0
1.7889986 -2.0565519 -0.18393736 0
1.8743753 -2.0561283 -0.182 0
1.9625543 -2.0547791 -0.18099999 0
-1.2406027 -1.9420044 -0.18540494 0
1.1554041 -1.9389783 -0.15989113 0
1.7449999 -1.96 -0.1825 0
1.8307695 -1.962662 -0.18149999 0
1.903703 -1.9935194 -0.18099999 0
-1.1507992 -1.8458523 -0.18400341 0
1.091 -1.8329999 -0.182 0
1.786 -1.8710001 -0.18099999 0
-1.1461506 -1.7472512 -0.18243456 0
-1.0614862 -1.7312009 -0.18317664 0
-1.214 -1.6505001 -0.18149999 0
-1.1519068 -1.6485233 -0.18177769 0
-1.0599999 -1.641 -0.18099999 0
-1.2194988 -1.5659603 -0.18033333 0
-1.1341418 -1.5335561 -0.18133332 0
-1.085 -1.595 -0.18099999 0
1.2586148 -1.5625626 -0.17281044 0
-1.83 -1.406 -0.183 0
-1.1619112 -1.4701362 -0.18000001 0
1.2521122 -1.4571298 -0.17265965 0
1.311 -1.409 -0.169 0
-2.256 -1.307 -0.18799999 0
-1.8016286 -1.3852246 -0.18267538 0
-1.7335238 -1.3353537 -0.18189615 0
1.2612062 -1.3553536 -0.17259414 0
1.3275 -1.329 -0.16850001 0
-2.1583066 -1.2487473 -0.1873513 0
-1.8520465 -1.2258538 -0.18000001 0
-1.665419 -1.285483 -0.18111692 0
-1.5973142 -1.2356123 -0.1803377 0
1.2739247 -1.2647543 -0.17165148 0
1.9342467 -1.2535558 -0.17281443 0
-2.0426643 -1.1797919 -0.18658343 0
-1.9655695 -1.1338216 -0.1860715 0
-1.896 -1.131 -0.18000001 0
-1.7382159 -1.153556 -0.18000001 0
-1.5292095 -1.1857415 -0.17955846 0
-1.4611048 -1.1358707 -0.17877923 0
1.6930584 -1.1031947 -0.17014304 0
1.7678701 -1.1498336 -0.17097166 0
1.8426816 -1.1964725 -0.17180027 0
1.9528819 -1.1398931 -0.17082535 0
-3.1070001 -1.0880001 -0.164 0
-3.0255575 -1.0585903 -0.1654792 0
-2.9401019 -1.0277313 -0.16703127 0
-1.8425967 -1.073864 -0.18371266 0
-1.7537796 -1.0492164 -0.18110894 0
-1.6544814 -1.0454888 -0.18084358 0
-1.5567541 -1.0383033 -0.18000001 0
-1.393 -1.086 -0.178 0
1.543435 -1.0099168 -0.16848582 0
1.6182467 -1.0565557 -0.16931443 0
1.7449627 -1.0224154 -0.16857235 0
1.8600434 -1.0874379 -0.16981936 0
-2.8546462 -0.99687225 -0.16858335 0
-2.7691903 -0.96601319 -0.17013544 0
-2.6837347 -0.9351542 -0.17168751 0
-2.5982788 -0.90429515 -0.17323959 0
-2.1647072 -0.92730176 -0.18181193 0
-2.026 -0.96200001 -0.18700001 0
-1.9572811 -0.92985022 -0.18501136 0
-1.7342846 -0.99591076 -0.18453576 0
-1.6313288 -0.95693517 -0.1831446 0
-1.5557034 -0.91262841 -0.18317774 0
-1.447877 -0.96915162 -0.18000001 0
1.3938117 -0.91663891 -0.1668286 0
1.4686234 -0.96327788 -0.16765721 0
1.5531614 -0.9140448 -0.16649401 0
1.6298819 -0.95739305 -0.16732535 0
1.8526871 -0.91535509 -0.16371262 0
1.9361508 -0.95520711 -0.1649157 0
-2.5128231 -0.87343609 -0.17479168 0
-2.4273672 -0.8425771 -0.17634375 0
-2.3419116 -0.81171805 -0.17789583 0
-2.0576127 -0.8796531 -0.18104586 0
-1.9527788 -0.85853988 -0.18010074 0
-1.8731384 -0.841708 -0.18068111 0
-1.7596807 -0.83740371 -0.17929301 0
-1.503 -0.85799998 -0.183 0
-1.4571559 -0.87864327 -0.18342179 0
-1.3610001 -0.86800003 -0.18200001 0
1.3593602 -0.84867412 -0.16541567 0
1.4764409 -0.87069654 -0.16566268 0
1.6586509 -0.82270718 -0.1609157 0
1.7750726 -0.8782959 -0.16259384 0
1.8741076 -0.81897473 -0.16372719 0
1.9586461 -0.85473526 -0.1649242 0
-2.2564559 -0.78085905 -0.17944792 0
-2.171 -0.75 -0.18099999 0
-1.944 -0.73399997 -0.177 0
-1.8463264 -0.75330776 -0.17832479 0
-1.7660269 -0.7434265 -0.17851329 0
-1.6448821 -0.75295085 -0.17756546 0
-1.5620804 -0.74495721 -0.17357467 0
-1.4830402 -0.70797861 -0.17128734 0
1.323 -0.78399998 -0.164 0
1.4646145 -0.73005921 -0.15811877 0
1.5422291 -0.76711839 -0.15923753 0
1.6365539 -0.71848732 -0.1603636 0
1.7553308 -0.76873106 -0.16204539 0
1.8829441 -0.71972197 -0.16411258 0
1.9833925 -0.73062217 -0.16535635 0
2.0742841 -0.70317757 -0.16917293 0
2.1596947 -0.73357475 -0.17094454 0
2.2451053 -0.76397198 -0.17271616 0
2.3069999 -0.78600001 -0.17399999 0
-3.161 -0.69199997 -0.168 0
-3.0749252 -0.67234093 -0.16941687 0
-2.9863327 -0.65210682 -0.17087518 0
-2.8534439 -0.62175572 -0.17306265 0
-1.9560001 -0.63550001 -0.17649999 0
-1.866362 -0.66330814 -0.17731798 0
-1.7529305 -0.63891214 -0.17781574 0
-1.6533672 -0.65042257 -0.17837214 0
-1.553224 -0.65457392 -0.17816679 0
-1.4481202 -0.65047222 -0.17446832 0
-1.369 -0.61799997 -0.177 0
1.393 -0.65549999 -0.15700001 0
1.4781847 -0.65149575 -0.1581212 0
1.5573692 -0.68499154 -0.15924241 0
1.639972 -0.62886101 -0.16005629 0
1.7287424 -0.63859886 -0.16206691 0
1.8130774 -0.64942688 -0.16336302 0
1.9314226 -0.66361111 -0.16574886 0
-2.7205551 -0.59140456 -0.17525011 0
-2.6319625 -0.57117045 -0.17670843 0
-2.54337 -0.55093634 -0.17816675 0
-2.4547775 -0.53070229 -0.17962506 0
-2.3661849 -0.51046818 -0.18108338 0
-2.2030001 -0.514 -0.17299999 0
-1.9738698 -0.53962648 -0.17796609 0
-1.8557134 -0.56251794 -0.17633741 0
-1.7436687 -0.54326612 -0.17666711 0
-1.6419384 -0.53325391 -0.17645647 0
-1.5516402 -0.55244941 -0.17845322 0
-1.4795742 -0.58246893 -0.17955628 0
-1.4 -0.55199999 -0.18000001 0
1.397 -0.53799999 -0.156 0
1.4573679 -0.53423893 -0.15919578 0
1.5639719 -0.55993271 -0.15949422 0
1.6505246 -0.5702157 -0.16114759 0
1.7326421 -0.5815888 -0.16208646 0
1.8501419 -0.51329637 -0.16159372 0
1.9849085 -0.55023402 -0.16383237 0
-2.2775924 -0.49023408 -0.18254168 0
-2.1587272 -0.48338741 -0.17898658 0
-2.0420229 -0.47680295 -0.17510152 0
-1.9480085 -0.44593033 -0.17792827 0
-1.8448215 -0.45547161 -0.17717239 0
-1.7421497 -0.4523178 -0.17720826 0
-1.6400681 -0.44745958 -0.17611475 0
-1.5628632 -0.44625005 -0.17549729 0
-1.4727436 -0.45960331 -0.17608966 0
-1.3890001 -0.47099999 -0.178 0
1.357 -0.46700001 -0.15700001 0
1.4762635 -0.45058918 -0.15607615 0
1.5592334 -0.43356231 -0.15676135 0
1.6423502 -0.45634347 -0.15814203 0
1.7254668 -0.47912461 -0.15952271 0
1.8478706 -0.42042661 -0.15942624 0
1.96 -0.44600001 -0.161 0
-1.858871 -0.39122814 -0.17900001 0
-1.7784033 -0.37317109 -0.17900001 0
-1.6553906 -0.36650759 -0.17958955 0
-1.530216 -0.33798593 -0.18043582 0
-1.4675 -0.36250001 -0.17899999 0
-1.372 -0.39300001 -0.175 0
1.3915 -0.352 -0.15349999 0
1.4732492 -0.33498666 -0.15416841 0
1.5564984 -0.35397333 -0.15533681 0
1.6397476 -0.37295997 -0.15650523 0
1.7242258 -0.34986562 -0.15707733 0
1.8501251 -0.33057883 -0.1574114 0
1.929 -0.345 -0.15800001 0
1.393 -0.24699999 -0.154 0
1.4761137 -0.26219615 -0.15462025 0
1.5592273 -0.2773923 -0.15524051 0
1.642341 -0.29258847 -0.15586075 0
-2.118 0.064000003 -0.185 0
-2.0601726 0.058217235 -0.18572286 0
-2.1276987 0.11396987 -0.17303616 0
-2.0500569 0.13727024 -0.18320724 0
-1.999 0.197 -0.184 0
-2.0642405 0.21081564 -0.18476754 0
-1.969 0.289 -0.183 0
-2.0405295 0.33141357 -0.17840941 0
-1.9515227 0.36455902 -0.1781638 0
-1.8332731 0.37539652 -0.17272925 0
-1.9660394 0.43666923 -0.16947809 0
-1.8566507 0.45639151 -0.17082427 0
-1.777 0.47999999 -0.171 0
-1.9491032 0.53118968 -0.17011742 0
-1.8242705 0.58877766 -0.17231944 0
-1.762 0.56699997 -0.17299999 0
1.781 0.59500003 -0.153 0
1.832 0.51499999 -0.155 0
1.9192176 0.53902054 -0.15423745 0
2.0500438 0.57505143 -0.15309361 0
-1.934 0.653 -0.171 0
-1.8549354 0.64909953 -0.17185137 0
-1.7479126 0.65623295 -0.17323209 0
-1.4203335 0.6873129 -0.17067254 0
-1.346 0.64899999 -0.171 0
1.743 0.67699999 -0.153 0
1.8671063 0.62313747 -0.15234126 0
1.9532127 0.65127498 -0.15168253 0
2.039319 0.67941248 -0.15102379 0
2.1808701 0.61108226 -0.15194976 0
2.2680876 0.63510281 -0.15118721 0
2.3553052 0.65912342 -0.15042466 0
2.4425225 0.68314397 -0.14966209 0
-3.099 0.796 -0.186 0
-1.902 0.71799999 -0.171 0
-1.8523366 0.74965775 -0.17040619 0
-1.7487252 0.75358438 -0.17140743 0
-1.668 0.764 -0.17200001 0
-1.5690007 0.76393872 -0.17001761 0
-1.4764934 0.76141477 -0.16685912 0
-1.3598299 0.74005091 -0.16984329 0
1.554 0.764 -0.15000001 0
1.7393718 0.75841516 -0.15179522 0
1.8413957 0.75056285 -0.1516365 0
1.9527568 0.75967604 -0.15152803 0
2.1254253 0.70754993 -0.15036505 0
2.2545848 0.7497561 -0.14937694 0
2.3837445 0.79196239 -0.14838883 0
2.5297401 0.70716453 -0.14889954 0
2.6169577 0.73118508 -0.14813699 0
2.7255876 0.7611028 -0.1471872 0
-3.1516881 0.83086717 -0.17980139 0
-1.9593896 0.8530196 -0.16075556 0
-1.837 0.82050002 -0.16949999 0
-1.772974 0.85561603 -0.16930382 0
-1.6221671 0.84112585 -0.16184509 0
-1.5568092 0.85435641 -0.15690304 0
-1.3359479 0.89922184 -0.17138939 0
-1.268 0.85600001 -0.171 0
1.474 0.86000001 -0.149 0
1.657508 0.83017683 -0.1515414 0
1.7608442 0.85875124 -0.1500863 0
1.8615273 0.85534632 -0.15102375 0
1.9628153 0.84567726 -0.15032765 0
2.0674949 0.83321959 -0.15032127 0
2.1509933 0.86702442 -0.14977661 0
2.2464161 0.87542254 -0.14946726 0
2.4698508 0.82009983 -0.1477301 0
2.5559571 0.84823734 -0.14707136 0
2.6690319 0.88518739 -0.14620632 0
-2.2359829 0.98586607 -0.1375926 0
-2.1433723 0.94138569 -0.14534815 0
-2.0697792 0.90603924 -0.1515111 0
-1.526 0.98100001 -0.171 0
-1.4378697 0.96405464 -0.17197347 0
-1.2656584 0.94601154 -0.17010048 0
-1.198 0.99000001 -0.17 0
1.0785 0.93949997 -0.152 0
1.1491859 0.95377672 -0.15092467 0
1.4135001 0.93949997 -0.148 0
1.5259731 0.94009566 -0.14809759 0
1.6284945 0.9531281 -0.14821577 0
1.71589 0.96124125 -0.1495802 0
1.8405867 0.94685149 -0.14958505 0
1.9451783 0.94372767 -0.14926752 0
2.0482228 0.9497965 -0.14926183 0
2.1576352 0.95935017 -0.14862117 0
2.222568 0.92623615 -0.14899658 0
2.3415797 0.95486116 -0.14845665 0
2.4561729 0.95809859 -0.14799526 0
-1.6318355 1.0746709 -0.16987532 0
-1.54851 1.0466408 -0.17013974 0
-1.4642375 1.0540173 -0.17015074 0
-1.3436379 1.0515196 -0.17040429 0
-1.2608213 1.0389966 -0.17020331 0
-1.153 1.05 -0.168 0
1.0583732 1.0639408 -0.15242332 0
1.143729 1.0445576 -0.15031262 0
1.2334647 1.0239418 -0.14931168 0
1.3275001 1.05 -0.148 0
1.449082 1.0397367 -0.14757349 0
1.5704142 1.0285845 -0.14877929 0
1.6567967 1.0612328 -0.1488883 0
1.7609916 1.0702119 -0.14873049 0
1.8721756 1.0485957 -0.14852482 0
1.9631529 1.0451615 -0.14934696 0
2.0396681 1.0495676 -0.14821434 0
2.1641114 1.0598545 -0.14739697 0
2.2690959 1.0399622 -0.14733315 0
2.3629239 1.049964 -0.14708535 0
2.4584458 1.0580318 -0.14698294 0
2.5780089 1.0285681 -0.14703737 0
-1.82051 1.1724373 -0.16602433 0
-1.7437551 1.1252186 -0.16701216 0
-1.6210001 1.1315 -0.16749999 0
-1.5531987 1.1635629 -0.1681639 0
-1.4653876 1.1376537 -0.16953559 0
-1.371232 1.1559949 -0.16930497 0
-1.2433636 1.1281524 -0.16830528 0
-1.1372066 1.1412065 -0.16689891 0
-1.0875 1.1725 -0.16850001 0
-0.92080414 1.1730319 -0.16685332 0
-0.84749997 1.135 -0.16749999 0
0.98199999 1.142 -0.15450001 0
1.0466714 1.1572691 -0.15280072 0
1.1598663 1.1637039 -0.15011668 0
1.238229 1.1305575 -0.14831261 0
1.4944826 1.1274483 -0.14713067 0
1.5652238 1.1816723 -0.14669602 0
1.6579795 1.1343732 -0.14653572 0
1.7621448 1.1473227 -0.14614284 0
1.8522395 1.1610435 -0.14855152 0
1.9374838 1.1393843 -0.14664729 0
2.0147309 1.1859483 -0.14625517 0
2.1212294 1.1267422 -0.14802045 0
2.2394929 1.1526538 -0.1469873 0
2.3487685 1.1415563 -0.14617315 0
2.4306035 1.1467038 -0.1451214 0
2.5079999 1.114 -0.146 0
-1.97402 1.2668746 -0.16404866 0
-1.8972651 1.2196559 -0.16503648 0
-1.5255001 1.2255 -0.169 0
-1.443294 1.2537776 -0.16658057 0
-1.3563961 1.2480675 -0.16789438 0
-1.2507696 1.2528822 -0.16678759 0
-1.1412585 1.2300892 -0.16796842 0
-1.038 1.263 -0.169 0
-0.97360826 1.2400638 -0.16670664 0
-0.8533951 1.2642891 -0.16792569 0
-0.75849998 1.2495 -0.16749999 0
0.69300002 1.278 -0.15800001 0
0.926 1.247 -0.156 0
1.0530397 1.2402804 -0.1529312 0
1.150007 1.2684038 -0.15020108 0
1.209 1.212 -0.149 0
1.6359651 1.2358965 -0.14626135 0
1.7374101 1.250684 -0.14586744 0
1.8578646 1.2421302 -0.1455068 0
1.9571884 1.249655 -0.14609234 0
2.0664802 1.2525077 -0.14597568 0
2.1692257 1.2790763 -0.14547093 0
2.2793059 1.208323 -0.14669393 0
2.360172 1.2500567 -0.14601535 0
2.411 1.206 -0.146 0
-2.7437489 1.3631958 -0.17557152 0
-2.665 1.319 -0.182 0
-2.1275301 1.3613119 -0.16207297 0
-2.0507751 1.3140932 -0.16306081 0
-1.4330001 1.3305 -0.167 0
-1.3515465 1.3657863 -0.16654678 0
-1.2568967 1.3340549 -0.16754052 0
-1.166986 1.349214 -0.1676106 0
-1.0571723 1.3484024 -0.16732691 0
-0.96316355 1.3341128 -0.16775225 0
-0.87658417 1.3666215 -0.168 0
-0.77609545 1.3483666 -0.16729823 0
0.58999997 1.392 -0.15899999 0
0.65883565 1.3654373 -0.15777567 0
0.73164201 1.3455125 -0.15733376 0
0.86199999 1.355 -0.15800001 0
0.96805656 1.3002931 -0.15503687 0
1.0549448 1.3439445 -0.15313295 0
1.109 1.345 -0.152 0
1.7774477 1.3443447 -0.14539203 0
1.848189 1.3985689 -0.14495736 0
1.9516703 1.3393711 -0.14486228 0
2.06094 1.3458316 -0.14449205 0
2.1542275 1.3393791 -0.1446104 0
2.236491 1.3425468 -0.14469294 0
-2.2426624 1.4321399 -0.16059121 0
-1.3516668 1.4393333 -0.167 0
-1.2574711 1.4294847 -0.1668082 0
-1.1599635 1.4418914 -0.16697292 0
-1.064725 1.4463648 -0.16731827 0
-0.92287624 1.4379324 -0.168 0
-0.84073865 1.4584167 -0.16774559 0
-0.56550002 1.472 -0.16850001 0
0.53299999 1.444 -0.15899999 0
0.62221742 1.4611726 -0.15828931 0
0.75815666 1.4584435 -0.15794253 0
0.84105825 1.4439273 -0.15694746 0
0.93681997 1.4597479 -0.15586229 0
1.054585 1.4099395 -0.15305531 0
1.9189303 1.452793 -0.1445227 0
2.0618043 1.4162453 -0.14423473 0
2.1265001 1.425 -0.14399999 0
-2.439275 1.5530932 -0.15806082 0
-2.357795 1.5029678 -0.15910947 0
-1.2568125 1.5352496 -0.16687316 0
-1.1529274 1.5397028 -0.16723065 0
-1.0439099 1.5399094 -0.16731419 0
-0.94551677 1.54857 -0.16806431 0
-0.85514915 1.5731275 -0.16947596 0
-0.62463129 1.5584409 -0.16867581 0
-0.55077934 1.5630404 -0.16991018 0
-0.479 1.5734999 -0.17050001 0
0.45033336 1.5513333 -0.16166668 0
0.54639727 1.5579497 -0.15989292 0
0.67054355 1.5649316 -0.15722331 0
0.7483899 1.5496897 -0.15812641 0
0.85565639 1.5473785 -0.15617035 0
0.93349999 1.528 -0.155 0
1.9896715 1.5070171 -0.14408803 0
2.0039999 1.518 -0.14399999 0
-2.3149199 1.6710991 -0.1660786 0
-2.247 1.617 -0.167 0
-1.4011142 1.6790128 -0.14671634 0
-1.343057 1.6135063 -0.15735817 0
-1.2433685 1.6340256 -0.16781199 0
-1.15325 1.64025 -0.167 0
-1.0619791 1.6500492 -0.16766667 0
-0.97169054 1.6333647 -0.16824558 0
-0.84523493 1.6626467 -0.16947059 0
-0.787 1.636 -0.171 0
-0.63755715 1.6495843 -0.16966477 0
-0.54547775 1.652302 -0.17074154 0
-0.45317098 1.6538162 -0.17007841 0
-0.35966668 1.6679999 -0.16966666 0
0.354 1.6503334 -0.164 0
0.44810605 1.6572106 -0.1620442 0
0.52283257 1.656777 -0.16135754 0
0.6174252 1.6373202 -0.15899999 0
0.74091887 1.6484218 -0.15678436 0
0.84257644 1.6409911 -0.15772247 0
0.91179109 1.6996086 -0.15789472 0
-2.4507601 1.7792974 -0.1642358 0
-2.3828402 1.7251983 -0.1651572 0
-1.4296294 1.7591562 -0.14880958 0
-1.3447368 1.7446933 -0.16486126 0
-1.2913741 1.7144288 -0.16784637 0
-1.1804636 1.7384294 -0.16631739 0
-1.0576667 1.7336668 -0.16833334 0
-0.99157286 1.7152002 -0.16878943 0
-0.7230984 1.7516251 -0.17041758 0
-0.66133016 1.7651674 -0.17073713 0
-0.55069768 1.7403553 -0.17079878 0
-0.43586025 1.7553749 -0.16976078 0
-0.35827184 1.7537701 -0.16926309 0
-0.26121786 1.7555628 -0.16869293 0
-0.17 1.798 -0.168 0
0.25924647 1.7549965 -0.16525 0
0.36691347 1.7562672 -0.16405894 0
0.44744825 1.7533442 -0.16282164 0
0.52988583 1.7409652 -0.16138403 0
0.67156839 1.7043852 -0.15899999 0
0.73618901 1.7508829 -0.15877485 0
0.84768087 1.7617466 -0.1581623 0
0.95305479 1.780478 -0.1575263 0
-2.5526402 1.860446 -0.16285372 0
-1.5462569 1.8427787 -0.12011177 0
-1.4297863 1.8506721 -0.16279933 0
-1.2591588 1.8485737 -0.16529346 0
-0.74207228 1.8493683 -0.16567782 0
-0.63895589 1.8328624 -0.16842401 0
-0.56004196 1.8650955 -0.17066465 0
-0.44917092 1.857088 -0.16942744 0
-0.35327673 1.8411945 -0.16886525 0
-0.2485584 1.8510537 -0.16811682 0
-0.14852738 1.8602833 -0.16776018 0
-0.044500001 1.8755 -0.16749999 0
0.17584151 1.8362641 -0.16583773 0
0.24651267 1.8489338 -0.16533333 0
0.33751908 1.8601373 -0.16500001 0
0.44099969 1.8380728 -0.1630442 0
0.57168984 1.8153324 -0.16061458 0
0.73270524 1.8671554 -0.15899999 0
0.84048235 1.878991 -0.15809947 0
0.99431849 1.8613476 -0.15715787 0
1.092 1.8789999 -0.155 0
-2.7224405 1.9956939 -0.16055022 0
-2.6545203 1.9415948 -0.16147162 0
-1.6333425 1.9410383 -0.10414902 0
-1.543494 1.9494545 -0.15783188 0
-1.4574966 1.9287152 -0.16438548 0
-1.3378541 1.9587178 -0.16426955 0
-0.82621241 1.9209248 -0.17192855 0
-0.7552917 1.9487598 -0.15838702 0
-0.64421475 1.9414361 -0.15556194 0
-0.53578073 1.9420618 -0.16412291 0
-0.45197931 1.9335436 -0.16901438 0
-0.35571465 1.957157 -0.16833276 0
-0.23546937 1.9626255 -0.16732758 0
-0.15705478 1.9592333 -0.16718704 0
-0.047278095 1.9661388 -0.16675845 0
0.19336605 1.9360566 -0.16535094 0
0.25752366 1.9614992 -0.1655 0
0.33631924 1.9449859 -0.16500001 0
0.42500001 1.9069999 -0.163 0
0.59837961 1.9016647 -0.16022918 0
0.62506944 1.9879972 -0.15984376 0
0.7632736 1.9485406 -0.15899999 0
0.8756029 1.9604888 -0.15787435 0
0.98100001 1.9910001 -0.156 0
1.0355822 1.942217 -0.15678944 0
1.1372659 1.9511888 -0.15485208 0
1.289 1.988 -0.152 0
-2.763 2.0280001 -0.16 0
-1.6295378 2.0548513 -0.1556042 0
-1.5405579 2.0358586 -0.16265506 0
-1.3595842 2.0527389 -0.1667266 0
-1.163 2.0929999 -0.17 0
-0.82453424 2.0620849 -0.14721906 0
-0.74515057 2.0499511 -0.13921998 0
-0.64475214 2.0375733 -0.14041734 0
-0.56099993 2.0563953 -0.15239426 0
-0.34862146 2.0365014 -0.16802171 0
-0.27361095 2.0559227 -0.1670491 0
-0.055370796 2.0468516 -0.1663446 0
0.077 2.0469999 -0.16599999 0
0.161 2.029 -0.16599999 0
0.22645685 2.0246446 -0.16523406 0
0.31021106 2.0716355 -0.16468421 0
0.65175927 2.0743296 -0.15945835 0
0.79384208 2.0299256 -0.15899999 0
0.83200002 2.033 -0.15800001 0
0.91072351 2.0419865 -0.1576492 0
1.0497236 2.0467205 -0.1559505 0
1.1576606 2.0517614 -0.15370777 0
1.227798 2.0955667 -0.15455621 0
1.3359858 2.0569015 -0.15216602 0
-1.7442628 2.1953802 -0.15263398 0
-1.6552596 2.1340587 -0.15752184 0
-1.4506317 2.1499071 -0.1637706 0
-1.2065809 2.1665518 -0.1678282 0
-1.031 2.1400001 -0.17050001 0
-0.85481662 2.1586633 -0.1483846 0
-0.75169253 2.156939 -0.13627288 0
-0.65288037 2.1496925 -0.12492709 0
-0.5815295 2.1624708 -0.14292982 0
-0.34351587 2.136137 -0.1637879 0
-0.10275263 2.1252213 -0.16601406 0
-0.034893662 2.1428552 -0.16533262 0
0.082180731 2.1374273 -0.16505805 0
0.16692704 2.1192441 -0.1654264 0
0.23523979 2.1511683 -0.16479138 0
0.32242215 2.1602709 -0.16436841 0
0.67844909 2.1606619 -0.15907294 0
0.71600002 2.161 -0.15800001 0
0.84901929 2.1389296 -0.15837258 0
0.92459059 2.1580238 -0.15682977 0
1.0642028 2.1497092 -0.15495996 0
1.1387415 2.1443906 -0.15586838 0
1.2394819 2.1677835 -0.15412331 0
1.3829716 2.125803 -0.15233205 0
1.4299574 2.1947043 -0.15249808 0
-1.8016253 2.2656446 -0.15114886 0
-1.7343676 2.2858593 -0.15861735 0
-1.6789933 2.2144306 -0.15977098 0
-1.5477084 2.2524357 -0.16153911 0
-1.4603044 2.2332075 -0.16477865 0
-1.2501619 2.2401037 -0.16565639 0
-1.1354296 2.2882597 -0.1667321 0
-1.0732068 2.2436187 -0.16774881 0
-0.91813123 2.2563028 -0.14066988 0
-0.83895618 2.2469065 -0.13209575 0
-0.74050218 2.2525854 -0.10720438 0
-0.63417971 2.2507808 -0.12221259 0
-0.35879433 2.2250059 -0.15573069 0
-0.10767017 2.2156284 -0.16535209 0
-0.046637174 2.2533257 -0.16445287 0
0.087361462 2.2278545 -0.1641161 0
0.17581761 2.2546101 -0.16456604 0
0.25445175 2.2573917 -0.16421007 0
0.3346332 2.2489064 -0.16405259 0
0.72512889 2.2431514 -0.158097 0
0.875 2.2460001 -0.15899999 0
0.95998514 2.2386634 -0.15627608 0
1.035 2.2816665 -0.15666668 0
1.1058042 2.229064 -0.15443996 0
1.2234935 2.2507062 -0.15478662 0
1.3183298 2.2399445 -0.15426035 0
1.4769433 2.2636058 -0.15266411 0
-1.829 2.3529999 -0.15350001 0
-1.7897418 2.3572884 -0.15746371 0
-1.6264037 2.3625798 -0.16051519 0
-1.5299566 2.3353114 -0.16266797 0
-1.3373237 2.3872075 -0.16131277 0
-1.2768714 2.3428278 -0.1632423 0
-1.1465249 2.3695574 -0.16448927 0
-1.052 2.362 -0.167 0
-0.93767267 2.3511279 -0.14571086 0
-0.81735909 2.3255754 -0.12787278 0
-0.64562762 2.3452349 -0.11652501 0
-0.37590706 2.3410478 -0.14542545 0
-0.11504649 2.3512392 -0.16435912 0
-0.036839392 2.3673744 -0.16320443 0
0.092542194 2.3182819 -0.16317414 0
0.18470818 2.389976 -0.16370566 0
0.26166123 2.3738139 -0.16344163 0
0.34684426 2.3375421 -0.16373679 0
0.75303328 2.3254719 -0.15765752 0
0.80335677 2.3959255 -0.15651938 0
0.93845218 2.3571284 -0.15638444 0
1.04561 2.3513827 -0.15571438 0
1.1510988 2.354007 -0.15415651 0
1.2529334 2.3245409 -0.15489224 0
1.3598652 2.3450444 -0.1543708 0
1.523929 2.3325071 -0.15283014 0
-1.666 2.418 -0.16 0
-1.585 2.4159999 -0.161 0
-1.3551831 2.4793994 -0.15882978 0
-1.2542951 2.4407697 -0.16211176 0
-1.1340666 2.4683523 -0.16194874 0
-1.0559794 2.4483347 -0.16406199 0
-0.87077928 2.4424522 -0.13834761 0
-0.66406262 2.4662123 -0.11106792 0
-0.41415861 2.4993687 -0.13087898 0
-0.39711386 2.4469762 -0.13527119 0
-0.1224228 2.4868498 -0.16336615 0
-0.037594408 2.4573593 -0.16235818 0
0.097722925 2.408709 -0.16223219 0
0.14676943 2.4896784 -0.16221115 0
0.27182657 2.4630175 -0.16292703 0
0.35905531 2.4261775 -0.16342099 0
0.75851852 2.4196591 -0.15791671 0
0.83247566 2.4742341 -0.15602584 0
0.96568245 2.473259 -0.15568234 0
1.0447813 2.4288366 -0.15400872 0
1.1527685 2.4406593 -0.15429932 0
1.2528369 2.4374266 -0.15341675 0
1.3141314 2.4804499 -0.15290719 0
1.5714574 2.4022045 -0.15299809 0
-1.4244856 2.5343113 -0.15696916 0
-1.3740963 2.5790296 -0.15563895 0
-1.2405369 2.5558248 -0.15941513 0
-1.1639661 2.5537162 -0.15940648 0
-1.0754973 2.5667086 -0.16064301 0
-0.89899999 2.5209999 -0.12800001 0
-0.66908801 2.5337379 -0.1107569 0
-0.41990817 2.580482 -0.12350188 0
-0.12734035 2.5772569 -0.16270418 0
-0.038349424 2.5473442 -0.16151193 0
0.15232332 2.580014 -0.1614534 0
0.25489375 2.5475774 -0.16267173 0
0.34017819 2.5358386 -0.16262917 0
0.78520834 2.5059915 -0.15753129 0
0.83674634 2.572433 -0.15633909 0
0.99590993 2.5490119 -0.15457647 0
1.0638454 2.55158 -0.15226531 0
1.1493076 2.5300562 -0.15281653 0
1.2483733 2.5684004 -0.15247926 0
1.3531971 2.553175 -0.15186079 0
-1.5047998 2.6782155 -0.14574391 0
-1.464 2.6010001 -0.155 0
-1.3315035 2.6839089 -0.15856236 0
-1.2922888 2.6047792 -0.1601963 0
-0.69210058 2.6208434 -0.1022936 0
-0.43518662 2.6693511 -0.11544468 0
-0.13225788 2.6676641 -0.1620422 0
-0.039104443 2.6373291 -0.16066568 0
0.11326512 2.6799912 -0.15940633 0
0.232766 2.6491075 -0.16213429 0
0.36681256 2.6469579 -0.16225831 0
0.8685711 2.6309502 -0.15567958 0
1.0325687 2.6408825 -0.15323529 0
1.16335 2.665638 -0.15052395 0
1.2604212 2.6651483 -0.15174831 0
1.3530369 2.6258683 -0.15132713 0
1.4313285 2.6986248 -0.14976799 0
-1.5455998 2.7554307 -0.13648781 0
-1.3707182 2.7630386 -0.15692841 0
-0.45046508 2.7582202 -0.10738747 0
-0.13717543 2.7580712 -0.16138023 0
-0.039859459 2.727314 -0.15981942 0
0.11844585 2.7704184 -0.15846439 0
0.239804 2.7391944 -0.16165347 0
0.3334533 2.733819 -0.16087088 0
0.40789956 2.7807193 -0.16215777 0
1.2920001 2.7309999 -0.15099999 0
1.3682063 2.7295957 -0.15115991 0
1.46 2.7520001 -0.149 0
-1.5863997 2.8326461 -0.1272317 0
-1.4299948 2.8813076 -0.14423668 0
-1.393 2.8080001 -0.156 0
-0.47428548 2.8564637 -0.10118217 0
-0.14 2.8099999 -0.161 0
-0.040807236 2.8431494 -0.15873659 0
0.12362658 2.8608458 -0.15752244 0
0.246842 2.8292811 -0.16117266 0
0.34781748 2.8381481 -0.16011485 0
0.414 2.825 -0.162 0
-1.6475996 2.9484692 -0.11334756 0
-1.4669895 2.9546151 -0.13247338 0
0.12880732 2.9512732 -0.15658049 0
0.25519001 2.9366837 -0.16059592 0
-1.5039843 3.0279229 -0.12071006 0
-0.71191508 3.0630808 -0.10685926 0
0.132 3.007 -0.156 0
3.2479999 3.0309999 -0.13 0
3.3160362 3.0895073 -0.11847002 0
-1.5409791 3.1012304 -0.10894675 0
-0.73400003 3.1429999 -0.121 0
3.3840728 3.1480148 -0.10694004 0
2.3488295 3.5464234 -0.12707752 0
-0.22169614 3.6454706 -0.14781265 0
2.4263182 3.6526935 -0.12431007 0
-0.5566783 3.7124987 -0.10641298 0
-0.22678456 3.7788827 -0.13525061 0
2.4779773 3.7235401 -0.1224651 0
2.5296364 3.7943869 -0.12062013 0
-1.7776456 3.8426101 -0.1170743 0
-0.57483912 3.8467493 -0.11870649 0
-0.23017684 3.8678241 -0.12687592 0
2.5812955 3.8652337 -0.11877517 0
-1.836 3.9619999 -0.13600001 0
-0.59299999 3.9809999 -0.131 0
-0.23356912 3.9567654 -0.11850123 0
2.6329546 3.9360805 -0.11693019 0
-0.23696139 4.0457067 -0.11012654 0
1.41 4.039 -0.133 0
2.6846137 4.006927 -0.11508523 0
2.7396364 4.082387 -0.11312012 0
-0.24035367 4.1346483 -0.10175185 0
1.4365062 4.1251206 -0.13033953 0
-0.33000001 4.244 -0.145 0
1.012 4.2779999 -0.133 0
1.4762654 4.2543011 -0.12634882 0
-0.33819658 4.3327785 -0.13903886 0
1.0348933 4.3652868 -0.13114905 0
1.5160246 4.3834815 -0.12235812 0
-0.34639317 4.4215569 -0.13307771 0
1.0577866 4.4525738 -0.12929811 0
1.5425308 4.4696021 -0.11969765 0
-0.358688 4.5547247 -0.124136 0
1.08068 4.5398607 -0.12744714 0
1.569037 4.5557222 -0.11703718 0
-0.37098286 4.6878924 -0.11519428 0
1.1035733 4.6271477 -0.1255962 0
1.5955431 4.6418428 -0.11437672 0
-0.37917945 4.7766709 -0.10923314 0
1.1264666 4.7144346 -0.12374525 0
1.6220492 4.727963 -0.11171625 0
-0.38737601 4.8654494 -0.10327199 0
1.1608067 4.8453646 -0.12096883 0
1.6485554 4.8140836 -0.10905577 0
1.1951467 4.976295 -0.1181924 0
1.6770308 4.9066019 -0.10619766 0
1.21804 5.0635819 -0.11634145 0
1.2439666 5.1624346 -0.11424525 0
-1.064 -4.9109998 -0.088 0
-1.047931 -4.8398151 -0.098137029 0
1.204 -2.227 -0.02 0
1.3637092 -2.2636001 -0.076457575 0
1.1621302 -2.1509304 -0.0098154666 0
1.2705921 -2.1225755 -0.066455357 0
1.3108275 -2.1697311 -0.057837144 0
1.2435882 -2.0555625 -0.04042647 0
1.1754156 -1.9407935 -0.023263611 0
1.2147176 -1.9873486 -0.014893208 0
1.0937765 -1.8197268 -0.019366063 0
1.1379805 -1.895439 -0.031138387 0
1.0495726 -1.7440147 -0.0075937435 0
1.473 -1.337 -0.0020000001 0
2.2520001 -1.243 -0.043000001 0
2.0693543 -1.1272973 -0.043403327 0
2.1703906 -1.176156 -0.067013472 0
1.8659079 -1.0245603 -0.003134761 0
1.9407955 -1.052621 -0.032666728 0
2.0143099 -1.0756625 -0.069150425 0
1.7488523 -0.9403218 -0.016913682 0
1.8626198 -0.99832493 -0.039300855 0
-1.6235 0.97599995 -0.0255 0
-1.7259392 1.0517937 -0.02715618 0
-1.6634133 1.024157 -0.048884287 0
-1.9253064 1.1762567 -0.01307431 0
-1.8511629 1.1437883 -0.027862925 0
-1.7782307 1.1104227 -0.044613414 0
-2.0016048 1.2393138 -0.011438208 0
-1.9274613 1.2068454 -0.026226822 0
-2.0766921 1.3032682 -0.0078402311 0
-1.7494568 2.072051 -0.082865365 0
-1.6913997 2.0065446 -0.093507193 0
-1.776 2.102 -0.078000002 0
-0.86822617 2.367763 -0.099108972 0
-0.7360096 2.3481786 -0.09036126 0
-0.69084334 2.3915448 -0.090401769 0
-0.9547286 2.4452503 -0.091631912 0
-0.85014594 2.451561 -0.082444377 0
-0.75470352 2.444952 -0.075813301 0
-1.0209477 2.5452418 -0.078611903 0
-0.95286143 2.5549483 -0.078004166 0
-0.87699997 2.5209999 -0.075000003 0
-0.72701901 2.5274446 -0.077444054 0
-0.73006392 2.6588755 -0.083748683 0
-0.60149014 2.663486 -0.036155559 0
-0.59500003 2.6400001 -0.031999998 0
-0.74232745 2.7556052 -0.081090622 0
-0.62357515 2.7434051 -0.050296299 0
-0.75 2.8399999 -0.081 0
-0.6456601 2.823324 -0.064437039 0
-0.45720157 2.8377147 -0.097478375 0
-0.67878759 2.9432025 -0.085648149 0
-0.481022 2.9359581 -0.091273069 0
-1.7087995 3.064292 -0.099463418 0
-0.50300002 3.027 -0.086999997 0
-0.47879487 3.0391595 -0.062535316 0
-1.7495993 3.1415074 -0.090207316 0
-1.5779738 3.1745379 -0.097183436 0
-0.48403484 3.1754959 -0.057238959 0
-1.7946997 3.2268612 -0.079975605 0
-1.61 3.2379999 -0.086999997 0
-1.4759371 3.2253308 -0.019222867 0
-0.49614209 3.2649963 -0.065434635 0
3.4521091 3.2065225 -0.095410064 0
3.5201454 3.2650299 -0.083880082 0
-1.5247772 3.3252549 -0.035062872 0
-0.50824928 3.354497 -0.073630303 0
3.588182 3.3235373 -0.072350107 0
3.6562183 3.3820448 -0.060820132 0
-1.6025828 3.484441 -0.060297154 0
-1.5636799 3.4048481 -0.047680013 0
-0.52035654 3.4439974 -0.081825972 0
3.7582729 3.4698062 -0.043525171 0
-1.6414857 3.5640342 -0.072914295 0
-0.53246379 3.5334978 -0.09002164 0
3.8603275 3.5575674 -0.026230209 0
-1.6803886 3.6436274 -0.085531428 0
-0.54457104 3.6229982 -0.098217316 0
3.9451818 3.6305375 -0.011850119 0
-1.7192914 3.7232203 -0.098148577 0
-0.24374597 4.2235894 -0.093377158 0
-0.24713825 4.312531 -0.085002467 0
-0.25126529 4.4207363 -0.074813887 0
-0.3955726 4.9542279 -0.097310856 0
-0.4053846 5.060503 -0.090174854 0
0.66799998 -6.5159998 0.0049999999 0
0.64958996 -6.4382901 0.016046021 0
0.63117993 -6.3605804 0.027092043 0
0.59435987 -6.2051611 0.049184088 0
0.6127699 -6.2828708 0.038138065 0
0.57447493 -6.1212254 0.061115053 0
-2.7880001 -5.5749998 0.035 0
-2.7259166 -5.4581742 0.05654569 0
-2.6638331 -5.3413486 0.078091383 0
-2.6224439 -5.2634649 0.092455178 0
1.1202605 -2.0748606 0.00036906637 0
1.0574558 -1.9607562 0.015645865 0
0.99465126 -1.8466517 0.030922666 0
1.1225764 -1.8335228 0.0076601841 0
0.9527815 -1.770582 0.0411072 0
1.0765058 -1.7566099 0.018936884 0
0.87099999 -1.622 0.061000001 0
0.95709211 -1.6384321 0.034927335 0
1.0179019 -1.6739998 0.017196083 0
0.93829393 -1.5258714 0.052766975 0
0.921 -1.497 0.057 0
1.9416206 -1.335583 0.0021074372 0
1.3650112 -1.2389714 0.020541357 0
1.4190056 -1.2879857 0.0092706783 0
1.516 -1.201 -1.0479338e-13 0
1.7647235 -1.2084981 0.012644624 0
1.8354824 -1.2593321 0.0084297489 0
1.267 -1.15 0.041000001 0
1.3110168 -1.1899569 0.031812035 0
1.4379966 -1.1350685 0.017179327 0
1.5918287 -1.104938 0.017359236 0
1.6567236 -1.1378316 0.013977957 0
1.3539966 -1.0640686 0.035679325 0
1.4755874 -1.0109882 0.036790915 0
1.5415523 -1.0584362 0.02800386 0
1.392 -0.96100003 0.061000001 0
1.4156575 -0.96787596 0.045218471 0
1.7500802 -0.95902842 0.0088248122 0
1.551017 -0.84640431 0.029378716 0
1.6254457 -0.88127166 0.01241929 0
-1.7760969 1.0580826 0.0087506436 0
-2.0027423 1.1977066 0.035376605 0
-1.9271939 1.1511652 0.026501287 0
-1.8516454 1.1046239 0.017625965 0
-2.1538391 1.2907891 0.053127244 0
-2.0776253 1.2575665 0.022820231 0
-2.3139679 1.3894359 0.071938939 0
-2.2279744 1.3675114 0.029466771 0
-2.1520467 1.3348393 0.0049865115 0
-2.3219943 1.4426825 0.023455616 0
5.5410895 2.7632875 0.09478195 0
5.6593561 2.8236547 0.080471538 0
5.7776227 2.8840215 0.066161118 0
5.8564668 2.9242661 0.056620836 0
5.9353113 2.9645109 0.047080562 0
6.0535774 3.0248778 0.032770142 0
-2.5603604 -5.1466398 0.11400087 0
-2.4982769 -5.0298142 0.13554657 0
-2.456888 -4.9519305 0.14991035 0
-2.415499 -4.8740468 0.16427414 0
-2.3989999 -4.8429999 0.17 0
-14.653 -0.86299998 0.13 0
-14.550619 -0.83291268 0.1479688 0
-14.448239 -0.80282539 0.1659376 0
-14.408 -0.79100001 0.17299999 0
5.3787003 2.6803992 0.11443125 0
5.462245 2.723043 0.10432222 0
