# .PCD v0.7 - Point Cloud Data file format
VERSION 0.7
FIELDS x y z intensity
SIZE 4 4 4 4
TYPE F F F F
COUNT 1 1 1 1
WIDTH 1379
HEIGHT 1
VIEWPOINT 0 0 0 1 0 0 0
POINTS 1379
DATA ascii
-3.6040001 -1.548 -0.207 0
-3.542007 -1.5218313 -0.21007867 0
-2.3901532 -1.5040915 -0.20766591 0
-2.151 -1.502 -0.208 0
-3.4658055 -1.489665 -0.21386294 0
-3.3515034 -1.4414155 -0.21953934 0
-2.3169999 -1.4579999 -0.222 0
-2.2701683 -1.4272008 -0.22048114 0
-2.1283965 -1.4661691 -0.21023178 0
-2.0632689 -1.4398447 -0.20839 0
-3.2372015 -1.3931662 -0.22521573 0
-3.161 -1.3609999 -0.229 0
-2.4625425 -1.3493357 -0.20457718 0
-2.3587828 -1.3343141 -0.20992234 0
-2.2639999 -1.316 -0.21799999 0
-2.1725168 -1.3527242 -0.21563298 0
-2.014993 -1.3751868 -0.21002856 0
-1.951417 -1.3472016 -0.2071632 0
-1.8848622 -1.3122256 -0.20497571 0
-1.347 -1.377 -0.20200001 0
-2.312 -1.273 -0.221 0
-2.052382 -1.2839719 -0.2134178 0
-1.9797864 -1.2362289 -0.21106334 0
-1.8306266 -1.261776 -0.20555593 0
-1.7389081 -1.2081504 -0.20331714 0
-1.39 -1.2309999 -0.20100001 0
-1.9071909 -1.188486 -0.2087089 0
-1.8345954 -1.140743 -0.20635444 0
-1.735 -1.1950001 -0.204 0
-1.6659311 -1.1561128 -0.20248786 0
-1.592954 -1.1040752 -0.20165858 0
-1.421 -1.142 -0.20100001 0
-4.4648538 -1.0054958 -0.24869335 0
-2.3110001 -1.067 -0.21699999 0
-2.2436349 -1.036617 -0.21535024 0
-1.762 -1.0930001 -0.204 0
-1.5199771 -1.0520376 -0.20082928 0
-4.3666186 -0.98524255 -0.24621338 0
-4.2805305 -0.96749365 -0.24404004 0
-4.1513977 -0.94087023 -0.24078003 0
-4.022265 -0.9142468 -0.23752002 0
-2.3180001 -0.96100003 -0.219 0
-2.2647619 -0.94670105 -0.21439159 0
-2.1394706 -0.94911903 -0.21137656 0
-2.0515282 -0.94997287 -0.21064559 0
-1.9746854 -0.91531527 -0.20876372 0
-3.9361768 -0.89649785 -0.23534667 0
-3.8500884 -0.87874895 -0.23317334 0
-3.7639999 -0.861 -0.23100001 0
-2.3286643 -0.84379387 -0.21895796 0
-2.2567964 -0.85490441 -0.21307614 0
-2.1343422 -0.8566643 -0.21228626 0
-2.0297461 -0.8488 -0.21083808 0
-1.948122 -0.82586789 -0.20952299 0
-1.8589512 -0.8453505 -0.20603639 0
-2.3505981 -0.72534078 -0.21631116 0
-2.2484915 -0.7659297 -0.21513171 0
-2.1415739 -0.75835782 -0.21377467 0
-2.04214 -0.74155921 -0.21182375 0
-1.9609586 -0.74764585 -0.21045792 0
-1.8773352 -0.7504186 -0.20867394 0
-1.7590795 -0.73834634 -0.20647745 0
-1.6530041 -0.72227263 -0.20296022 0
-4.428 -0.68000001 -0.24600001 0
-4.3416739 -0.66815877 -0.24580902 0
-4.2197824 -0.65143919 -0.24553935 0
-4.1385217 -0.64029276 -0.24535957 0
-4.057261 -0.6291464 -0.24517979 0
-3.9760001 -0.61799997 -0.245 0
-2.467 -0.67699999 -0.226 0
-2.3830271 -0.65399492 -0.22328837 0
-2.2600806 -0.63955891 -0.21778937 0
-2.1479423 -0.6622752 -0.21215963 0
-2.0408988 -0.63832247 -0.2097512 0
-1.954987 -0.66296351 -0.20827091 0
-1.8761047 -0.64750105 -0.20816575 0
-1.7552508 -0.64636981 -0.20616105 0
-1.6288757 -0.64453197 -0.20400274 0
-1.5374999 -0.65149999 -0.20199999 0
-2.4559526 -0.55058962 -0.22540358 0
-2.350421 -0.52581602 -0.22267263 0
-2.2679369 -0.5064528 -0.22053811 0
-2.120219 -0.58199644 -0.21480186 0
-2.0326164 -0.55799699 -0.21197303 0
-1.9514062 -0.55966723 -0.20889989 0
-1.8677055 -0.53549898 -0.20665768 0
-1.7465831 -0.57073784 -0.20324636 0
-1.6236644 -0.55381286 -0.20206216 0
-1.5455 -0.56849998 -0.2015 0
-4.3340001 -0.463 -0.242 0
-4.2532177 -0.45486754 -0.24163856 0
-4.131145 -0.44257835 -0.24109237 0
-4.0497632 -0.43438557 -0.24072824 0
-3.9683816 -0.42619279 -0.24036412 0
-3.8870001 -0.41800001 -0.23999999 0
-2.4534106 -0.4555313 -0.22648907 0
-2.3622785 -0.47707036 -0.22264269 0
-2.1442106 -0.47740799 -0.21733631 0
-2.0204842 -0.44836318 -0.21413453 0
-1.938 -0.42899999 -0.212 0
-1.7698082 -0.48599848 -0.2034865 0
-1.6822054 -0.461999 -0.20065767 0
-2.4402924 -0.34067705 -0.22763465 0
-4.2690945 -0.25792652 -0.2411595 0
-4.1603913 -0.25038981 -0.24173924 0
-4.0421958 -0.24219491 -0.24236962 0
-3.924 -0.234 -0.243 0
-4.2379999 -0.15694943 -0.2401236 0
-4.1379995 -0.15217413 -0.24068539 0
-4.0599999 -0.14844942 -0.2411236 0
-3.9429998 -0.14286235 -0.24178091 0
-4.2673702 0.036073722 -0.24263138 0
-4.165349 0.036554959 -0.24022521 0
-4.0789576 0.036962464 -0.23818767 0
-3.9493701 0.037573725 -0.23513138 0
-3.819783 0.038184986 -0.23207507 0
-3.7333915 0.038592495 -0.23003754 0
-3.6470001 0.039000001 -0.228 0
-3.5190001 0.111 -0.20100001 0
-3.4558105 0.11264129 -0.20510322 0
-3.3678062 0.16687961 -0.20911105 0
-2.739814 0.24257785 -0.20739517 0
-2.6258299 0.26322967 -0.20227912 0
-2.654151 0.34046689 -0.20322466 0
-2.6240001 0.421 -0.20200001 0
-2.5826163 0.41416052 -0.20041403 0
-5.8759999 3.0669999 -0.237 0
-6.1147423 3.1886995 -0.21402612 0
-6.0351615 3.148133 -0.22168408 0
-5.9555807 3.1075664 -0.22934204 0
-6.1943226 3.2292659 -0.20636816 0
-5.8152742 3.3996239 -0.21551321 0
-5.7371368 3.3543119 -0.22175661 0
-5.6589999 3.309 -0.228 0
-5.9715481 3.4902477 -0.20302643 0
-5.8934112 3.4449358 -0.20926982 0
-5.617619 3.4724376 -0.21276744 0
-5.5419998 3.425 -0.22400001 0
-5.6932383 3.519875 -0.20153487 0
-0.76664662 -2.1350241 -0.11675523 0
-2.1752081 -2.0401411 -0.10205536 0
-0.73225665 -2.0404167 -0.11482166 0
-2.1086295 -1.9793477 -0.10460477 0
-2.0420508 -1.9185543 -0.10715418 0
-0.70221996 -1.9577858 -0.11313285 0
-2.9056129 -1.828866 -0.10666364 0
-2.5707161 -1.8175421 -0.10598868 0
-1.9754721 -1.8577609 -0.10970358 0
-0.92268616 -1.822479 -0.11100881 0
-0.716416 -1.8453461 -0.10392512 0
-0.67218328 -1.8751549 -0.11144404 0
-2.829073 -1.7806406 -0.12166137 0
-2.7559197 -1.734549 -0.13599545 0
-2.4642768 -1.7458545 -0.12763397 0
-1.9088933 -1.7969674 -0.11225298 0
-1.8423147 -1.7361739 -0.11480238 0
-0.93048346 -1.7509596 -0.10356674 0
-0.88359785 -1.7491665 -0.11231409 0
-0.78401023 -1.764974 -0.10633852 0
-0.64686316 -1.7561646 -0.10905391 0
-2.6461897 -1.6654117 -0.1574966 0
-2.4061484 -1.653898 -0.10865311 0
-2.3483016 -1.6402161 -0.135024 0
-2.2890716 -1.6143237 -0.13488072 0
-2.1271 -1.6110176 -0.10939653 0
-1.7424467 -1.6449838 -0.11862649 0
-1.2827343 -1.6039485 -0.10839079 0
-1.1579448 -1.665516 -0.10296713 0
-0.90114927 -1.685348 -0.11720771 0
-0.84904832 -1.6415582 -0.11391038 0
-0.74962711 -1.6358376 -0.11182276 0
-0.64120799 -1.647173 -0.11746256 0
-0.55840427 -1.611721 -0.10647973 0
-0.43010801 -1.6554114 -0.10429458 0
-2.8069999 -1.524 -0.167 0
-2.7636275 -1.5020071 -0.17173155 0
-2.55773 -1.5546372 -0.17249885 0
-2.4514649 -1.5249804 -0.17079337 0
-2.2277336 -1.5510881 -0.14426249 0
-2.1464796 -1.5203959 -0.16428491 0
-2.0401697 -1.5608169 -0.11710902 0
-1.9705 -1.5074999 -0.13 0
-1.6425786 -1.5537935 -0.1224506 0
-1.3279999 -1.517 -0.111 0
-1.2308671 -1.5384743 -0.1171954 0
-1.1278988 -1.5992122 -0.11070915 0
-1.0653852 -1.5484228 -0.11935381 0
-0.9926284 -1.5252781 -0.11767614 0
-0.82789773 -1.5371844 -0.12007818 0
-0.7573846 -1.5364453 -0.1142832 0
-0.66450024 -1.5477742 -0.11192045 0
-0.57412165 -1.5358167 -0.11275746 0
-0.47873262 -1.5299466 -0.11314934 0
-0.3988432 -1.5321646 -0.11131783 0
0.6880272 -1.578351 -0.10444856 0
1.2463801 -1.5139672 -0.11241297 0
-2.6507206 -1.4447553 -0.18404865 0
-2.5291791 -1.4818422 -0.17422441 0
-2.4628842 -1.4403816 -0.1851683 0
-2.3500552 -1.4493488 -0.17990518 0
-1.9532875 -1.467731 -0.2 0
-1.8260678 -1.480679 -0.18175687 0
-1.7452797 -1.4131316 -0.18559478 0
-1.6413977 -1.465822 -0.16876951 0
-1.576 -1.493 -0.125 0
-1.4427273 -1.469115 -0.1866475 0
-1.3897274 -1.418115 -0.1951475 0
-1.179 -1.473 -0.126 0
-1.0380001 -1.4665 -0.139 0
-0.95499998 -1.471 -0.127 0
-0.81599998 -1.472 -0.119 0
-0.75325 -1.4654999 -0.12525 0
-0.64950001 -1.461 -0.11875001 0
-0.54449999 -1.4575 -0.11674999 0
-0.46950001 -1.4614999 -0.112 0
-0.37799999 -1.45 -0.116 0
0.63325679 -1.4595878 -0.11461215 0
0.96384692 -1.447243 -0.10513954 0
1.1945866 -1.4483114 -0.12627532 0
3.1879284 -1.4259239 -0.10749766 0
-2.5378137 -1.3875035 -0.19636577 0
-2.3965895 -1.398921 -0.1961122 0
-2.2570221 -1.3879396 -0.19976208 0
-1.8526356 -1.3956816 -0.2 0
-1.7816964 -1.3449013 -0.2 0
-1.6479957 -1.3317921 -0.19021636 0
-1.5336221 -1.3651526 -0.18258691 0
1.091 -1.317 -0.154 0
1.1427933 -1.3826557 -0.14013766 0
1.7622091 -1.3583287 -0.11706939 0
1.8600866 -1.3419541 -0.12493674 0
1.9693593 -1.3510948 -0.12767607 0
2.0632412 -1.3435174 -0.13194112 0
2.1656125 -1.3251523 -0.13795993 0
2.2320001 -1.329 -0.141 0
2.9460001 -1.3099999 -0.141 0
3.0266428 -1.3486413 -0.12983255 0
3.1072857 -1.3872826 -0.11866511 0
3.276 -1.326 -0.111 0
3.3595052 -1.35692 -0.10216571 0
-1.7107571 -1.294121 -0.2 0
-1.6398178 -1.2433407 -0.2 0
-1.5507119 -1.2504526 -0.19483791 0
-1.4474488 -1.2846609 -0.19363476 0
1.1097628 -1.2795256 -0.15337287 0
1.6446627 -1.2683986 -0.1390208 0
1.7455434 -1.2581438 -0.13746838 0
1.8278234 -1.2445853 -0.13340846 0
1.9209079 -1.2415174 -0.13510779 0
2.0209594 -1.2383485 -0.13838217 0
2.1477396 -1.2422554 -0.128029 0
2.2650001 -1.276 -0.14300001 0
2.3145695 -1.2327402 -0.14597674 0
2.4621489 -1.221601 -0.10689604 0
3.1306181 -1.2175121 -0.10101765 0
-1.5688787 -1.1925606 -0.2 0
-1.4918976 -1.1690032 -0.19895948 0
1.5399108 -1.1347687 -0.14315619 0
1.6455818 -1.161956 -0.13995861 0
1.7779539 -1.1507587 -0.13730389 0
1.8731756 -1.1496091 -0.13882929 0
1.9726149 -1.1409672 -0.13187385 0
2.0619633 -1.1499304 -0.13089998 0
2.1408896 -1.1744536 -0.14332372 0
2.2341857 -1.1515851 -0.14260465 0
2.3480744 -1.1668005 -0.12344802 0
2.5293334 -1.1087934 -0.11441484 0
2.6535833 -1.1627159 -0.10557041 0
2.888 -1.1289999 -0.13500001 0
2.9688728 -1.158504 -0.12367256 0
3.0703728 -1.153504 -0.12017256 0
3.1719592 -1.1476055 -0.11747532 0
3.2529182 -1.1762111 -0.10695063 0
-1.427 -1.091 -0.2 0
1.4367375 -1.0628381 -0.14460933 0
1.635 -1.0599999 -0.13949999 0
1.7253919 -1.0608697 -0.13927643 0
1.8223681 -1.0535487 -0.13586418 0
1.9098935 -1.0648103 -0.13448179 0
2.0010695 -1.0702401 -0.14297675 0
2.1537366 -1.0105348 -0.13913332 0
2.2464166 -1.0184741 -0.13555185 0
2.3636665 -1.0368967 -0.12620743 0
2.4465001 -1.072845 -0.12031113 0
-1.447 -1 -0.2 0
1.2647822 -0.94295377 -0.14703123 0
1.3335643 -0.99090749 -0.14606248 0
1.5945239 -0.90799534 -0.14148402 0
1.6749656 -0.95227891 -0.14003615 0
1.7578233 -0.97969025 -0.13806361 0
1.8455348 -0.98962009 -0.14148837 0
1.9264946 -0.91121393 -0.13965333 0
2.0401154 -0.96087432 -0.13939333 0
2.1780334 -0.95914769 -0.13696726 0
1.196 -0.89499998 -0.148 0
1.4479144 -0.82719719 -0.14409041 0
1.521219 -0.86759627 -0.14278722 0
1.658108 -0.84325445 -0.1409018 0
1.7260995 -0.83821607 -0.14002006 0
1.8507472 -0.87810695 -0.13982667 0
1.228 -0.70599997 -0.148 0
1.3572572 -0.74882382 -0.14604855 0
1.4769926 -0.73242188 -0.14431146 0
1.5552734 -0.74720764 -0.14287303 0
1.6421102 -0.74108523 -0.14142947 0
1.7265998 -0.75381064 -0.14006647 0
1.251 -0.62400001 -0.1485 0
1.3280684 -0.64105195 -0.14696826 0
1.4444264 -0.64556468 -0.14484966 0
1.5767593 -0.66833031 -0.14272206 0
1.6628343 -0.61365092 -0.14141159 0
1.7442006 -0.64299059 -0.14004695 0
-1.534 -0.50199997 -0.199 0
1.2615 -0.55500001 -0.148 0
1.3468783 -0.5365814 -0.14668143 0
1.4271337 -0.52866036 -0.14536464 0
1.544984 -0.57115567 -0.14338811 0
-1.5508013 -0.42599976 -0.19641441 0
1.27 -0.472 -0.148 0
2.749382 -0.40146083 -0.1328107 0
2.8375795 -0.41295522 -0.13192652 0
2.9278884 -0.42472482 -0.13102117 0
2.132 -0.32100001 -0.139 0
2.2201974 -0.33249441 -0.13811581 0
2.3524935 -0.34973601 -0.13678953 0
2.4847898 -0.36697763 -0.13546325 0
2.5729871 -0.37847203 -0.13457908 0
2.6611845 -0.38996643 -0.13369489 0
2.7229793 -0.20560974 -0.13471052 0
2.8125477 -0.21183971 -0.13409774 0
2.9375582 -0.22053483 -0.13324249 0
2.096 -0.162 -0.139 0
2.1855683 -0.16822997 -0.13838722 0
2.2751369 -0.17445992 -0.13777444 0
2.3647053 -0.18068989 -0.13716166 0
2.4542737 -0.18691984 -0.13654886 0
2.5438423 -0.19314981 -0.13593608 0
2.6334107 -0.19937977 -0.1353233 0
2.043 -0.035 -0.13699999 0
2.1334333 -0.036765989 -0.13671365 0
2.2238665 -0.038531981 -0.13642734 0
2.3411386 -0.031343631 -0.13604568 0
2.4499602 -0.042493328 -0.13571155 0
2.5587547 -0.054852691 -0.1353773 0
2.6760333 -0.047361925 -0.13499567 0
2.7664666 -0.049127914 -0.13470934 0
2.8569 -0.050893903 -0.13442302 0
2.9585555 -0.041439928 -0.13409112 0
3 -0.088 -0.134 0
1.98 0.085000001 -0.13500001 0
2.0684397 0.088445708 -0.13385144 0
2.1568794 0.091891408 -0.13270287 0
2.2453194 0.095337115 -0.13155431 0
2.3337591 0.098782822 -0.13040572 0
-3.4509182 0.18913881 -0.19933318 0
-2.2753139 0.19907784 -0.18889518 0
-2.1854513 0.19066228 -0.18531615 0
-2.050657 0.17803892 -0.17994758 0
-1.9158628 0.16541557 -0.17457904 0
-1.8205 0.178 -0.171 0
1.6535 0.134 -0.13350001 0
1.7440214 0.14011621 -0.13243522 0
1.834543 0.14623246 -0.13137046 0
1.9250646 0.15234868 -0.13030566 0
2.0434177 0.16842592 -0.12878855 0
2.1513157 0.16811593 -0.12766449 0
2.2490749 0.14855869 -0.12680885 0
2.385015 0.156303 -0.12514935 0
2.4489202 0.1318472 -0.12665009 0
2.5586619 0.12714098 -0.12600178 0
2.6652589 0.14178282 -0.12390573 0
2.75 0.115 -0.125 0
-2.5363488 0.25375968 -0.19880366 0
-2.4468677 0.24428974 -0.19532821 0
-2.3573866 0.23481977 -0.19185275 0
-2.2604971 0.25162178 -0.18785942 0
-2.1676328 0.26674888 -0.18456021 0
-2.0787246 0.25518665 -0.18117015 0
-1.9612441 0.23225774 -0.17664403 0
-1.8612989 0.26472449 -0.17292918 0
-1.789 0.28299999 -0.17 0
1.619 0.23199999 -0.133 0
1.7537071 0.24792385 -0.13142197 0
1.8884141 0.26384768 -0.12984392 0
1.9782189 0.27446356 -0.1287919 0
2.0680237 0.28507945 -0.12773988 0
2.1578283 0.29569536 -0.12668785 0
2.2799134 0.20248705 -0.1258374 0
2.3703296 0.20955664 -0.12481418 0
2.4607458 0.21662623 -0.12379094 0
2.551162 0.2236958 -0.12276772 0
2.619 0.229 -0.122 0
-2.5187359 0.34280065 -0.19826575 0
-2.4435709 0.37160048 -0.19518252 0
-2.3296897 0.34402043 -0.19086267 0
-2.2412415 0.33043367 -0.18746889 0
-2.1417184 0.34129354 -0.18351735 0
-2.0581012 0.35615039 -0.18034908 0
-1.9536219 0.36055699 -0.17457384 0
-1.8598908 0.36749411 -0.17020628 0
-1.7497967 0.34078944 -0.16705811 0
-1.6410002 0.34366667 -0.16133334 0
1.58 0.33700001 -0.132 0
1.6682743 0.35374168 -0.13098535 0
1.7565485 0.37048334 -0.1299707 0
1.8448228 0.387225 -0.12895606 0
1.952 0.317 -0.12800001 0
2.0364468 0.3289167 -0.12711729 0
2.1208935 0.34083343 -0.12623456 0
2.247587 0.3412427 -0.12515226 0
2.3558359 0.34675533 -0.1240851 0
2.4429617 0.35802165 -0.12311773 0
2.5336826 0.35971963 -0.12215992 0
-2.5481634 0.47208065 -0.19856015 0
-2.4199944 0.44924515 -0.19380824 0
-2.3423979 0.46314415 -0.18820108 0
-2.2545357 0.44587612 -0.18492594 0
-2.1666734 0.42860812 -0.18165082 0
-2.058321 0.44646016 -0.17472453 0
-1.9432061 0.45296091 -0.1705206 0
-1.8416066 0.45621777 -0.16753146 0
-1.7557081 0.43527326 -0.16464713 0
-1.6524644 0.43699312 -0.16214418 0
-1.523 0.405 -0.15800001 0
1.9330971 0.40396667 -0.12794141 0
2.0213714 0.42070833 -0.12692676 0
2.1537826 0.44582081 -0.12540479 0
2.2861938 0.47093332 -0.12388283 0
2.3744683 0.48767495 -0.12286818 0
-2.4100001 0.505 -0.18799999 0
-2.3289664 0.56516069 -0.18401569 0
-2.2518914 0.56583691 -0.18133622 0
-2.142046 0.52933145 -0.17768744 0
-2.0526402 0.56724 -0.17716306 0
-1.9464259 0.53035724 -0.17439449 0
-1.8691752 0.55971432 -0.17849374 0
-1.7650331 0.54031557 -0.17900001 0
-1.6603892 0.58852786 -0.18159054 0
-1.58 0.55699998 -0.182 0
2.45 0.50199997 -0.122 0
-2.2406268 0.66697305 -0.18098125 0
-2.1511278 0.64120507 -0.18046874 0
-2.0369887 0.66082263 -0.18042132 0
-1.9394137 0.65173012 -0.18053019 0
-1.8344536 0.62740099 -0.18079527 0
-1.7513893 0.65152788 -0.18059054 0
1.427 0.64499998 -0.132 0
1.5294578 0.65016729 -0.13047945 0
1.6109155 0.68633455 -0.12895891 0
1.7509999 0.653 -0.13150001 0
1.8559195 0.64354509 -0.13007957 0
1.9358389 0.67309022 -0.12815914 0
-2.1602931 0.74985409 -0.17913234 0
-2.0623353 0.74616712 -0.17954329 0
-1.9593498 0.74316019 -0.17932273 0
-1.846591 0.75060701 -0.17925839 0
-1.7447323 0.75703859 -0.17912765 0
-1.692 0.79799998 -0.17900001 0
1.4830984 0.71528924 -0.13051993 0
1.5601969 0.75457847 -0.12903985 0
1.6735562 0.76345652 -0.12866604 0
1.7738311 0.75866908 -0.12591782 0
1.8432875 0.75818485 -0.12706925 0
1.9485736 0.78771818 -0.12581046 0
2.0557179 0.71740782 -0.12527849 0
2.1755972 0.76172549 -0.12239785 0
2.2555168 0.79127055 -0.12047742 0
-3.3216562 0.89410895 -0.19040895 0
-3.2347708 0.87007266 -0.19060597 0
-3.1478856 0.84603631 -0.19080298 0
-3.0325 0.85150003 -0.19049999 0
-2.1243677 0.84761381 -0.17767181 0
-2.0470762 0.825405 -0.17798756 0
-1.9622421 0.85495406 -0.1772842 0
-1.844772 0.8460902 -0.17777291 0
-1.7635758 0.83297449 -0.17838998 0
-1.645 0.87300003 -0.178 0
-1.535091 0.85781479 -0.17654127 0
-1.4455 0.85249996 -0.177 0
1.267 0.847 -0.13 0
1.3398144 0.89614975 -0.12842235 0
1.627 0.86699998 -0.1295 0
1.7443407 0.84970528 -0.12685038 0
1.8319235 0.84162581 -0.12663704 0
1.9195659 0.85322118 -0.12366614 0
2.045975 0.84610844 -0.12259585 0
2.112 0.85799998 -0.122 0
2.3169999 0.81400001 -0.119 0
-3.6691978 0.99025422 -0.18962087 0
-3.5823123 0.96621788 -0.18981789 0
-3.4519844 0.93016344 -0.19011341 0
-3.3431067 0.98400825 -0.18680948 0
-3.2583301 0.95825619 -0.18760711 0
-3.1735535 0.93250412 -0.18840474 0
-3.0497108 0.94576132 -0.18993136 0
-2.9248226 0.95988536 -0.19183017 0
-2.839 0.935 -0.193 0
-2.0525 0.94450003 -0.176 0
-1.9425149 0.92041075 -0.17686492 0
-1.853096 0.98707676 -0.17611961 0
-1.7508202 0.94877863 -0.17642824 0
-1.6505131 0.94369775 -0.17628391 0
-1.5827658 0.96376181 -0.17702824 0
-1.4997658 0.93576181 -0.17652823 0
-1.4 0.96899998 -0.177 0
1.179 0.95999998 -0.13 0
1.2590096 0.93105066 -0.12917399 0
1.4490361 0.96987438 -0.12605588 0
1.5566667 0.95433336 -0.12733333 0
1.6535139 0.95898581 -0.12608796 0
1.7506834 0.94329321 -0.12474337 0
1.8405297 0.9511553 -0.12338209 0
1.9430904 0.9600299 -0.12168505 0
2.0568311 0.91616905 -0.12041782 0
2.1895599 0.94325268 -0.11815755 0
-3.9364271 1.0641816 -0.18901491 0
-3.8429685 1.0383269 -0.18922682 0
-3.756083 1.0142906 -0.18942384 0
-3.6822138 1.0870166 -0.18361895 0
-3.5550485 1.0483885 -0.18481541 0
-3.4278836 1.0097604 -0.18601185 0
-3.3539348 1.084312 -0.18598107 0
-3.2681124 1.0594267 -0.18715088 0
-3.1700354 1.0620346 -0.18690199 0
-3.0861607 1.0350039 -0.18807301 0
-2.9481223 1.0407904 -0.1879776 0
-2.8570001 1.058 -0.18799999 0
-1.9350019 1.0617478 -0.17468511 0
-1.827455 1.0290741 -0.17470634 0
-1.7458276 1.0567149 -0.17561336 0
-1.6412971 1.0272855 -0.17558469 0
-1.5418692 1.0624489 -0.17655528 0
-1.4609483 1.0254198 -0.17627932 0
-1.375 1.002 -0.176 0
1.073 1.057 -0.13 0
1.1620559 1.0414066 -0.12892669 0
1.2460393 1.0146044 -0.12810776 0
1.3385583 1.0392058 -0.12645575 0
1.4520191 1.070768 -0.12501468 0
1.5609628 1.0441803 -0.12467085 0
1.6611176 1.0646935 -0.12311906 0
1.751019 1.032145 -0.12268484 0
1.8506174 1.0477213 -0.12117819 0
1.9533918 1.0091892 -0.12067285 0
2.0593557 1.0617523 -0.11839714 0
-3.7479999 1.107 -0.183 0
-3.6287012 1.1639841 -0.18223579 0
-3.5255799 1.1340827 -0.1836414 0
-3.4216599 1.1431265 -0.18338887 0
-3.3216352 1.1478796 -0.18313876 0
-3.2397082 1.1187037 -0.18431102 0
-3.142041 1.1671836 -0.18486768 0
-3.0198805 1.1203907 -0.1862101 0
-2.8185167 1.1950127 -0.18575601 0
-2.7379999 1.16 -0.186 0
-1.909 1.138 -0.17399999 0
-1.8653101 1.151883 -0.17425036 0
-1.7828286 1.1188092 -0.17464113 0
-1.6488714 1.1376746 -0.17625637 0
-1.5419407 1.1261568 -0.1743222 0
-0.73799998 1.1799999 -0.161 0
0.91399997 1.199 -0.13 0
1.0588483 1.1456611 -0.12973887 0
1.1645105 1.1458192 -0.12663564 0
1.2582234 1.1266265 -0.12570681 0
1.3558174 1.1674179 -0.12362783 0
1.4510803 1.1610212 -0.1228106 0
1.5462061 1.1452574 -0.12238508 0
1.6456118 1.1529368 -0.1212826 0
1.7368419 1.1560782 -0.12011812 0
1.8476226 1.1396852 -0.11929157 0
1.9727074 1.1466662 -0.11653429 0
2.0500488 1.1917994 -0.11424114 0
2.908 1.191 -0.112 0
-3.5409999 1.226 -0.18000001 0
-3.4562855 1.2412994 -0.18126482 0
-3.3456416 1.245172 -0.1826303 0
-3.2642014 1.2139766 -0.18352525 0
-2.9795506 1.265038 -0.18526803 0
-2.8990338 1.2300253 -0.18551202 0
-2.7006369 1.2956374 -0.184 0
-2.622 1.257 -0.184 0
-1.8216045 1.2645254 -0.17487907 0
-1.7484072 1.2435285 -0.17413983 0
-1.6421051 1.2006509 -0.17331553 0
-0.75271535 1.2702823 -0.15996781 0
-0.6595 1.244 -0.15900001 0
0.852 1.234 -0.12899999 0
0.96673614 1.2643987 -0.12673645 0
1.1453931 1.2376447 -0.12595549 0
1.2295554 1.2668025 -0.12335226 0
1.3404917 1.2683679 -0.12181399 0
1.446686 1.2743214 -0.12003912 0
1.5512 1.2516471 -0.11972897 0
1.6452602 1.2530658 -0.11881739 0
1.7284595 1.2507997 -0.11858098 0
1.8366607 1.2584504 -0.11685717 0
1.9069999 1.216 -0.117 0
2.1273904 1.2369326 -0.111948 0
2.2047319 1.2820659 -0.10965485 0
2.9861047 1.2256327 -0.10852224 0
3.0642092 1.2602654 -0.10504449 0
3.142314 1.2948979 -0.10156673 0
-3.494 1.302 -0.18099999 0
-3.2211015 1.3700759 -0.18453605 0
-3.1405845 1.3350633 -0.18478005 0
-3.0600677 1.3000506 -0.18502404 0
-2.8579106 1.372912 -0.184 0
-2.7792737 1.3342746 -0.184 0
-1.9598881 1.3522711 -0.17640011 0
-1.889923 1.3183308 -0.17399999 0
-1.2045076 1.3603179 -0.16792403 0
-1.148 1.3235 -0.168 0
-1.087 1.355 -0.16599999 0
-0.84546602 1.3475654 -0.15998137 0
-0.76188868 1.362077 -0.15868616 0
-0.6355015 1.3533323 -0.15613648 0
-0.54277563 1.3415079 -0.15447591 0
-0.45100001 1.3559999 -0.15099999 0
-0.38600001 1.3789999 -0.148 0
0.27399999 1.362 -0.13 0
0.31200001 1.386 -0.12899999 0
0.46599999 1.395 -0.124 0
0.56300002 1.3594999 -0.12549999 0
0.64050001 1.3599999 -0.125 0
0.9273566 1.3373399 -0.12481351 0
1.0332086 1.3531959 -0.12320935 0
1.194 1.396 -0.12 0
1.2495573 1.3472579 -0.12098219 0
1.3488384 1.3454989 -0.11972185 0
1.474013 1.3590335 -0.11814022 0
1.5443639 1.3421354 -0.11743916 0
1.6614031 1.3589537 -0.11618935 0
1.7594351 1.3395883 -0.11571765 0
1.806354 1.3584198 -0.11393641 0
1.9488113 1.3265946 -0.1130712 0
2.022613 1.3766937 -0.11091641 0
2.2820733 1.3271991 -0.1073617 0
2.3280001 1.354 -0.106 0
2.7219999 1.348 -0.108 0
2.8023176 1.38732 -0.10401557 0
-3.3605845 1.43073 -0.18411338 0
-3.054503 1.4695053 -0.184 0
-2.9365475 1.4115493 -0.184 0
-2.6282918 1.4950032 -0.18246008 0
-2.555146 1.4525017 -0.18323004 0
-2.4820001 1.41 -0.184 0
-2.1280522 1.4738293 -0.17591548 0
-2.0537901 1.4218118 -0.17586932 0
-1.3095229 1.4769537 -0.16577208 0
-1.2492161 1.4411957 -0.16599625 0
-1.171545 1.4308125 -0.16488266 0
-1.0291952 1.4439075 -0.16124548 0
-0.96548045 1.4551694 -0.16099976 0
-0.85525912 1.488718 -0.15879078 0
-0.74445695 1.436227 -0.15655644 0
-0.6359908 1.4455028 -0.1542899 0
-0.53489369 1.4723951 -0.15130579 0
-0.44000143 1.4346597 -0.14471558 0
-0.32898062 1.4331579 -0.14087507 0
-0.26199472 1.4529684 -0.13700528 0
0.29072949 1.4564407 -0.12514305 0
0.3306542 1.4685678 -0.12578903 0
0.44870013 1.4514596 -0.12302334 0
0.56200558 1.4483752 -0.12202206 0
0.64126515 1.4491501 -0.12185618 0
0.74072909 1.4715134 -0.12112429 0
0.87800002 1.472 -0.121 0
0.96399999 1.457 -0.121 0
1.0563347 1.4313169 -0.12056378 0
1.1438379 1.4654347 -0.11854628 0
1.2480917 1.4515516 -0.11742928 0
1.3478076 1.446774 -0.11594318 0
1.4416254 1.4569833 -0.11565602 0
1.5450845 1.4254971 -0.11561038 0
1.6269848 1.4444854 -0.11395781 0
1.7009289 1.4810965 -0.11244726 0
1.8581656 1.4320893 -0.11186413 0
1.9492955 1.4641877 -0.10951097 0
2.096415 1.4267927 -0.1087616 0
2.1840723 1.4862972 -0.10620227 0
2.6538258 1.4725454 -0.10372915 0
2.8826354 1.4266402 -0.10003114 0
-3.2540476 1.5675493 -0.184 0
-3.1724582 1.5274614 -0.184 0
-2.7380109 1.5587556 -0.18130514 0
-2.2531841 1.5570079 -0.17664111 0
-2.1856151 1.5276536 -0.17399999 0
-1.3656212 1.5635943 -0.163995 0
-1.2697625 1.5495356 -0.16274226 0
-1.1188164 1.530802 -0.15100713 0
-0.92153329 1.5172285 -0.15858096 0
-0.84231412 1.542836 -0.15686348 0
-0.75804949 1.5608473 -0.15470345 0
-0.66439354 1.552552 -0.15340292 0
-0.55089372 1.5458951 -0.15013914 0
-0.43208998 1.5538707 -0.12563282 0
-0.35690311 1.5657898 -0.12437543 0
-0.27998942 1.5609367 -0.11901055 0
0.34826165 1.5462272 -0.1225156 0
0.44572312 1.5575597 -0.12026802 0
0.55232263 1.5526553 -0.11881526 0
0.66895807 1.5452621 -0.11830159 0
0.77473861 1.5681342 -0.11721009 0
0.83242834 1.5520732 -0.11748658 0
0.93673146 1.5626142 -0.11722441 0
1.0363806 1.5355676 -0.11714754 0
1.1438223 1.5623044 -0.11468688 0
1.2520086 1.5577115 -0.11368792 0
1.3470001 1.5193334 -0.115 0
1.479908 1.537966 -0.11351114 0
1.5746937 1.5086794 -0.11349282 0
1.6607512 1.5462786 -0.11112989 0
1.7565794 1.5610691 -0.10963321 0
1.8353004 1.595535 -0.10822617 0
1.943633 1.5348438 -0.10900572 0
2.0757508 1.5577569 -0.10559595 0
2.2647393 1.5413638 -0.10228115 0
-2.9389377 1.6755049 -0.17919013 0
-2.8477297 1.6225082 -0.18015023 0
-2.4073839 1.6846457 -0.17399999 0
-2.333461 1.6323149 -0.17399999 0
-1.3285 1.608 -0.162 0
-0.94530129 1.6575354 -0.15637562 0
-0.83080012 1.6457357 -0.15286452 0
-0.72935659 1.644439 -0.14934978 0
-0.68102318 1.6143323 -0.14575787 0
-0.454 1.637 -0.115 0
-0.366 1.609 -0.119 0
0.36701998 1.63421 -0.11818768 0
0.45407501 1.6710117 -0.11696427 0
0.55161166 1.6524643 -0.11570259 0
0.64440459 1.6519647 -0.11474446 0
0.74805737 1.6549356 -0.11390237 0
0.83099568 1.6390195 -0.11382269 0
0.94034308 1.6681036 -0.11212194 0
1.0550954 1.6640649 -0.11230327 0
1.1538087 1.6691198 -0.10975137 0
1.227509 1.639408 -0.11101009 0
1.3377733 1.6573031 -0.11076134 0
1.566862 1.6334488 -0.10976671 0
1.7351273 1.6572291 -0.10755084 0
1.8074529 1.643187 -0.10671563 0
1.9261621 1.6729182 -0.10537187 0
2.0489199 1.6169375 -0.10600229 0
2.1417856 1.6481144 -0.10186654 0
2.5370426 1.6510015 -0.10342041 0
-2.5552301 1.789307 -0.17399999 0
-2.481307 1.7369764 -0.17399999 0
-1.0060821 1.7592566 -0.15480098 0
-0.87660009 1.7395518 -0.15064839 0
-0.73753476 1.7359985 -0.1291368 0
0.38574237 1.7378997 -0.11339799 0
0.44401747 1.7549366 -0.11394397 0
0.55039239 1.7413459 -0.1123424 0
0.63918293 1.7588587 -0.11083386 0
0.75366706 1.7519537 -0.11006346 0
0.84392029 1.744512 -0.10973084 0
0.94940495 1.7555945 -0.10753135 0
1.194 1.7029999 -0.11 0
1.2728175 1.7192667 -0.10822569 0
1.3575913 1.7350911 -0.10762942 0
1.4487401 1.7934591 -0.10303092 0
1.653816 1.7289319 -0.10602228 0
1.7117853 1.7925873 -0.10352599 0
1.8599724 1.7253103 -0.10410032 0
2.4000001 1.729 -0.104 0
-2.5999999 1.821 -0.17399999 0
-1.7073699 1.8986479 -0.15537323 0
-1.647 1.831 -0.155 0
-1.0369999 1.811 -0.154 0
0.45389992 1.8509371 -0.1099891 0
0.55502641 1.8523426 -0.10914683 0
0.65083271 1.8484145 -0.10729273 0
0.75838232 1.8429439 -0.10510703 0
0.86022902 1.85429 -0.10538433 0
0.95933104 1.8418502 -0.10415892 0
1.0314083 1.8303322 -0.10383321 0
1.356624 1.8459703 -0.10319591 0
1.4355336 1.8628144 -0.10009685 0
1.607 1.853 -0.102 0
1.724 1.806 -0.103 0
-1.7677399 1.9662958 -0.15574646 0
0.45758024 1.937964 -0.104985 0
0.5620333 1.9494734 -0.10647613 0
0.6524924 1.9493246 -0.10474962 0
0.74867934 1.9616792 -0.10310286 0
0.84172535 1.9512199 -0.10237036 0
0.94467145 1.9510001 -0.10085884 0
1.0664296 1.9423833 -0.10052817 0
-1.8281097 2.0339437 -0.15611969 0
0.54304683 2.0037115 -0.10432748 0
0.80900002 2.0050001 -0.101 0
0.9198547 2.0107908 -0.10106584 0
-1.9488497 2.1692395 -0.15686615 0
-1.8884797 2.1015916 -0.15649292 0
-2.0092196 2.2368875 -0.15723938 0
-2.1299596 2.3721833 -0.15798584 0
-2.0695896 2.3045356 -0.15761261 0
-2.1903296 2.4398313 -0.15835907 0
-2.2723498 2.5317397 -0.15886614 0
-6.2739034 3.2698324 -0.1987102 0
-6.5126457 3.3915319 -0.17573632 0
-6.4330649 3.3509655 -0.18339428 0
-6.3534842 3.3103991 -0.19105224 0
-6.645 3.4590001 -0.163 0
-6.592226 3.4320986 -0.16807836 0
-6.1278224 3.5808716 -0.19053963 0
-6.049685 3.5355597 -0.19678304 0
-5.7688575 3.5673127 -0.1903023 0
-6.2450275 3.6488395 -0.18117455 0
-5.9200964 3.6621878 -0.16783716 0
-5.8444767 3.6147501 -0.17906973 0
-6.4626856 3.7750597 -0.16378303 0
-6.3622332 3.7168071 -0.17180946 0
-6.0713348 3.7570629 -0.14537203 0
-5.9957156 3.7096252 -0.15660459 0
-6.2592869 3.874969 -0.11745344 0
-6.1469541 3.8045003 -0.13413945 0
0.075999998 -2.8180001 -0.046 0
0.075084671 -2.7318287 -0.034623809 0
0.98000002 -2.721 -0.071999997 0
0.074169345 -2.6456573 -0.023247616 0
0.435 -2.622 -0.063000001 0
0.94976681 -2.6382322 -0.063723229 0
-0.111 -2.573 -0.059 0
0.073254019 -2.5594859 -0.011871424 0
0.42312869 -2.5425534 -0.065739535 0
0.79077172 -2.5297294 -0.059500717 0
0.92553234 -2.5536585 -0.061305359 0
-0.10645472 -2.486115 -0.061534874 0
0.072338693 -2.4733145 -0.00049523264 0
0.40900001 -2.448 -0.068999998 0
0.76261955 -2.434716 -0.062834524 0
0.89080912 -2.459573 -0.052036304 0
-0.10170925 -2.3954034 -0.064181387 0
-0.096963771 -2.304692 -0.066827893 0
0.73869568 -2.3539727 -0.065667622 0
0.84395063 -2.3485451 -0.034754533 0
-0.16174202 -2.235733 -0.0045616333 0
-0.092218295 -2.2139804 -0.069474414 0
0.25667626 -2.2462528 -0.0057978742 0
0.75668627 -2.2488117 -0.045420047 0
-2.2483935 -2.1069674 -0.099252984 0
-0.17547894 -2.1235583 -0.023909433 0
-0.087472826 -2.1232691 -0.07212092 0
0.24190986 -2.1115611 -0.019598253 0
0.35158706 -2.1836669 -0.00075120479 0
0.67888588 -2.1521149 -0.07275036 0
0.76836759 -2.1416261 -0.01406261 0
0.99593103 -2.1448569 -0.044008352 0
-0.94841146 -2.0160892 -0.07369931 0
-0.48102099 -2.0792089 -0.097979166 0
-0.2373853 -2.0029597 -0.0013909265 0
-0.16111577 -2.024575 -0.030883554 0
-0.064863682 -2.0222788 -0.08488372 0
0.0089999996 -2.04 -0.071000002 0
0.23206559 -2.0217667 -0.028798502 0
0.33103949 -2.0522919 -0.015797853 0
0.64300001 -2.0309999 -0.077 0
0.73813438 -2.0588584 -0.0057858452 0
0.84196568 -2.0371335 -0.051589832 0
0.95126247 -2.0665941 -0.052282602 0
1.358 -2.0120001 -0.023000002 0
-2.5569286 -1.9562674 -0.021436064 0
-1.3265066 -1.9314137 -0.038209736 0
-1.0341493 -1.9283481 -0.081207715 0
-0.9135586 -1.9600165 -0.080410101 0
-0.87041807 -1.9183011 -0.090998441 0
-0.7458331 -1.936205 -0.09450338 0
-0.52268642 -1.9573292 -0.085635662 0
-0.45846456 -1.9823583 -0.097821429 0
-0.26320511 -1.9316168 -0.030674458 0
-0.15351313 -1.9378126 -0.038902961 0
-0.06179671 -1.9509587 -0.086114407 0
0.0084916633 -1.9447718 -0.073541686 0
0.22222133 -1.9319723 -0.037998755 0
0.31049192 -1.9209168 -0.030844502 0
0.79536968 -1.9213716 -0.056868281 0
0.87772065 -1.9398153 -0.047166951 0
0.92558432 -1.9878521 -0.052807055 0
1.2623699 -1.9105177 -0.02678328 0
1.3371887 -1.9663024 -0.023929022 0
-2.646142 -1.8429842 -0.051393986 0
-2.4405587 -1.8621631 -0.0472386 0
-2.3717358 -1.8297493 -0.043118604 0
-1.503 -1.882 -0.071000002 0
-1.4642692 -1.8331083 -0.077574678 0
-1.3099999 -1.8049999 -0.046999998 0
-1.2786702 -1.8349539 -0.05917852 0
-0.98191547 -1.8329133 -0.095346183 0
-0.85768652 -1.8439233 -0.091522411 0
-0.70464802 -1.8528123 -0.091872886 0
-0.65772867 -1.8306736 -0.080969058 0
-0.57242256 -1.864222 -0.078941248 0
-0.44680429 -1.8577868 -0.095940433 0
-0.25055212 -1.8353246 -0.036852755 0
-0.1459105 -1.85105 -0.046922371 0
-0.058289677 -1.8631803 -0.087286428 0
0.0078121191 -1.8174703 -0.076939404 0
0.2545853 -1.8377557 -0.044037305 0
0.78018802 -1.828177 -0.072339162 0
0.84516257 -1.8504711 -0.066642404 0
1.1888187 -1.8423345 -0.072461352 0
1.237172 -1.851957 -0.034621183 0
1.612 -1.8049999 -0.0050000027 0
1.8664852 -1.8189918 -0.067787036 0
1.9344916 -1.8837097 -0.064235449 0
-2.6091485 -1.7973981 -0.072153106 0
-2.5416234 -1.7588869 -0.063902594 0
-2.4735312 -1.7015307 -0.096537471 0
-2.3188484 -1.7740843 -0.065545082 0
-2.2491786 -1.7207675 -0.078436062 0
-1.5512127 -1.7662542 -0.05333671 0
-1.3864685 -1.7348969 -0.090781584 0
-1.2438812 -1.7674109 -0.070133783 0
-1.1870054 -1.726931 -0.075767785 0
-1.0140001 -1.79 -0.071000002 0
-0.96490306 -1.7666473 -0.088402301 0
-0.84441966 -1.7690101 -0.090770237 0
-0.73199999 -1.791 -0.0099999998 0
-0.66173363 -1.762233 -0.092012018 0
-0.55307961 -1.7759842 -0.087601461 0
-0.47316778 -1.7481091 -0.094458781 0
-0.39973226 -1.7301792 -0.097410716 0
-0.23949742 -1.7528267 -0.048139561 0
-0.13830788 -1.7642875 -0.054941777 0
-0.049457025 -1.752113 -0.090274774 0
0.0073590893 -1.7326028 -0.079204552 0
0.24281397 -1.7490668 -0.053652976 0
0.74565041 -1.7481415 -0.077571325 0
0.81326246 -1.7483441 -0.06553261 0
0.94599998 -1.704 -0.037 0
1.1522001 -1.743415 -0.054006588 0
1.2592962 -1.7430273 -0.025964649 0
1.3748987 -1.7574761 -0.019874308 0
1.41638 -1.7294672 -0.066912979 0
1.5546756 -1.731156 -0.024579259 0
1.6485 -1.7045 -0.025999999 0
1.8029873 -1.7585644 -0.071103178 0
2.5432372 -1.7278228 -0.001055669 0
3.7620001 -1.701 -0.027999997 0
-2.4345295 -1.6945446 -0.076103978 0
-2.3628972 -1.6484084 -0.091077983 0
-2.1795089 -1.6674505 -0.091327041 0
-2.0925786 -1.6172498 -0.09903954 0
-1.4570159 -1.6610677 -0.077670887 0
-1.3346014 -1.6694227 -0.099586189 0
-1.2233924 -1.68787 -0.066076547 0
-1.1687832 -1.6503886 -0.084809519 0
-1.0679426 -1.6339173 -0.099014208 0
-0.94035459 -1.6717209 -0.088853449 0
-0.8528589 -1.6482024 -0.09811499 0
-0.65263057 -1.6666882 -0.09828902 0
-0.5458262 -1.6664547 -0.093709923 0
-0.46164185 -1.6383734 -0.094430827 0
-0.38015485 -1.6461195 -0.097273812 0
-0.24443321 -1.6686668 -0.061907746 0
-0.15262409 -1.6762346 -0.06012867 0
-0.050141323 -1.645201 -0.089479223 0
0.0069060596 -1.6477352 -0.081469707 0
0.19268852 -1.662589 -0.065599501 0
0.26939675 -1.6581668 -0.0609378 0
0.69768482 -1.6786858 -0.067934141 0
0.75872821 -1.6648475 -0.079073921 0
0.92498589 -1.6640291 -0.043318927 0
1.0770922 -1.6493938 -0.073525026 0
1.1253463 -1.6416912 -0.057712372 0
1.25133 -1.6285967 -0.041026112 0
1.3282142 -1.6708006 -0.050362032 0
1.4547163 -1.6611465 -0.031601589 0
1.5633103 -1.6489369 -0.04105635 0
1.6425914 -1.6569858 -0.040988557 0
1.748125 -1.6817969 -0.047409993 0
2.3924916 -1.6278818 -0.015703779 0
2.4576378 -1.660447 -0.0087946858 0
2.5374939 -1.6551371 -0.003997419 0
2.8549557 -1.614042 -0.0024173874 0
3.2966535 -1.6134269 -0.0056049889 0
3.3524859 -1.6420387 -0.025262887 0
3.451 -1.691 -0.019999998 0
3.5911424 -1.6191307 -0.051660426 0
3.6717854 -1.6577721 -0.040492982 0
3.7524281 -1.6964134 -0.029325537 0
4.0487733 -1.6121402 -0.029245667 0
-1.3796064 -1.574627 -0.097668357 0
-1.1297975 -1.56129 -0.086692184 0
-1.097 -1.595 -0.1 0
-0.51325613 -1.5451049 -0.098336346 0
-0.4383209 -1.5591867 -0.097215414 0
-0.3605774 -1.5620598 -0.097136907 0
-0.23297773 -1.5603889 -0.075802587 0
-0.13990603 -1.5483085 -0.074782163 0
-0.054298215 -1.556188 -0.088938251 0
0.0064530298 -1.5628676 -0.083734855 0
0.18284427 -1.5727944 -0.074799746 0
0.25569838 -1.5705833 -0.070968904 0
0.66174173 -1.5398846 -0.076089777 0
0.73036784 -1.5633492 -0.074404575 0
0.87270617 -1.5645881 -0.059039388 0
0.99587911 -1.5568897 -0.0896409 0
1.0472389 -1.5692818 -0.074947894 0
1.1522139 -1.5378491 -0.055362791 0
1.2450038 -1.5643948 -0.070249848 0
1.3535026 -1.5471247 -0.054580942 0
1.4563822 -1.552058 -0.057466187 0
1.5563284 -1.5294644 -0.067810245 0
1.6226125 -1.5680172 -0.069368988 0
2.2697258 -1.5359809 -0.028978359 0
2.3495381 -1.5618038 -0.023032447 0
2.4560223 -1.5443206 -0.019370276 0
2.5538516 -1.571251 -0.0093295388 0
2.655586 -1.5344636 -0.01907699 0
2.7424536 -1.5295343 -0.034113299 0
2.8192143 -1.562049 -0.014031831 0
3.0555508 -1.5150731 -0.0085606612 0
3.143877 -1.5389676 -0.052328717 0
3.2230525 -1.5781611 -0.043994464 0
3.3492141 -1.5032067 -0.085162759 0
3.4298568 -1.5418481 -0.073995315 0
3.5104997 -1.5804894 -0.06282787 0
3.7770309 -1.5115203 -0.05799422 0
3.8605361 -1.5424403 -0.049159925 0
3.9440413 -1.5733603 -0.040325627 0
-1.0829999 -1.498 -0.097000003 0
-0.41499999 -1.48 -0.1 0
-0.34099999 -1.478 -0.097000003 0
-0.20999999 -1.498 -0.082000002 0
-0.046500001 -1.457 -0.090000004 0
0.066165976 -1.4796598 -0.085834019 0
0.17299999 -1.483 -0.083999999 0
0.242 -1.483 -0.081 0
0.64233333 -1.4313332 -0.081333339 0
0.82042652 -1.465147 -0.074759841 0
0.94924688 -1.4516127 -0.085622892 0
1.0522244 -1.4806151 -0.072452068 0
1.1381702 -1.4475603 -0.077263691 0
1.2482148 -1.4284893 -0.078537822 0
1.3412277 -1.4502712 -0.076119527 0
1.4578881 -1.4558866 -0.081498384 0
1.5175771 -1.4482508 -0.08056213 0
2.0910001 -1.428 -0.045000002 0
2.1571865 -1.4614853 -0.041837975 0
2.2391071 -1.4584981 -0.03937785 0
2.328213 -1.4345628 -0.040582385 0
2.4406517 -1.44276 -0.03717459 0
2.5810554 -1.4612857 -0.037362974 0
2.6447601 -1.4566466 -0.055169195 0
2.8997755 -1.4360365 -0.037280329 0
2.9565134 -1.4525075 -0.056416404 0
3.0647016 -1.4997741 -0.060662974 0
3.2685714 -1.4645653 -0.096330211 0
3.5265155 -1.4187601 -0.084497109 0
3.6517732 -1.4651401 -0.07124567 0
1.3540001 -1.3975 -0.088 0
1.441 -1.3945 -0.091499999 0
2.268311 -1.3545425 -0.069286525 0
2.348 -1.359 -0.082000002 0
2.4690001 -1.353 -0.086000003 0
2.5213175 -1.3898416 -0.067749172 0
2.6902978 -1.3312019 -0.073792078 0
2.7453334 -1.3523334 -0.075333335 0
2.8245316 -1.3893559 -0.06865295 0
3.0476665 -1.3337417 -0.077518553 0
3.3732364 -1.3060243 -0.06703531 0
3.4485598 -1.3616842 -0.074519634 0
3.5020001 -1.353 -0.048999995 0
3.6743569 -1.3251195 -0.052163586 0
2.2079191 -1.2743242 -0.094126411 0
2.5381985 -1.2581346 -0.095861383 0
2.6142483 -1.2946682 -0.08482673 0
2.7778335 -1.2166383 -0.096725978 0
2.8606668 -1.2525867 -0.090829693 0
2.9435 -1.2885351 -0.0849334 0
3.2519274 -1.2617682 -0.084026486 0
3.3338776 -1.2048167 -0.096425936 0
3.4553161 -1.247725 -0.0806389 0
3.5767548 -1.2906333 -0.064851865 0
3.2594709 1.3468469 -0.096350089 0
3.3766277 1.398796 -0.09113346 0
2.9629531 1.4659601 -0.096046716 0
3.1719999 1.487 -0.090000004 0
3.447 1.4299999 -0.088 0
2.3384788 1.5917276 -0.098562308 0
2.7703037 1.5371814 -0.096916616 0
2.8479557 1.5802721 -0.092374921 0
3.0432706 1.5052801 -0.092062287 0
3.1235886 1.5446002 -0.088077858 0
3.2291939 1.5544803 -0.085995115 0
3.3369637 1.5630808 -0.085793614 0
2.2360857 1.6781057 -0.097770818 0
2.4490879 1.6672733 -0.092984036 0
2.9256074 1.6233628 -0.087833226 0
3.0032592 1.6664535 -0.083291538 0
3.2842238 1.6232402 -0.080109 0
3.3645415 1.6625602 -0.076124564 0
3.4194455 1.6011212 -0.083690412 0
3.5431683 1.6581819 -0.08053562 0
1.2293458 1.7356148 -0.098457076 0
1.9502482 1.7734152 -0.095644362 0
2.0357871 1.7707261 -0.088937476 0
2.1870575 1.7253519 -0.098695375 0
2.2560861 1.7795279 -0.095043056 0
2.3418999 1.7576849 -0.092348933 0
2.4671311 1.7790459 -0.090089947 0
2.5596969 1.7428191 -0.087405771 0
2.6393037 1.7565942 -0.089684278 0
2.7172558 1.7660083 -0.090522438 0
3.0809112 1.7095442 -0.078749843 0
3.1585629 1.7526348 -0.074208155 0
3.2362149 1.7957256 -0.06966646 0
3.4664297 1.7124401 -0.071070075 0
3.6668911 1.7152425 -0.077380829 0
3.749373 1.7532829 -0.075277634 0
3.8318548 1.7913233 -0.073174432 0
1.2826916 1.8082297 -0.089914151 0
1.3360374 1.8808446 -0.081371233 0
1.5044802 1.8629181 -0.098061845 0
1.7858613 1.8668259 -0.095752649 0
1.8928255 1.8068223 -0.092713393 0
1.954651 1.8676445 -0.081426777 0
2.0496206 1.859538 -0.083110899 0
2.1335745 1.8584522 -0.072874948 0
2.3596292 1.8607919 -0.089564592 0
2.4477141 1.8372643 -0.086927041 0
2.5262597 1.8597045 -0.079746172 0
2.6013935 1.8791379 -0.062269833 0
2.7591441 1.8498226 -0.080526859 0
2.8614266 1.8580137 -0.080204062 0
3.3149333 1.8394082 -0.065062381 0
3.9555776 1.8483839 -0.07001964 0
0.65998554 1.9610922 -0.097625181 0
0.82560199 1.9612583 -0.096892774 0
1.221 1.993 -0.097999997 0
1.3601916 1.9542297 -0.08591415 0
1.4504887 1.933773 -0.096188977 0
1.5602204 1.9323773 -0.093092762 0
1.6630578 1.9179304 -0.090438902 0
1.7191157 1.9828607 -0.078877807 0
1.8477226 1.927652 -0.088505298 0
1.9095839 1.9884779 -0.081257947 0
2.0473895 1.958878 -0.06449686 0
2.1738796 1.9312985 -0.066372022 0
2.2639575 1.9754204 -0.051458251 0
2.4631722 1.9420559 -0.08408612 0
2.5605004 1.9698009 -0.080065832 0
2.6639338 1.9628034 -0.062221527 0
2.7356558 1.9792297 -0.034449726 0
2.8698273 1.9546371 -0.071765199 0
2.9335117 1.9040165 -0.07504487 0
3.0039999 1.949 -0.07 0
4.0739999 1.903 -0.067000002 0
0.48949626 2.0436532 -0.098462567 0
0.56115383 2.0628579 -0.095410161 0
0.64071602 2.0656979 -0.095359363 0
0.78305298 2.0729434 -0.092590764 0
0.85651392 2.0171661 -0.091126159 0
0.92418838 2.0652494 -0.097032301 0
1.0424683 2.0448503 -0.09693215 0
1.1308457 2.0169928 -0.097553402 0
1.2390608 2.0742345 -0.086715817 0
1.37901 2.0251684 -0.087494656 0
1.4591455 2.0621629 -0.073110461 0
1.5587863 2.040329 -0.084847279 0
1.6438305 2.0365658 -0.085639141 0
1.7751735 2.047791 -0.067316711 0
1.9714452 2.049304 -0.074010596 0
2.1401277 2.0501115 -0.047566943 0
2.2483654 2.0317836 -0.058043975 0
2.3617449 2.0631466 -0.035395727 0
2.6086149 2.0562038 -0.076390743 0
2.7 2.027 -0.074000001 0
2.8233933 2.0446377 -0.016269837 0
0.54456234 2.157618 -0.087816752 0
0.62638676 2.1428781 -0.088027872 0
0.73147833 2.1276383 -0.087437779 0
0.84677911 2.134474 -0.079290032 0
0.94009799 2.1587849 -0.080259599 0
1.0415618 2.151577 -0.088853955 0
1.1394745 2.18537 -0.074289247 0
1.2555349 2.1564116 -0.075540379 0
1.3117083 2.1365259 -0.075322919 0
1.4750298 2.1655052 -0.064483963 0
1.5585397 2.1397741 -0.074060567 0
1.644758 2.1620433 -0.068251304 0
1.7274407 2.1407547 -0.078185521 0
1.8592603 2.1451864 -0.049975067 0
2.0642371 2.140543 -0.063139565 0
2.2328658 2.141345 -0.030637026 0
2.347738 2.1179063 -0.045510516 0
2.4511294 2.1757987 -0.026122019 0
0.58267003 2.2590508 -0.078583717 0
0.63541514 2.2257991 -0.074196979 0
0.75998032 2.20997 -0.078223333 0
0.82909799 2.258986 -0.07383208 0
0.95894176 2.2606606 -0.066276684 0
1.0473773 2.2689891 -0.067908511 0
1.1297913 2.2375045 -0.081406206 0
1.2993023 2.2291174 -0.064310566 0
1.3570625 2.2082887 -0.063984379 0
1.4024166 2.2800517 -0.052645836 0
1.5230398 2.2356734 -0.05297862 0
1.6362957 2.2473168 -0.06812726 0
1.7503943 2.2386074 -0.074814267 0
1.8622462 2.2534776 -0.076910466 0
1.9433472 2.2425821 -0.032633424 0
2.1570292 2.231782 -0.052268539 0
2.2019999 2.276 -0.046999998 0
2.3239999 2.2309999 -0.013999999 0
0.6400072 2.3485484 -0.057820279 0
0.75484967 2.3355505 -0.06306266 0
0.86063379 2.3392434 -0.064100429 0
0.94602817 2.3811622 -0.052575633 0
1.0469071 2.3518188 -0.05785194 0
1.1689059 2.3499253 -0.064381905 0
1.219949 2.3347399 -0.052578494 0
1.3649536 2.3381763 -0.047465853 0
1.4477708 2.3518147 -0.041307293 0
1.5710498 2.3058419 -0.041473273 0
1.6375861 2.346272 -0.030040808 0
1.739455 2.3633099 -0.044966616 0
1.8496875 2.3660991 -0.0664047 0
1.9580101 2.3317583 -0.052260093 0
2.0239999 2.336 -0.016000003 0
0.66318172 2.4619191 -0.04539609 0
0.74247384 2.4445004 -0.055552579 0
0.84548652 2.4569645 -0.050580006 0
0.94831777 2.4776614 -0.045544587 0
1.0454587 2.4598482 -0.04209299 0
1.1426919 2.4606466 -0.041165601 0
1.2327856 2.4417212 -0.043019932 0
1.3004236 2.4841099 -0.030867748 0
1.4618649 2.4354062 -0.030294947 0
1.5369999 2.493 -0.019000001 0
1.6680349 2.4475894 -0.018231288 0
1.753 2.4200001 -0.044 0
1.808 2.405 -0.016999997 0
0.6667695 2.540025 -0.030008916 0
0.75235349 2.5663228 -0.043097552 0
0.87398851 2.5392959 -0.041365564 0
0.98137075 2.558605 -0.036135353 0
1.0430176 2.5326374 -0.033396713 0
1.1582479 2.5616651 -0.02849327 0
1.2514216 2.5799377 -0.02198492 0
1.337 2.552 -0.020999998 0
1.472 2.516 -0.020000003 0
0.67817509 2.6446271 -0.038959287 0
0.74467719 2.6477497 -0.03560105 0
0.86009532 2.6650345 -0.029416196 0
0.94355571 2.6397123 -0.028837798 0
1.0496386 2.6386752 -0.024680618 0
1.15 2.6199999 -0.022 0
0.74829561 2.7450726 -0.026600396 0
0.833 2.724 -0.024999999 0
0.061000001 -2.914 0.026000001 0
0.75700003 -2.9590001 0.066 0
0.059292331 -2.8255427 0.031009169 0
0.73722529 -2.8806183 0.05974995 0
0.057584658 -2.7370853 0.036018338 0
0.69391894 -2.7089639 0.046062462 0
0.71557212 -2.794791 0.052906204 0
-0.184 -2.609 0.029999999 0
0.055876989 -2.648628 0.041027505 0
0.67226583 -2.6231365 0.03921872 0
-0.18129522 -2.5630188 0.025749629 0
0.054169316 -2.5601707 0.046036676 0
0.65061265 -2.5373092 0.032374978 0
-0.17443451 -2.4463868 0.014968518 0
0.052461646 -2.4717133 0.051045842 0
0.28 -2.4590001 0.016000003 0
0.333 -2.427 0.014 0
0.62895948 -2.4514818 0.025531232 0
-2.6199999 -2.335 0.0060000001 0
-0.16757381 -2.3297548 0.0041874074 0
0.064228468 -2.3571236 0.029731043 0
0.27121496 -2.3752058 0.014229676 0
0.32068527 -2.3380489 0.016035493 0
0.60730636 -2.3656545 0.018687489 0
2.4894037 -2.3300207 0.020053286 0
2.5539999 -2.3889999 0.0080000004 0
-2.5547919 -2.2776515 0.018403009 0
-2.4895842 -2.2203028 0.03080602 0
-0.40200001 -2.23 0.064999998 0
0.055325881 -2.2386467 0.053590294 0
0.26197454 -2.2799339 0.024913695 0
0.35331887 -2.2637801 0.013819556 0
0.58565319 -2.2798274 0.011843745 0
0.98293459 -2.2546167 0.044615578 0
1.001 -2.2980001 0.052000001 0
2.3602111 -2.2120624 0.044159859 0
2.4248075 -2.2710416 0.032106571 0
-2.4243762 -2.1629543 0.043209027 0
-2.3591683 -2.1056058 0.055612039 0
-1.4910001 -2.128 0.001 0
-0.87599999 -2.119 0.046000004 0
-0.38706225 -2.1491249 0.056852125 0
0.057499997 -2.148 0.055500001 0
0.26432219 -2.1504719 0.027768135 0
0.34087688 -2.1221039 0.0234938 0
0.56400001 -2.194 0.0049999999 0
0.93833411 -2.1475105 0.026384737 0
2.295615 -2.1530833 0.056213144 0
-2.2939606 -2.0482571 0.068015046 0
-1.4288278 -2.050786 0.013033359 0
-0.84095681 -2.0391793 0.032372102 0
-0.332241 -2.0385065 0.021217152 0
-0.23999999 -2.0239999 0.0019999966 0
0.25933868 -2.041265 0.030213105 0
0.32681531 -2.035656 0.029240701 0
0.71700001 -2.0009999 9.5913735e-14 0
0.89373368 -2.0404041 0.0081538949 0
2.1664226 -2.0351248 0.080319718 0
2.2310188 -2.0941041 0.068266429 0
-2.2287526 -1.9909086 0.08041805 0
-2.1635447 -1.9335601 0.092821062 0
-1.367 -1.974 0.025 0
-0.79426104 -1.9328167 0.014212629 0
-0.34885213 -1.9422499 0.03601025 0
0.24867496 -1.952023 0.033459276 0
0.31275374 -1.9492079 0.034987599 0
2.1018262 -1.9761456 0.092373006 0
2.8706279 -1.9339044 0.037108213 0
2.9085002 -1.959 0.041000001 0
-1.915 -1.8380001 0.021 0
-1.4069999 -1.84 0.02 0
-0.76313049 -1.8619084 0.0021063145 0
-0.3335681 -1.8594999 0.0276735 0
0.25537786 -1.848166 0.035598461 0
2.6939831 -1.8277636 0.013592441 0
2.7580888 -1.8594086 0.024248594 0
2.835881 -1.8517758 0.031383011 0
2.9230001 -1.885 0.038000003 0
3.2444289 -1.8428487 0.046136681 0
-1.8550051 -1.7812529 0.028349794 0
-1.7950103 -1.7245055 0.035699587 0
-1.3363392 -1.7596655 0.034300376 0
-0.31828403 -1.77675 0.019336749 0
0.24233694 -1.7448128 0.042806711 0
2.5971162 -1.7420626 0.0091855228 0
2.6491303 -1.7597574 0.010554901 0
2.7553859 -1.7334148 0.018802693 0
2.8547032 -1.753502 0.032340929 0
2.9398503 -1.749041 0.027743513 0
3.0482295 -1.7552366 0.024128035 0
3.1290934 -1.7672447 0.031352691 0
3.2094822 -1.7783604 0.040928386 0
3.4219999 -1.701 0.059 0
-1.7350155 -1.6677583 0.04304938 0
-1.6750207 -1.611011 0.050399177 0
-1.2523394 -1.6641655 0.051300377 0
-0.303 -1.694 0.011 0
0.19888538 -1.6532021 0.056111626 0
0.24974799 -1.6399065 0.047507644 0
2.6290646 -1.6168138 0.0010880791 0
2.7042775 -1.6623765 0.011505693 0
2.8911722 -1.6669275 0.0068460219 0
2.9753215 -1.6485735 0.0079522505 0
3.053375 -1.6918358 0.018944293 0
3.2892141 -1.6336279 0.034518838 0
3.3671019 -1.673146 0.04887867 0
-1.6150259 -1.5542638 0.057748973 0
-1.564 -1.506 0.064000003 0
0.18943632 -1.5593345 0.060784236 0
0.23300001 -1.5705 0.046500001 0
3.1378727 -1.5452225 0.007294598 0
3.2154033 -1.5843749 0.010875762 0
2.9493737 -1.4388874 0.026783785 0
3.0651338 -1.4970672 0.015987527 0
2.872 -1.4 0.034000002 0
0.537 2.2720001 0.078000002 0
0.55262899 2.3283591 0.068843633 0
0.58389306 2.4410994 0.050527267 0
0.61515725 2.5538397 0.032210909 0
0.63599998 2.6289999 0.02 0
0.70822746 2.6493695 0.0063138232 0
0.73112792 2.7423954 0.021739028 0
2.03723 -1.9171665 0.10442629 0
-2.0936685 -1.8721058 0.10611203 0
2.0020001 -1.885 0.111 0
