# .PCD v0.7 - Point Cloud Data file format
VERSION 0.7
FIELDS x y z intensity
SIZE 4 4 4 4
TYPE F F F F
COUNT 1 1 1 1
WIDTH 346
HEIGHT 1
VIEWPOINT 0 0 0 1 0 0 0
POINTS 346
DATA ascii
-33.778709 7.0450454 11.852117 13
-33.968578 6.8215752 12.598652 14
-33.688801 7.2731037 12.848585 14
-33.544159 7.4379559 10.92956 13
-33.431984 7.4716797 12.42455 14
-33.084232 7.903863 5.7164836 8
-32.886253 8.1672583 5.7304435 8
-32.99575 8.1214142 10.813455 13
-33.173508 7.7727275 11.624502 13
-32.970192 8.1296263 12.280451 14
-33.162014 7.9046721 12.725488 14
-32.823528 8.3363161 12.933421 14
-32.473091 8.7414389 10.711861 13
-32.73315 8.4514418 11.514405 13
-32.529243 8.7756071 12.152361 14
-32.788944 8.5654449 12.666396 14
-32.540821 8.8383837 13.585354 15
-32.198399 9.083909 11.378312 13
-32.06842 9.4206877 13.489269 15
-31.994747 9.4535646 10.621263 13
-31.704004 9.7134008 11.26122 13
-31.980675 9.3773232 11.991269 14
-31.787941 9.7730217 12.460218 14
-31.609108 10.001194 13.405187 15
-31.244129 10.359056 7.296133 10
-31.259327 10.352152 11.165135 13
-31.447266 10.235046 11.468156 13
-31.316584 10.366517 12.374137 14
-31.410427 10.151454 12.454164 14
-30.976559 10.663476 5.5240908 8
-30.958872 10.666314 6.1410899 9
-31.162479 10.472591 6.4031191 9
-30.86883 10.911816 7.2250614 10
-30.636129 11.197718 5.4800243 8
-30.701328 11.088433 6.364037 9
-30.477625 11.271325 6.0850101 9
-30.389492 11.401571 5.497993 8
-21.887335 5.9343328 3.8181505 8
-21.81918 6.2545409 3.7961137 8
-21.985916 5.9095597 4.2781577 9
-21.879461 6.2331691 4.4031191 9
-11.506508 12.696457 2.2053728 7
-11.44184 12.708989 2.9733725 8
-11.376078 12.685001 3.4303734 9
-11.337552 12.681115 3.8793738 10
-10.972382 12.639048 2.1513762 7
-10.86338 12.644528 2.9083762 8
-10.811627 12.614379 3.351378 9
-10.800454 12.626659 3.7943773 10
-10.721286 12.671039 3.0023763 9
-7.7102489 12.364702 1.4724256 6
-7.7938037 12.327613 1.8564245 7
-7.8192301 12.357467 2.6010897 8.666667
-7.9983268 12.313623 3.3764207 10
-7.3977175 6.7154694 1.7998425 8.75
-7.2725024 6.8627081 1.8645866 9
-7.539793 6.6734505 2.2675946 10
-7.0209889 -0.57806468 -0.31785953 2
-6.4048548 -7.8031292 -0.16859673 3
-6.7622705 3.2842002 2.3397529 13
-6.6877017 3.3302457 2.608748 13.5
-6.4080443 3.7660708 2.5347159 13
-6.1263137 -4.2756643 -0.28030378 2
-6.2935987 3.878494 2.6399574 13.75
-6.115201 4.127737 2.6259146 13.833333
-6.3675432 3.7881887 2.9787138 15
-6.0010653 4.2772303 2.9826837 15
-5.2918639 5.229167 -0.19285406 2.5
-5.4008083 2.9145703 0.087741025 4
-5.2787848 5.2167096 0.21764639 4.5
-5.2937756 5.2978077 0.59014386 5.5
-5.2804794 5.2576442 1.3548952 8.75
-5.2480092 5.3271513 2.3826432 13
-5.3604608 5.252708 2.5548112 13.5
-5.2395573 12.052102 5.1155086 14
-5.0710602 4.7180519 -0.036336992 3
-4.8379812 8.3509922 -0.22441652 3
-5.1642518 5.3425694 0.52764344 5
-5.1594033 5.4067259 1.3243916 8.5
-5.1440477 5.2904358 2.8036451 14
-5.1962862 12.117839 4.2915082 13
-4.9226828 12.045852 5.0705209 14
-4.6098394 -1.8333021 -0.23181963 2
-4.5383587 6.1808906 0.042633057 3
-4.5959172 12.052659 3.2875354 11
-4.5357513 12.062857 4.1485376 13
-4.5299711 12.053732 4.7305379 14
-4.0828691 -4.5576386 -0.27535918 2
-4.0267444 -3.241617 -0.24161254 2
-4.2176137 -3.1372242 -0.24462034 2
-4.3250232 -0.54541826 -0.22601914 2
-3.9374046 -3.4384763 -0.24558137 2
-3.6766586 -1.6940119 -0.17790057 2
-3.644192 2.4484291 0.055737909 4
-3.4459884 -2.0485246 -0.0878589 2
-3.4356711 -1.8693627 -0.14288883 2
-3.3970273 -1.3298454 -0.23297399 1
-3.2970657 2.8636472 -0.13177226 2.5
-3.4598746 2.6841509 0.28739756 5.3333335
-3.3546107 2.8276184 0.046727907 4
-3.470628 2.5147607 0.56123561 7
-3.4574063 2.5140748 0.82273567 9
-2.9700301 -1.3402621 -0.054502264 3
-3.1827998 -0.39130378 -0.22110571 1
-2.6450388 -3.4086637 -0.2183349 2
-2.7137394 -1.4391179 -0.20525663 1
-2.7577853 -1.1740838 -0.20504114 1
-2.5044806 -0.50246966 -0.085941046 2.2857144
-2.6506448 -0.3822076 -0.087390155 2.5
-2.7447908 3.7053549 -0.22027317 2
-2.7479253 -1.0227624 0.012938068 3
-2.4796815 -0.5546636 0.046531357 4.3333335
-2.2749763 -3.640465 -0.21264967 2
-2.2545974 -2.6968005 -0.21283026 1
-2.0308745 -1.7361194 -0.20001724 1
-2.1072247 -1.3527904 -0.012902455 3
-2.3169894 -1.1652116 -0.013077023 3
-2.3611262 -0.66915369 -0.093632303 2
-2.1154015 3.4389319 -0.19424346 2
-2.0321012 3.7268231 -0.19624093 2
-2.301882 -1.0491685 0.035906583 4
-2.3006883 -0.71732515 0.058867902 4.5
-1.8039525 -3.353605 -0.12074139 2
-1.806783 -1.7914643 -0.083028927 2.3333333
-1.7718294 1.4068326 -0.18272199 1
-1.7371528 3.7987525 -0.18872368 2
-1.9753122 4.7648282 -0.0092451759 3
-1.7637622 4.8611455 -0.16823266 2
-1.7556336 5.7126851 -0.02923917 3
-1.7356329 -1.2687888 0.13943785 5.75
-1.6128721 -1.4298971 0.5881651 13
-1.5083764 -3.5338016 -0.16623092 2
-1.2957447 -2.8874629 -0.19187777 1
-1.4443488 -2.7471437 -0.19639057 1
-1.2657685 1.6662526 -0.15451255 0
-1.2826276 2.123189 -0.17419012 1
-1.4550021 4.7403493 -0.16421072 2
-1.3868294 -2.0168183 0.01596603 3
-1.3432635 -1.7026833 0.24279596 7.3636365
-1.443683 -1.5425735 0.25255695 7.5
-1.30896 -1.7149516 0.59906006 12.9
-1.4956566 -1.5082952 0.62692678 13.75
-1.1881399 -2.9697645 -0.18787225 1
-0.89498687 -2.0926008 -0.078025781 2
-0.96886492 1.6610826 -0.15484932 0.5
-0.91313148 4.3852181 -0.15816639 2
-1.1822437 4.6622696 -0.13918996 2.5
-0.89586735 -2.075469 0.085391946 4.5
-1.0588715 -1.9787019 0.14891951 5.5
-1.1442895 -1.858915 0.57391393 12
-0.44736132 -3.9501319 -0.16174904 2
-0.65278041 -2.2867725 -0.10433487 1.8571428
-0.54444343 1.266614 -0.14594604 0
-0.57987326 1.6768054 -0.15312578 1
-0.66334331 4.4604316 -0.13314569 2
-0.54640436 -2.4985271 0.31070712 7
-0.64025915 -2.3232217 0.073432937 4
-0.54810923 -2.5066814 0.46195915 9
-0.44442999 4.6114011 1.8243724 14.5
-0.14744881 -3.0801165 -0.16247062 2
-0.079788946 -2.441288 -0.16212279 1
-0.093559407 -1.8072897 -0.1642708 1
-0.24144326 1.1695167 -0.14244032 0
-0.30288023 1.2811049 -0.14348072 0
-0.26483938 1.7526593 -0.15083474 1
-0.092461281 2.6481278 -0.13807085 2
-0.31596068 3.0155115 -0.14709984 2
-0.24201995 4.5580487 1.4858916 13
-0.16880968 4.3658776 1.7259009 15
-0.25762114 4.5196118 1.675724 14
-0.030761575 -6.2806945 2.5866981 15
-0.31772768 -3.4377546 3.5394616 27
0.25118288 -5.9991598 -0.069389388 3
0.23430726 -3.2422748 -0.15998589 2
0.35524663 -2.9710817 -0.15506569 2
0.065042347 -1.6793382 -0.15900017 1
0.15714332 -1.5363671 -0.15539086 1
0.36445543 -0.5140897 -0.15378283 0
0.3450273 -0.33834901 -0.15135077 0
0.16855529 1.815253 -0.14702398 1
0.094473779 2.4329777 -0.13604523 2
0.28074181 3.8875215 -0.098047063 2.5
0.0024109723 4.0709348 -0.063078701 3
0.17828201 -4.5347738 0.10230561 4
0.33793721 -4.1796541 0.10720931 4
0.10044826 3.2891269 0.2842758 5.75
0.35787547 -4.0851002 0.71868598 8.5
0.02335926 -6.208725 2.6346781 15
0.19621614 -5.9806051 2.4986122 15
0.36731765 -5.7207761 3.7892065 20.5
0.053806104 -4.7460623 4.0163651 24
0.45793912 -5.7414918 -0.057466071 3
0.6490621 -5.4944129 -0.047540519 3
0.70803845 -2.7101052 -0.14868379 2
0.59205925 -1.4268143 -0.14868015 1
0.70666939 -0.73375905 -0.14777243 1
0.61504841 1.5220574 -0.14394502 1
0.49588001 1.7577959 -0.14547291 1
0.60782397 3.0415711 -0.13332728 2
0.69858283 3.5792093 -0.038995553 3
0.42603907 -4.0624323 0.39017236 6
0.41963774 -4.1166248 0.5781852 7
0.45896491 -5.644752 3.5615134 20
0.59769541 -5.4404535 3.5193427 20.333334
0.40628141 -5.6505413 3.7385201 21
0.5060665 -5.4976645 3.7618096 21
0.97814029 -3.7637801 -0.1299708 2
1.0060922 -2.5454099 -0.13877654 2
0.813914 -1.20704 -0.15162933 1
0.84122258 -0.95572084 -0.15322095 1
1.0418757 1.4580568 -0.13845907 1
0.80947322 1.6219827 -0.14191979 1
0.90394229 2.3073387 -0.13693547 2
0.87344283 2.8870063 -0.13295782 2
1.1048032 -4.739696 0.20623681 4.5
1.085743 -3.5584681 0.15396455 4
1.1532979 3.8481486 0.01504911 3
1.0757477 4.3302836 0.023029318 3
1.1388973 -4.8160863 0.6702497 7
1.0929512 -4.7547503 0.63074178 7
1.0938799 -4.75983 0.92024279 9
1.1511363 -4.7296953 1.4327286 11.5
1.1229117 -4.7161522 1.6462293 13
1.2047569 -4.7425938 -0.1077757 3
1.5220346 -4.3778024 -0.009904176 3
1.4337292 -3.8254373 -0.0050234757 3
1.2789451 -2.218344 -0.13591506 2
1.4962332 -1.9384398 -0.14303663 2
1.4232748 -0.44537726 -0.14729849 1
1.4377577 0.96617645 -0.13503617 1
1.26466 1.2192096 -0.13382807 1
1.3123749 3.3644969 -0.085919656 3
1.3143917 -4.5498729 1.4369985 11.666667
1.4697605 -4.3100257 1.4364206 12
1.442134 -4.3044486 1.6905899 13
1.8677638 -1.4867992 -0.14525063 2
1.9260836 -1.1873548 -0.14786185 2
1.6939831 0.60166609 -0.1357294 1
1.6361823 0.9635762 -0.13576332 1
1.8170215 1.9256719 -0.12480306 2
1.6199592 2.1228244 -0.12483603 2
1.8938885 3.4800792 0.31414208 5.5
1.9185572 3.448694 0.43847919 6.3333335
1.6529427 -4.0880952 1.405674 12
1.9774424 -3.6419797 1.3268454 12
2.0257907 -3.2588396 -0.092262477 3
2.3572087 -3.0117111 -0.091386989 3
2.1542251 -2.1468177 -0.11559937 2
2.079721 -0.011366688 -0.14567281 1
2.3083804 0.068344384 -0.14366698 1
2.2137227 1.3123587 -0.12997875 2
2.0034852 1.728079 -0.12427202 2
2.2874265 3.0747602 -0.039801106 3
2.2347217 -3.3160203 0.55946708 6.9000001
2.2312047 -3.3365889 1.1657233 11
2.0320356 -3.6532631 1.3905061 12
2.2539041 -3.3305788 1.3273846 11.666667
2.1490848 -3.5031114 2.9037812 20.5
2.2874043 -3.2672582 4.3516951 26
2.163456 -3.2588611 4.5396805 27
2.3180749 -3.0866139 4.5518909 27
2.3565795 -2.5701995 4.5784888 28
2.5129085 -2.8938677 -0.089447744 3
2.6752 -2.7666235 -0.033513471 3
2.686887 0.96034032 -0.12967512 2
2.603935 3.0228944 -0.053266622 3
2.6107545 -2.9134102 0.19873993 4.5999999
2.7297008 -2.717217 0.28787887 5.25
2.5643854 -2.9108803 0.56629777 6.75
2.7390947 -2.7010403 0.6149559 7
2.6450174 -2.8162327 0.88150644 9
2.7329259 -2.7075911 0.87845892 9
2.5352266 2.2523258 3.1207573 26
2.4935119 -2.9552932 4.5155735 27
2.4237411 -2.4793267 4.5746994 28
2.5788124 -2.23926 4.5800147 28
2.8111908 -2.6094449 -0.039584298 3
3.1453617 -2.1989257 -0.052771214 3
2.8257408 0.49991691 -0.13015328 2
2.8226457 2.105315 -0.10670978 2
3.0298998 2.9194379 -0.077221557 3
2.8795214 -2.5706563 0.25651658 5
3.0602295 -2.3152277 0.24478057 5
3.1222506 -1.9588897 0.22882451 5
3.154927 3.9004591 0.048257448 4
2.9105122 -2.4980826 0.63786405 7.1999998
3.1678309 -2.2105775 0.61322832 7
3.1293139 -1.9476347 0.52415293 6.5
2.853013 -2.5654128 0.87589502 9
2.9403727 -2.5220969 4.3459215 26
3.1336482 -2.2843983 4.3717575 26
3.1232879 -1.7895105 4.2816038 26.5
2.9000735 -1.5605783 4.1390724 26.5
2.829062 -2.5301175 4.5423884 27
3.0115132 -2.2720056 4.5508771 26.799999
3.1184583 -1.8680209 4.5106301 27
3.3066514 -2.1069183 -0.0828306 3
3.4599478 -1.8341657 -0.080947094 3
3.4148622 -0.21664408 -0.14663248 2
3.4590814 2.8972936 -0.0016821426 3
3.2298365 -2.1225865 0.24052228 5
3.4357905 -1.879416 0.23573901 5
3.2333424 -2.1270294 0.61168969 7
3.4529142 -1.8777771 0.61706853 7
3.533963 2.1255255 3.8536818 26.666666
3.3565547 -2.0080936 4.2021289 25
3.230679 -1.9792242 4.4381433 26
3.7902102 -0.096623518 -0.12661713 2
3.7410824 2.8451886 -0.053656772 3
3.9913743 3.708921 0.056338921 4
3.9755936 3.2988977 1.1953492 10
3.9173102 3.2221253 1.2590134 11
3.8519373 3.201405 1.6853417 13
3.6622512 2.2067854 3.7128558 25.5
4.2012386 1.4351549 -0.078592241 3
4.3186369 1.6783313 -0.087588415 3
4.31425 2.3963113 -0.079601571 3
4.2036934 2.7682121 -0.063618511 3
4.2389803 3.0443969 0.58704394 7
4.2644424 3.0086315 0.94938022 8.5
4.0524411 -0.83734715 4.0998845 26
4.6473055 3.5213504 0.10739712 4
4.5088258 3.8142991 0.18037893 4
4.7465677 2.9430685 0.63552845 7
4.6974826 2.9215164 1.0794142 9
4.5926137 3.0387006 1.2989041 10.5
4.56147 3.0550139 2.195401 15
5.0226717 -0.37566236 -0.062586725 3
5.124095 0.75018567 -0.07354822 3
5.1281185 0.98380888 -0.076544963 3
5.0154624 2.9348655 0.34243637 5
4.9377613 2.9265339 0.61443114 6.5
4.9351006 2.9442787 0.80243051 8
5.1725454 2.9563701 1.5189468 11
5.1462612 2.9195569 1.8011123 12.333333
5.2763939 0.55527616 -0.072545595 3
5.2279596 2.9495344 1.3764505 10
6.6059837 3.3368959 2.8495331 15
7.6972756 2.6042349 0.24959393 4
8.8709946 2.6386259 0.51065165 5
8.9040709 2.5748434 0.90431893 6.3333335
9.0082989 2.5561078 1.2506568 7
9.9841576 1.9088895 0.10868555 4
11.823296 1.7248356 0.13775451 4
12.30363 5.2240229 11.933851 25
13.369493 1.3475895 0.16679925 4
