# .PCD v0.7 - Point Cloud Data file format
VERSION 0.7
FIELDS x y z intensity
SIZE 4 4 4 4
TYPE F F F F
COUNT 1 1 1 1
WIDTH 100
HEIGHT 1
VIEWPOINT 0 0 0 1 0 0 0
POINTS 100
DATA ascii
-48.618546 -7.7347846 18.358526 14
-48.750195 -7.6332717 19.835516 15
-43.207272 1.2797611 10.280567 10
-36.308685 6.6768031 14.408215 15
-36.017155 7.2187309 13.466112 14
-35.840401 7.2455511 15.976096 16
-9.4565649 2.2665677 0.58595568 5
-6.3850226 -8.8261156 4.0477304 14
-6.1619592 -8.9922199 4.1237493 15
-5.9258533 -1.2415437 0.15521798 4
-5.9334307 -1.2076145 0.2852129 5
-5.9357381 -1.1946687 0.47121093 6
-5.9663568 -1.2089102 0.69121563 7
-5.6592946 -1.4808266 0.88323778 8
-5.4154501 -1.5293499 0.62322706 7
-5.4433913 -9.5085974 4.0148048 14
-5.2151265 2.6093938 0.4256542 6
-5.3267045 -9.6073494 4.2048178 15
-5.0670543 2.8135486 0.34962636 5
-4.6235456 -2.0880871 0.58826292 7
-4.3391342 -2.2726531 -0.053726252 3
-4.0342283 -2.4960139 -0.065709427 3
-3.92138 -2.562681 0.13329396 4
-3.8254888 -2.6250706 0.40629795 6
-3.7007079 -2.838825 0.20132831 5
-3.7531784 -3.348659 0.46943074 6
-3.6661191 -3.0134315 0.53735888 7
-2.8838899 -3.1073153 4.1113133 28
-2.5171118 -3.7263305 4.4974027 28
-2.2987413 -3.6478574 0.35836834 6
-2.2951071 -3.6271269 0.55936384 7
-1.7669297 3.0138059 0.29953885 6
-1.6761185 -2.7667103 0.68613333 10
-1.714141 2.7126324 1.2645595 15
-1.4571593 -3.8414295 0.46932808 6.5
-0.96172398 2.3332658 2.4866035 27
-0.76679975 2.9714353 1.2890685 15.5
-0.41682333 2.5485747 2.3866141 26
-0.44649571 2.4056647 2.4736226 27
0.31366512 2.5530081 2.4901547 26.5
0.53979295 -3.4811552 0.051955957 4
0.54456395 -3.440011 0.20395908 5
0.55973917 2.6015818 0.65266556 10
0.48121071 2.438895 2.5246751 27
0.42504466 2.3055136 2.6856833 28
0.71693689 -3.0521715 -0.057007387 3
0.73563784 -3.0617299 0.77599263 11
0.61937547 -3.3378489 1.2539692 14
0.60723406 -2.9894116 3.5299933 29
0.95806092 -2.4838276 -0.062964626 2.5
0.84980625 -2.7149122 0.13451877 4.5
0.90696186 -2.6523399 0.2380241 6
0.97166628 -2.4447467 0.38203785 8
0.80104184 2.5315635 0.35668603 7
0.8879931 -2.7066238 0.52902019 9
0.9670127 2.4807432 0.50620037 9
0.9634729 -1.6292058 2.0315783 28.5
0.86353761 -2.6564157 3.0080228 28
1.0262969 -2.3591511 0.036043629 4
1.1209693 -2.1191747 0.18705706 6
1.1195041 -2.1241646 0.29405677 7
1.0005612 -2.4442513 0.53703833 9
1.178437 -1.3718003 0.53808182 12
1.1839796 -1.8606827 0.66656828 12.5
1.0370963 -1.5143645 1.9920816 29
1.2513942 -1.7602279 -0.12792836 1
1.2482467 -1.4597793 -0.032920837 2.5
1.3911637 -1.399153 -0.12092268 1
1.2444205 -1.8067545 0.028070129 4
1.280991 -1.732406 0.12607226 5.5
1.2401011 -1.338621 0.10574758 5
1.2653854 -1.6919985 0.35207355 8
1.3915516 -1.358919 0.32057756 8.5
1.2266854 -1.3555188 0.48808101 12
1.5381205 -1.029911 -0.067595243 2
1.5162148 -1.0474 0.082072347 5
1.5186611 -1.0997682 0.27840665 8
1.4249288 -1.2550342 0.58807701 13
1.4496746 -1.0040138 1.9370732 29
1.730969 2.4729135 1.4157426 16
1.8909426 2.7467165 3.6007242 28
2.2220008 2.6597633 3.5607479 27
2.6551132 2.5505629 3.6767757 26
3.2528255 1.7840378 3.690865 26
3.4440234 1.5824581 3.7538867 26
4.0754628 -2.0708654 -0.064939275 3
4.3821521 -1.5235975 0.52705628 7
4.523612 -1.129698 0.087048292 3.5
4.5379529 -1.1482044 0.31054869 5.5
4.541513 -1.2587179 0.67905116 8
6.1944304 2.2238193 1.0288819 8
8.060935 1.4718328 1.9209435 10
8.3749323 1.4065707 0.7579484 6
8.4865255 1.3890359 0.37194991 5
15.645898 -4.9375982 7.580092 16
15.685494 -5.4416633 8.2270899 17
16.305401 -2.7126203 1.3820798 6
16.216187 -3.7875166 2.97209 9
16.276127 -3.6665609 3.6050899 10
16.202707 -3.9778249 4.8790913 12
