# .PCD v0.7 - Point Cloud Data file format
VERSION 0.7
FIELDS x y z intensity
SIZE 4 4 4 4
TYPE F F F F
COUNT 1 1 1 1
WIDTH 1378
HEIGHT 1
VIEWPOINT 0 0 0 1 0 0 0
POINTS 1378
DATA ascii
-0.79873163 -2.7071464 -0.17910436 0
-0.63630044 -2.747803 -0.17643911 0
-0.55347133 -2.7477164 -0.1182314 0
-0.45717227 -2.7586181 -0.1685888 0
-0.35537541 -2.7267771 -0.16740724 0
-0.26131576 -2.7584989 -0.16276407 0
-0.16228911 -2.7132416 -0.16131178 0
-0.051714294 -2.7494192 -0.15719232 0
0.090406835 -2.761879 -0.15439442 0
0.14677048 -2.731765 -0.15185171 0
0.2315 -2.7179999 -0.15349999 0
0.49900001 -2.7149999 -0.14300001 0
-3.691087 -2.6304162 -0.11124519 0
-1.1060843 -2.6954839 -0.18595578 0
-1.069 -2.6129999 -0.185 0
-0.94440913 -2.6303926 -0.18350461 0
-0.773 -2.622 -0.178 0
-0.66916597 -2.6577914 -0.17905818 0
-0.57016325 -2.6358593 -0.1610017 0
-0.4678241 -2.6674151 -0.16961882 0
-0.37038189 -2.6613579 -0.16769046 0
-0.25550768 -2.6766293 -0.16353922 0
-0.15619275 -2.6228278 -0.16187452 0
-0.055082977 -2.6819024 -0.15853111 0
0.088203415 -2.6719394 -0.15619721 0
0.16502964 -2.6350005 -0.15581444 0
0.22450069 -2.6444361 -0.15417296 0
0.35391766 -2.6428061 -0.15103528 0
0.46270552 -2.6372681 -0.14642723 0
-3.6180725 -2.5806801 -0.12703766 0
-3.545058 -2.5309441 -0.14283013 0
-0.95200002 -2.5550001 -0.182 0
-0.64673281 -2.571233 -0.17884654 0
-0.54205871 -2.5347164 -0.16012692 0
-0.45823616 -2.5753725 -0.17067823 0
-0.36520097 -2.5522683 -0.16839099 0
-0.22741763 -2.5594828 -0.1644053 0
-0.15009637 -2.5324137 -0.16243726 0
-0.02904149 -2.5517013 -0.16026556 0
0.086000003 -2.582 -0.15800001 0
0.234 -2.5439999 -0.156 0
0.36454448 -2.5276337 -0.15340827 0
0.43795127 -2.5516839 -0.14924595 0
0.55694509 -2.5435276 -0.14416476 0
-3.4720435 -2.4812081 -0.15862259 0
-3.399029 -2.4314721 -0.17441507 0
-0.62429959 -2.4846749 -0.17863491 0
-0.55275536 -2.4434826 -0.17678206 0
-0.45374191 -2.4480593 -0.16546623 0
-0.34276342 -2.4412386 -0.16899784 0
-0.26013502 -2.4537196 -0.16770087 0
-0.1715 -2.4315 -0.164 0
0.36619949 -2.4350722 -0.15528856 0
0.45547035 -2.4519565 -0.14984037 0
0.54797024 -2.4445064 -0.14618368 0
0.64510036 -2.4548776 -0.13827522 0
-3.3260145 -2.381736 -0.19020753 0
-1.352 -2.309 -0.19599999 0
-1.2578621 -2.3228421 -0.18723597 0
-0.60186636 -2.3981166 -0.17842327 0
-0.55590546 -2.3341498 -0.17755133 0
-0.4429974 -2.3427014 -0.16793013 0
-0.33149999 -2.3529999 -0.16949999 0
0.38499999 -2.358 -0.155 0
0.47290242 -2.3488443 -0.15181808 0
0.54428768 -2.3305931 -0.14840341 0
0.63261229 -2.34319 -0.1413272 0
3.8340001 -2.3010001 -0.108 0
-1.6118038 -2.2675157 -0.19312644 0
-1.3579482 -2.2378609 -0.19537872 0
-1.2127702 -2.2334037 -0.1887266 0
-0.5345 -2.2474999 -0.17750001 0
-0.46000001 -2.289 -0.17399999 0
0.44949999 -2.2590001 -0.154 0
0.55587792 -2.2560568 -0.14873342 0
0.64331812 -2.2751572 -0.14221556 0
0.762842 -2.2401054 -0.13204576 0
3.7426884 -2.2506685 -0.12257686 0
-1.5314937 -2.1518378 -0.19508046 0
-1.3466668 -2.1237965 -0.19280674 0
-1.2572331 -2.150404 -0.19599999 0
-1.1748161 -2.158123 -0.18998128 0
0.56537789 -2.1780567 -0.14923343 0
0.61365902 -2.1595783 -0.14710778 0
0.75392097 -2.1531045 -0.13544375 0
3.5363841 -2.1369526 -0.15551098 0
3.6395364 -2.1938107 -0.13904393 0
-1.4563798 -2.0436444 -0.19690803 0
-1.3527056 -2.0424826 -0.19024336 0
-1.2570336 -2.0389147 -0.19632941 0
-1.1643422 -2.0618892 -0.19361797 0
-1.0989081 -2.0075614 -0.19249064 0
0.56550002 -2.072 -0.152 0
0.68694723 -2.0514934 -0.14467648 0
0.73467672 -2.0388074 -0.1412795 0
0.86171007 -2.0391119 -0.12800626 0
3.5583332 -2.0352762 -0.11599303 0
3.6361663 -2.0755951 -0.10524129 0
-1.4246519 -1.9382577 -0.19356321 0
-1.329953 -1.9426237 -0.19155239 0
-1.2697055 -1.9534827 -0.19424336 0
-1.1689742 -1.9500972 -0.19652268 0
-1.0609541 -1.9322808 -0.19374532 0
0.653 -1.9400001 -0.15099999 0
0.75512171 -1.9480922 -0.1424866 0
0.86208838 -1.9593843 -0.13374281 0
3.3248332 -1.914319 -0.14824826 0
3.4415832 -1.9747975 -0.13212064 0
-3.0775292 -1.8082445 -0.19878146 0
-1.709 -1.8839999 -0.19 0
-1.6585264 -1.8271065 -0.19033206 0
-1.4342477 -1.8480246 -0.18938558 0
-1.3586748 -1.8497119 -0.1963366 0
-1.2433169 -1.8663391 -0.19609609 0
-1.1431253 -1.8584194 -0.19720127 0
-1.0420001 -1.8395 -0.19549999 0
0.68699998 -1.893 -0.15099999 0
0.77270257 -1.8596405 -0.14441673 0
0.82527208 -1.8668461 -0.14518571 0
3.247 -1.874 -0.15899999 0
-3.1517684 -1.7540078 -0.19957414 0
-3.0364809 -1.7374698 -0.19714771 0
-2.9227645 -1.7196223 -0.19489074 0
-1.7289901 -1.7326174 -0.18915531 0
-1.600594 -1.7618055 -0.1907132 0
-1.5028832 -1.7146505 -0.18803877 0
-1.4434513 -1.7569237 -0.18897414 0
-1.3421478 -1.7323234 -0.19378777 0
-1.2164152 -1.7821783 -0.19901498 0
-1.135 -1.752 -0.2 0
-1.1 -1.79 -0.198 0
0.74599999 -1.789 -0.15000001 0
-2.9543843 -1.6465039 -0.19428708 0
-2.8453822 -1.6753111 -0.19294536 0
-2.7679999 -1.631 -0.191 0
-1.6545545 -1.6562011 -0.18998055 0
-1.5492458 -1.6385039 -0.19038193 0
-1.4658712 -1.6419222 -0.19026875 0
-1.349833 -1.6589355 -0.19227257 0
-1.2681116 -1.6401098 -0.19716972 0
-2.9674549 -1.5646243 -0.19939682 0
-2.8624768 -1.5530008 -0.19455741 0
-2.757 -1.539 -0.189 0
-1.5739441 -1.5427672 -0.19065695 0
-1.4602288 -1.5578542 -0.19124889 0
-1.3569024 -1.5547185 -0.19137079 0
-1.2479947 -1.5372427 -0.19579197 0
-3.3322394 -1.4681163 -0.19981888 0
-3.2518661 -1.4325969 -0.19884907 0
-3.1102591 -1.4583395 -0.19906045 0
-3.0298395 -1.420893 -0.19770697 0
-2.938 -1.4630001 -0.2 0
-1.8049999 -1.421 -0.18799999 0
-1.6109999 -1.447 -0.19 0
-1.539042 -1.4515902 -0.19056854 0
-1.4411248 -1.456924 -0.19196045 0
-1.3458813 -1.4353518 -0.19221973 0
-1.2465844 -1.4528867 -0.19333851 0
2.9459672 -1.4390435 -0.16399369 0
-3.1714928 -1.3970776 -0.19787925 0
-3.0509329 -1.3437985 -0.19642454 0
-2.9494197 -1.3834465 -0.19635348 0
-2.869 -1.346 -0.19499999 0
-1.814 -1.359 -0.18799999 0
-1.7660477 -1.3557582 -0.18844256 0
-1.6552483 -1.3550467 -0.18941951 0
-1.5608919 -1.3378183 -0.1904745 0
-1.4664268 -1.3629713 -0.19137435 0
-1.3384205 -1.3621175 -0.1928702 0
-1.2605 -1.3455 -0.193 0
1.0549568 -1.3141418 -0.14660323 0
1.9634876 -1.3365097 -0.11505693 0
2.0090001 -1.367 -0.11 0
2.7447677 -1.341435 -0.16367882 0
2.8630679 -1.3988264 -0.16386396 0
-2.9303732 -1.2905194 -0.19496982 0
-2.8499999 -1.255 -0.19400001 0
-1.8480407 -1.2946088 -0.18607157 0
-1.7435004 -1.2437702 -0.18791267 0
-1.6325319 -1.2506721 -0.18979503 0
-1.5468305 -1.2377203 -0.19060898 0
-1.4541675 -1.2487006 -0.19162126 0
-1.3481956 -1.2561244 -0.1925932 0
-1.2920001 -1.284 -0.19400001 0
1.061413 -1.2580936 -0.14814451 0
1.1145 -1.232 -0.147 0
1.7681218 -1.2056273 -0.13676423 0
1.8658048 -1.2710686 -0.12591058 0
2.4687338 -1.2075218 -0.16324684 0
2.5476005 -1.2457827 -0.16337027 0
2.6264675 -1.2840436 -0.16349369 0
2.7906771 -1.2009695 -0.1655369 0
2.8717899 -1.235631 -0.16612637 0
2.9799678 -1.2540976 -0.16723861 0
-1.9122484 -1.1371429 -0.18617503 0
-1.8534346 -1.1741972 -0.18697679 0
-1.7526202 -1.1148617 -0.18849769 0
-1.6580536 -1.1709971 -0.18870354 0
-1.5463883 -1.1346787 -0.18984479 0
-1.4443951 -1.1471121 -0.19196981 0
-1.3475468 -1.1597558 -0.19284755 0
1.0796666 -1.1613332 -0.15033333 0
1.1263342 -1.1763396 -0.1484964 0
1.5753651 -1.135842 -0.13708757 0
1.7029999 -1.1619999 -0.14399999 0
2.3504333 -1.1501305 -0.16306171 0
2.6284513 -1.1316463 -0.16435793 0
2.7503817 -1.1447473 -0.16544737 0
2.8730657 -1.1560509 -0.16677189 0
2.9549322 -1.1889154 -0.16759644 0
-1.8426646 -1.0985239 -0.18756671 0
-1.7359442 -1.0582539 -0.18926112 0
-1.6697428 -1.0696592 -0.18938799 0
-1.5990572 -1.0229944 -0.189541 0
-1.453899 -1.0471345 -0.18965037 0
-1.3655 -1.0404999 -0.1925 0
1.39791 -1.0170058 -0.14561394 0
1.464365 -1.0615087 -0.1424209 0
1.8436015 -1.024853 -0.15127078 0
2.3851128 -1.0276616 -0.16258948 0
2.4662256 -1.0623231 -0.16317897 0
2.546469 -1.060789 -0.16362105 0
2.6274662 -1.0574577 -0.16429822 0
2.7093327 -1.0903221 -0.16512278 0
2.8978608 -1.0069947 -0.16742466 0
2.973 -1.033 -0.168 0
-1.5283715 -0.97632962 -0.189694 0
-1.4576857 -0.92966485 -0.18984699 0
-1.36 -0.96100003 -0.189 0
1.265 -0.92799997 -0.152 0
1.331455 -0.97250289 -0.14880696 0
1.6685736 -0.92993277 -0.15338685 0
1.7448883 -0.97131932 -0.15246421 0
1.8506384 -0.91395652 -0.15108009 0
2.3286221 -0.95928812 -0.16160819 0
2.463733 -0.99172884 -0.16264911 0
2.6502061 -0.92128265 -0.16552837 0
2.7327576 -0.9498533 -0.16616046 0
2.8153093 -0.97842395 -0.16679257 0
-1.9460832 -0.83941412 -0.18409131 0
-1.8541762 -0.826401 -0.1844542 0
-1.387 -0.88300002 -0.19 0
1.4396294 -0.80577314 -0.15615474 0
1.5541015 -0.86785293 -0.15477079 0
1.689055 -0.83665216 -0.15311441 0
1.7666659 -0.87378263 -0.15213729 0
1.8781064 -0.82022834 -0.15209311 0
2.3199999 -0.80699998 -0.163 0
2.4438272 -0.84985602 -0.16394815 0
2.5676546 -0.892712 -0.16489628 0
2.7272162 -0.80394596 -0.16740033 0
2.8495474 -0.83992565 -0.16717547 0
2.9449999 -0.86799997 -0.167 0
-3.3561888 -0.79021066 -0.18799999 0
-3.2611482 -0.76951784 -0.18799999 0
-3.1789186 -0.75161427 -0.18799999 0
-3.0555739 -0.72475892 -0.18799999 0
-1.9530691 -0.74396902 -0.18273096 0
-1.8572584 -0.74965394 -0.18395893 0
-1.7564445 -0.75830466 -0.18486378 0
1.2869999 -0.72299999 -0.15800001 0
1.3633146 -0.76438653 -0.15707737 0
1.4562219 -0.72526085 -0.15604576 0
1.5338329 -0.76239133 -0.15506865 0
1.6213541 -0.75753421 -0.1543847 0
1.7502384 -0.76600164 -0.15343206 0
1.8867896 -0.71972769 -0.15318887 0
1.909 -0.72799999 -0.153 0
2.441777 -0.71999323 -0.16792503 0
2.5641081 -0.75597298 -0.16770017 0
2.6367378 -0.74329221 -0.1670424 0
2.7502208 -0.73943746 -0.16630185 0
2.882019 -0.72538644 -0.16603456 0
2.9089999 -0.78200001 -0.16599999 0
-2.9322295 -0.69790357 -0.18799999 0
-2.8499999 -0.68000001 -0.18799999 0
-1.9491342 -0.64566755 -0.18129483 0
-1.857096 -0.64866269 -0.18215805 0
-1.7563367 -0.66037792 -0.1837914 0
1.3576423 -0.65125567 -0.15739746 0
1.4726322 -0.64827335 -0.15633893 0
1.5519483 -0.68190998 -0.1555084 0
1.6443083 -0.62941581 -0.15525079 0
1.7251353 -0.65951979 -0.15456347 0
1.8153532 -0.6472649 -0.1543034 0
1.9463506 -0.64519519 -0.15417621 0
2.3829999 -0.64099997 -0.167 0
2.4704213 -0.63234663 -0.16725865 0
2.5518427 -0.65319324 -0.16701728 0
2.6387148 -0.64145464 -0.16701728 0
2.741683 -0.63164455 -0.16524002 0
2.8392799 -0.64214778 -0.16537251 0
-3.3241034 -0.54340672 -0.18691644 0
-3.2175055 -0.52667785 -0.1865274 0
-3.1338043 -0.51354229 -0.18622191 0
-3.0501032 -0.50040674 -0.18591644 0
-1.9424949 -0.53637391 -0.17909147 0
-1.8453798 -0.55684507 -0.18061654 0
-1.7513533 -0.5533163 -0.18128705 0
-1.63695 -0.50957835 -0.18099999 0
1.3175 -0.54499996 -0.15800001 0
1.4422406 -0.55415595 -0.15696904 0
1.5696766 -0.56088245 -0.1559017 0
1.6588293 -0.54993737 -0.15548711 0
1.7417867 -0.57742172 -0.15510888 0
1.834291 -0.5105443 -0.15378568 0
1.9220864 -0.5346508 -0.15304163 0
2.3686175 -0.54616803 -0.16348253 0
2.426471 -0.5286721 -0.15993011 0
2.5528243 -0.55617619 -0.1613777 0
2.66224 -0.54669136 -0.16270709 0
2.7305627 -0.52604294 -0.16390669 0
2.8409116 -0.54719174 -0.16561222 0
-2.9664023 -0.48727113 -0.18561096 0
-2.8827012 -0.47413558 -0.18530548 0
-2.799 -0.461 -0.185 0
-1.9356184 -0.43810067 -0.17810981 0
-1.8566183 -0.46556535 -0.17953806 0
-1.7453417 -0.44945717 -0.18056928 0
-1.652805 -0.42895311 -0.18119851 0
-1.5627517 -0.4460105 -0.18139949 0
-1.4729834 -0.45919278 -0.18099999 0
-1.391 -0.43399999 -0.18099999 0
1.327 -0.44 -0.15700001 0
1.451436 -0.4812265 -0.15643266 0
1.5442045 -0.43089345 -0.15624404 0
1.6685272 -0.46502954 -0.15519045 0
1.7557139 -0.44460601 -0.15446371 0
1.8436227 -0.42051011 -0.15372723 0
1.9281132 -0.43979758 -0.15300755 0
2.2385001 -0.46000001 -0.15700001 0
2.3468909 -0.45251074 -0.15797667 0
2.4727478 -0.44555742 -0.1598061 0
2.5579972 -0.46090987 -0.16107482 0
2.6411905 -0.44282225 -0.16209812 0
2.7264287 -0.4571867 -0.16331774 0
2.8278337 -0.47427559 -0.1647687 0
-3.2678027 -0.38082561 -0.18298042 0
-3.1741707 -0.37004268 -0.18280071 0
-3.0490196 -0.35562986 -0.1825605 0
-2.9238682 -0.34121707 -0.18232028 0
-2.8404341 -0.33160853 -0.18216014 0
-2.757 -0.322 -0.182 0
-1.962693 -0.33562979 -0.18258165 0
-1.8738412 -0.35842407 -0.18533199 0
-1.743 -0.3795 -0.18349999 0
-1.4471343 -0.37565887 -0.18269974 0
1.3395 -0.34 -0.15800001 0
1.4227428 -0.3609212 -0.15729275 0
1.5510094 -0.35371256 -0.15621969 0
1.6819854 -0.34204105 -0.15530655 0
1.7714443 -0.31692752 -0.15457703 0
1.8553331 -0.33211303 -0.15369244 0
1.921 -0.34400001 -0.153 0
2.2149999 -0.37099999 -0.156 0
2.3428571 -0.39254665 -0.15782943 0
-3.0424092 -0.26024365 -0.17179316 0
-2.9462948 -0.23853539 -0.17066482 0
-2.8618677 -0.23009589 -0.170123 0
-2.7642727 -0.24870341 -0.16964541 0
-2.6779544 -0.23802756 -0.16873406 0
-2.5484772 -0.22201377 -0.16736703 0
-2.4186666 -0.22533333 -0.16599999 0
-2.3764181 -0.23140004 -0.16775513 0
-2.2434728 -0.24730335 -0.17293067 0
-2.1169817 -0.23520224 -0.17795378 0
-2.0326545 -0.22713482 -0.18130252 0
-1.948418 -0.25122067 -0.18296932 0
-1.8775001 -0.236 -0.189 0
1.352 -0.241 -0.15899999 0
1.4358889 -0.2561855 -0.1581154 0
1.5425602 -0.23778574 -0.15681104 0
1.6260903 -0.25092861 -0.15596657 0
1.7316855 -0.22640096 -0.15478253 0
1.8564426 -0.24305132 -0.15357599 0
1.916 -0.25099999 -0.153 0
-3.0123448 -0.14138076 -0.17088942 0
-2.9167416 -0.13630128 -0.16998237 0
-2.8327932 -0.13184102 -0.16918589 0
-2.7491753 -0.17013215 -0.16908365 0
-2.6452165 -0.15256181 -0.16838261 0
-2.5556495 -0.15682007 -0.16826551 0
-2.4863138 -0.1422053 -0.1684981 0
-2.3454218 -0.15960833 -0.17485416 0
-2.2428415 -0.17913318 -0.17503871 0
-2.1294241 -0.16340119 -0.18004271 0
-2.0439494 -0.15676744 -0.18319514 0
-1.9584746 -0.15013373 -0.18634757 0
-1.873 -0.1435 -0.1895 0
1.3640001 -0.14399999 -0.1575 0
1.4648882 -0.14287992 -0.15647303 0
1.5834932 -0.12953952 -0.15522343 0
1.6683244 -0.13738602 -0.15463124 0
1.7531555 -0.14523253 -0.15403906 0
1.8379866 -0.15307903 -0.15344687 0
1.902 -0.15899999 -0.153 0
-3.003 -0.071999997 -0.17 0
-2.951673 -0.037080552 -0.16838348 0
-2.8581016 -0.045344096 -0.16797133 0
-2.7395573 -0.021329135 -0.16661748 0
-2.6421154 -0.059720371 -0.16658899 0
-2.5580575 -0.056860186 -0.16579451 0
-2.4637492 -0.053636637 -0.16526775 0
-2.370815 -0.076481767 -0.16626735 0
-2.25348 -0.072906844 -0.17130041 0
-2.1380808 -0.055728376 -0.17496745 0
-2.0278382 -0.05891256 -0.17936683 0
-1.9438672 -0.056210034 -0.18248329 0
-1.8660001 -0.075000003 -0.19 0
-2.622714 0.00088375784 -0.16570541 0
-2.5403571 0.0019418788 -0.16535272 0
-2.4579999 0.003 -0.16500001 0
-2.3333201 0.048301265 -0.16420539 0
-2.2472119 0.044982024 -0.16732861 0
-2.1667843 0.041861519 -0.17024645 0
-2.0461421 0.037180759 -0.17462324 0
-1.919 0.054666668 -0.17866667 0
-2.4248939 0.1184707 -0.16534406 0
-2.3266566 0.11478449 -0.16774009 0
-2.2387955 0.15639941 -0.16464895 0
-2.1483951 0.13844934 -0.16948009 0
-2.0675967 0.13279957 -0.17248672 0
-1.964625 0.14850308 -0.17657541 0
-1.896 0.189 -0.17900001 0
-2.3502584 0.22578204 -0.16428718 0
-2.2281716 0.26103309 -0.16485088 0
-2.136693 0.23891224 -0.16958223 0
-2.0566287 0.22977482 -0.17288816 0
-1.9694856 0.26898801 -0.17605752 0
-1.8924999 0.25650001 -0.18000001 0
-2.329 0.39199999 -0.161 0
-2.2545996 0.36165425 -0.16260174 0
-2.1533251 0.34528252 -0.1670443 0
-2.0483737 0.34938601 -0.17049392 0
-1.9493376 0.3696413 -0.16921863 0
-1.8387783 0.36390853 -0.17070775 0
-1.7479314 0.35713136 -0.17017961 0
-1.6714774 0.36251366 -0.17181595 0
-1.5933332 0.36133334 -0.17166667 0
-2.310751 0.4645884 -0.16004997 0
-2.2458699 0.4702388 -0.16151863 0
-2.1497009 0.45168039 -0.16225438 0
-2.0396125 0.44666547 -0.16365537 0
-1.9481522 0.44637647 -0.16502054 0
-1.8584684 0.44453812 -0.16612622 0
-1.7504035 0.44805998 -0.16761538 0
-1.6448214 0.46939737 -0.16863129 0
-1.5572 0.4544 -0.16980001 0
2.3410001 0.40400001 -0.149 0
2.4284871 0.41694391 -0.149809 0
2.5159738 0.4298878 -0.15061799 0
2.6472042 0.44930363 -0.15183148 0
2.7784345 0.46871948 -0.15304497 0
2.8659215 0.48166338 -0.15385397 0
2.9534082 0.49460727 -0.15466297 0
-2.5339999 0.52999997 -0.155 0
-2.485877 0.52022099 -0.15587497 0
-2.3971894 0.50219893 -0.15748747 0
-2.2630711 0.56686723 -0.158683 0
-2.1491075 0.54845786 -0.16056578 0
-2.0610292 0.54250324 -0.16184424 0
-1.9503055 0.55066806 -0.16371636 0
-1.8500208 0.55070722 -0.165004 0
-1.750638 0.54872316 -0.16628757 0
-1.6496091 0.54911554 -0.16714115 0
-1.5446917 0.55180478 -0.16850615 0
-1.499 0.597 -0.167 0
3.0694475 0.51177561 -0.15573597 0
-2.4511547 0.66231233 -0.15517707 0
-2.3536286 0.63646221 -0.15686874 0
-2.2385561 0.64764696 -0.15948059 0
-2.1366253 0.63784343 -0.16081357 0
-2.045444 0.65593928 -0.16128328 0
-1.9475563 0.65328479 -0.1622861 0
-1.8549384 0.65199238 -0.16313285 0
-1.7562882 0.65087891 -0.16404694 0
-1.6568506 0.64524823 -0.16529188 0
-1.5581361 0.65868789 -0.16628824 0
-1.466 0.6516 -0.16760001 0
-2.3847101 0.79457504 -0.15602101 0
-2.2399073 0.73597759 -0.15876907 0
-2.1341808 0.74455643 -0.15881753 0
-2.0407071 0.75299037 -0.15953764 0
-1.9489111 0.74854082 -0.16111021 0
-1.8385582 0.75096989 -0.16285607 0
-1.7545698 0.7547518 -0.16305542 0
-1.6357603 0.75699836 -0.16371869 0
-1.53081 0.74779874 -0.16442291 0
-1.4410467 0.73996782 -0.16399692 0
-1.3775001 0.74000001 -0.164 0
1.572 0.773 -0.15099999 0
-2.6433926 0.88402307 -0.15572353 0
-2.557595 0.85434872 -0.15581569 0
-2.4717975 0.82467437 -0.15590784 0
-2.1512578 0.88859433 -0.15840149 0
-2.0524936 0.8593927 -0.15914211 0
-1.9460607 0.85474491 -0.15967754 0
-1.8519113 0.85028332 -0.16055274 0
-1.7468903 0.85489798 -0.16110151 0
-1.6569113 0.83996409 -0.16173592 0
-1.5457907 0.8437798 -0.16110043 0
-1.4526639 0.83764005 -0.16152634 0
-1.3401935 0.85432082 -0.16148585 0
-1.2690001 0.89499998 -0.161 0
1.4695001 0.88100004 -0.149 0
1.545 0.80599999 -0.15099999 0
1.637494 0.83123076 -0.14941931 0
1.7164879 0.87296146 -0.14783862 0
1.8055964 0.89473331 -0.14697878 0
1.9345 0.847 -0.1485 0
2.0319188 0.83481133 -0.14775433 0
2.1068377 0.86862266 -0.14650865 0
-2.9007854 0.97304612 -0.15544707 0
-2.8149879 0.94337177 -0.15553921 0
-2.7291903 0.91369742 -0.15563138 0
-2.3714714 0.97912288 -0.15579279 0
-2.2708051 0.93668121 -0.15631722 0
-2.1013732 0.98364592 -0.15784341 0
-2.0399837 0.9566884 -0.157746 0
-1.9547542 0.93416005 -0.15847279 0
-1.8710006 0.97156888 -0.15769446 0
-1.757199 0.95195687 -0.15830083 0
-1.6551965 0.94728118 -0.1588522 0
-1.5503489 0.94392776 -0.15891466 0
-1.4427521 0.97157949 -0.15872897 0
-1.3529519 0.94052255 -0.15992844 0
-1.248 0.96166676 -0.15966666 0
1.377 0.963 -0.14649999 0
1.4559147 0.94382465 -0.14625199 0
1.5470226 0.92814839 -0.14738172 0
1.624545 0.97529674 -0.14576346 0
1.7853673 0.93465114 -0.14553711 0
1.8744757 0.95642292 -0.14467725 0
1.9724369 0.95228094 -0.14544755 0
2.0550931 0.96434605 -0.14519426 0
2.1817565 0.90243405 -0.14526296 0
2.2566752 0.93624538 -0.14401728 0
2.3547971 0.98052835 -0.14238581 0
-3.2439756 1.0917435 -0.15507844 0
-3.1581781 1.0620692 -0.15517059 0
-3.0723805 1.0323948 -0.15526275 0
-2.986583 1.0027205 -0.1553549 0
-2.6188858 1.0844915 -0.15517114 0
-2.5364144 1.0493686 -0.15537836 0
-2.453943 1.0142457 -0.15558557 0
-2.2356522 1.044878 -0.15588802 0
-2.182795 1.0202266 -0.15644884 0
-2.01 1.0319999 -0.15700001 0
-1.8339097 1.0477285 -0.15612993 0
-1.7499627 1.078825 -0.15546963 0
-1.6615055 1.0413685 -0.15643418 0
-1.5637041 1.055869 -0.15658669 0
-1.4528475 1.0667536 -0.15686442 0
-1.3435789 1.0575358 -0.15702248 0
-1.2459978 1.0386231 -0.15656058 0
-1.1446666 1.0343333 -0.15633334 0
1.268 1.053 -0.14433332 0
1.3517523 1.0443996 -0.14469424 0
1.435872 1.0297616 -0.14474402 0
1.5396986 1.0507277 -0.14354269 0
1.6632526 1.0525454 -0.14304264 0
1.7405702 1.046469 -0.14340742 0
1.839582 1.0431876 -0.14305757 0
1.9456121 1.0204185 -0.14189517 0
2.0324636 1.0398844 -0.14151588 0
2.1592019 1.0475944 -0.14201845 0
2.2690001 1.071 -0.141 0
-3.3169999 1.117 -0.155 0
-2.8663001 1.1898602 -0.15454949 0
-2.7425928 1.1371758 -0.15486032 0
-2.5288253 1.1865373 -0.1546562 0
-2.448869 1.147903 -0.15499215 0
-2.3689127 1.1092687 -0.15532809 0
-2.1520879 1.1955843 -0.15450752 0
-2.0579758 1.1741102 -0.154938 0
-1.9481505 1.1302402 -0.15512532 0
-1.84109 1.1563822 -0.15400863 0
-1.7350768 1.1340461 -0.15422682 0
-1.6724359 1.1535792 -0.15396392 0
-1.5584024 1.1645455 -0.15445293 0
-1.4424378 1.1531236 -0.15457529 0
-1.3652514 1.1444358 -0.15411717 0
-1.2511233 1.1370627 -0.15458308 0
-1.1452146 1.1441606 -0.1545129 0
-1.0446666 1.1453334 -0.15333334 0
1.1670001 1.143 -0.1435 0
1.2426971 1.1524348 -0.14230065 0
1.3391358 1.1480694 -0.14193344 0
1.4404544 1.1395786 -0.14186078 0
1.5469507 1.1659111 -0.14091936 0
1.6537942 1.1484293 -0.14078128 0
1.7488664 1.1424606 -0.14088395 0
1.8516493 1.1273519 -0.14081611 0
1.9392231 1.1560144 -0.139569 0
2.0415201 1.1672215 -0.13816148 0
2.138396 1.146174 -0.13718398 0
2.2385509 1.1489767 -0.13730565 0
-3.0581217 1.271553 -0.15406753 0
-2.9487715 1.2249831 -0.15434228 0
-2.6487598 1.2444888 -0.15415227 0
-2.3042636 1.2827529 -0.15352257 0
-2.2281756 1.2391685 -0.15401505 0
-2.1564274 1.2663307 -0.15431398 0
-1.9578707 1.2754133 -0.15341635 0
-1.8395927 1.2328504 -0.15273359 0
-1.7607349 1.2549498 -0.15231588 0
-1.6510478 1.2348226 -0.15234081 0
-1.561981 1.2674555 -0.1519386 0
-1.4567448 1.2511038 -0.15224965 0
-1.3501841 1.2461389 -0.15212758 0
-1.2578716 1.2409371 -0.15250789 0
-1.1507655 1.2544661 -0.15178272 0
-1.0424589 1.2562914 -0.15027377 0
-0.96399999 1.2236665 -0.15100001 0
-0.88750005 1.276 -0.14750001 0
0.667 1.226 -0.145 0
0.70083225 1.2824998 -0.13857187 0
1.08 1.25 -0.145 0
1.1610421 1.2582859 -0.1433845 0
1.2459986 1.2480193 -0.14071481 0
1.3260913 1.2383044 -0.14040193 0
1.440652 1.2535565 -0.13911091 0
1.5615683 1.2655518 -0.13823834 0
1.6635189 1.2482698 -0.13919951 0
1.7568564 1.2390938 -0.13888101 0
1.842108 1.2629343 -0.13756478 0
1.976005 1.2465314 -0.13736401 0
2.0654683 1.2843347 -0.13635984 0
2.1678703 1.2496889 -0.13504878 0
2.2745285 1.2663996 -0.13329968 0
2.3462243 1.2348371 -0.13279036 0
2.425 1.277 -0.131 0
-2.9230001 1.377 -0.153 0
-2.8486505 1.3410747 -0.15331239 0
-2.7686942 1.3024404 -0.15364835 0
-2.4564393 1.3699214 -0.1525376 0
-2.3654523 1.3547592 -0.1532037 0
-2.272903 1.336441 -0.15375197 0
-2.1084514 1.3750221 -0.15302725 0
-2.0331609 1.3252176 -0.1532218 0
-1.9576044 1.3418682 -0.15265006 0
-1.8477535 1.35326 -0.15220796 0
-1.7535563 1.3409634 -0.15151985 0
-1.6434468 1.3553985 -0.15056767 0
-1.5413361 1.3536959 -0.14995806 0
-1.4560659 1.3572911 -0.14997764 0
-1.3531857 1.3584621 -0.14957134 0
-1.2494513 1.3416712 -0.15000045 0
-1.1570299 1.3413728 -0.14899926 0
-1.0445057 1.3590484 -0.14745772 0
-0.95947605 1.3457087 -0.14688593 0
-0.84649456 1.3507202 -0.14615351 0
-0.75300002 1.3746667 -0.14566667 0
-0.36300001 1.3670001 -0.14449999 0
0.45649999 1.3840001 -0.141 0
0.54066664 1.3313333 -0.14300001 0
0.63081139 1.3875483 -0.13573277 0
0.75393289 1.3728 -0.13142875 0
0.82200003 1.38 -0.134 0
0.96099997 1.3494999 -0.145 0
1.0476484 1.3559381 -0.14372618 0
1.1679101 1.3492253 -0.14238881 0
1.245437 1.3374703 -0.14047167 0
1.3455082 1.3461313 -0.13827902 0
1.4571825 1.3596088 -0.13730384 0
1.5537943 1.3609815 -0.1369863 0
1.6542168 1.3433332 -0.13692339 0
1.7525403 1.3482068 -0.1363889 0
1.8566487 1.3597825 -0.13599522 0
1.9553547 1.3575811 -0.1351735 0
2.0246363 1.3161935 -0.13503183 0
2.1277103 1.3433771 -0.13447033 0
2.2345963 1.3637997 -0.13314025 0
2.3510389 1.3319888 -0.13117211 0
-2.6086149 1.4570901 -0.15155265 0
-2.5191908 1.4450836 -0.15233654 0
-2.4282041 1.4299214 -0.15300263 0
-2.2590318 1.4746308 -0.15263815 0
-2.1630316 1.4475859 -0.15261641 0
-2.0499511 1.4418499 -0.15222465 0
-1.9359491 1.4300215 -0.15186277 0
-1.8369118 1.4590166 -0.15160882 0
-1.7371155 1.4817432 -0.14852922 0
-1.6486109 1.4349757 -0.14899792 0
-1.5578722 1.451383 -0.14828989 0
-1.4367113 1.4408305 -0.14779884 0
-1.3444868 1.447518 -0.14734735 0
-1.2602123 1.4580312 -0.14686508 0
-1.1285779 1.4395397 -0.1458731 0
-1.0433866 1.459939 -0.14489596 0
-0.92395777 1.4369922 -0.14503287 0
-0.84663057 1.4443296 -0.14542665 0
-0.77222216 1.4463199 -0.14407983 0
-0.66513848 1.4389062 -0.14325991 0
-0.57613051 1.4611238 -0.14226697 0
-0.42437869 1.4520452 -0.14210986 0
-0.3508032 1.4572128 -0.14213996 0
-0.25442374 1.4555416 -0.14152554 0
-0.141 1.487 -0.14 0
0.28299999 1.4859999 -0.138 0
0.36056694 1.4562817 -0.13800716 0
0.44663474 1.433188 -0.13693514 0
0.54391378 1.4557019 -0.12955935 0
0.6420362 1.4629202 -0.12534259 0
0.73363495 1.4487026 -0.12553108 0
0.84420061 1.4543065 -0.13085698 0
0.97008765 1.4620862 -0.13312235 0
1.080623 1.4440386 -0.1419944 0
1.1248851 1.4594907 -0.14098784 0
1.2745993 1.4355118 -0.14011908 0
1.3661848 1.465553 -0.13726151 0
1.4359961 1.4360579 -0.13614443 0
1.535805 1.4520664 -0.13575582 0
1.622609 1.4590943 -0.13457534 0
1.7553561 1.4452896 -0.13398425 0
1.8534145 1.459301 -0.1336536 0
1.9469916 1.4620163 -0.13339402 0
2.0474081 1.4456996 -0.13316476 0
2.1591516 1.4661565 -0.13116856 0
2.2580156 1.4370009 -0.13160428 0
2.3637857 1.4815751 -0.13104819 0
2.4790001 1.474 -0.131 0
-2.6715677 1.520558 -0.15135339 0
-2.5835049 1.5234017 -0.15225329 0
-2.4096122 1.5742397 -0.15224905 0
-2.334322 1.5244353 -0.1524436 0
-2.2531519 1.5474318 -0.15225013 0
-2.1399078 1.5438688 -0.15163398 0
-2.0325031 1.5768349 -0.15133934 0
-1.9623359 1.5221125 -0.15144944 0
-1.8607808 1.5506148 -0.14810787 0
-1.7469978 1.5717913 -0.14705969 0
-1.6540016 1.5358912 -0.1475269 0
-1.560132 1.5457927 -0.14685063 0
-1.4526697 1.5392938 -0.14629637 0
-1.3535442 1.5361356 -0.14611383 0
-1.2251706 1.5420855 -0.14427611 0
-1.1622845 1.5598239 -0.14334628 0
-1.080034 1.5654259 -0.1426758 0
-0.96252328 1.5613695 -0.14214922 0
-0.83575022 1.5541871 -0.14221604 0
-0.75363398 1.555783 -0.14170951 0
-0.62891001 1.5503522 -0.14043765 0
-0.55120939 1.5471816 -0.13992403 0
-0.45575738 1.5560902 -0.13921972 0
-0.35680321 1.5482128 -0.13993996 0
-0.25590062 1.5542635 -0.13875881 0
-0.15910201 1.5666488 -0.1374847 0
-0.059289437 1.5702282 -0.13607371 0
0.036499999 1.5615001 -0.1365 0
0.14666666 1.5543333 -0.13566668 0
0.24404573 1.5590696 -0.1362813 0
0.35232425 1.5609459 -0.13674979 0
0.45879716 1.552992 -0.12711595 0
0.55704266 1.5647103 -0.11988559 0
0.63976043 1.5400106 -0.12353588 0
0.75225031 1.5568438 -0.12183472 0
0.86494344 1.5505763 -0.12632622 0
0.94618529 1.5634403 -0.12959081 0
1.0395473 1.5481917 -0.13346411 0
1.1686958 1.532101 -0.13891681 0
1.2432902 1.574102 -0.13773665 0
1.3437302 1.5476758 -0.13716643 0
1.4550292 1.5437973 -0.13582823 0
1.5526218 1.5661801 -0.13372548 0
1.6576691 1.5438665 -0.13263677 0
1.7458503 1.550531 -0.13195424 0
1.8692323 1.5345198 -0.13157308 0
1.9747422 1.5692692 -0.12985756 0
2.0577025 1.5478401 -0.13047481 0
2.1316314 1.5476345 -0.13140713 0
2.2485962 1.5538334 -0.12873949 0
2.333427 1.5457125 -0.12068507 0
2.44643 1.5335804 -0.12783794 0
2.5560558 1.5209498 -0.12703104 0
2.6331117 1.5678996 -0.12306209 0
-2.506 1.638 -0.152 0
-2.4535906 1.658651 -0.15201823 0
-2.3423119 1.6501298 -0.15160438 0
-2.248348 1.6229923 -0.15131874 0
-2.1609826 1.6370877 -0.15118656 0
-2.0538526 1.6717169 -0.14885941 0
-1.935231 1.6509864 -0.14655843 0
-1.8347806 1.6508789 -0.14581418 0
-1.7732134 1.6573298 -0.14541794 0
-1.6536714 1.658722 -0.14520884 0
-1.5663257 1.6472378 -0.14485501 0
-1.4519143 1.6709191 -0.1440413 0
-1.3536066 1.6343784 -0.14360625 0
-1.2383227 1.6449575 -0.14110345 0
-1.1391777 1.6628182 -0.13998561 0
-1.0672114 1.6390727 -0.14094892 0
-0.95365161 1.6505944 -0.13996147 0
-0.86620921 1.650008 -0.13980061 0
-0.73036891 1.6543278 -0.13907766 0
-0.64015228 1.6476262 -0.13853712 0
-0.54336995 1.6736317 -0.13715833 0
-0.46087748 1.6367079 -0.13606578 0
-0.34907562 1.6559924 -0.13533048 0
-0.24514413 1.650319 -0.13434383 0
-0.14819995 1.6580336 -0.13362768 0
-0.060224626 1.6531354 -0.13331887 0
0.051201798 1.6521279 -0.13290723 0
0.15033937 1.6374323 -0.13377365 0
0.25241441 1.6645448 -0.13379128 0
0.35833612 1.661592 -0.13308522 0
0.45653424 1.6500603 -0.12707819 0
0.55429822 1.6474552 -0.12031678 0
0.64858884 1.649663 -0.11646641 0
0.7392146 1.642242 -0.11656532 0
0.87323344 1.6645223 -0.11825052 0
0.95513743 1.6487488 -0.12681581 0
1.0573695 1.6534287 -0.12677296 0
1.1317015 1.6516896 -0.13397881 0
1.2498194 1.6474472 -0.13542441 0
1.364 1.697 -0.133 0
1.4400992 1.6410118 -0.13511908 0
1.5313203 1.6638297 -0.13211578 0
1.6340922 1.6517236 -0.13169201 0
1.7501478 1.6618366 -0.12996182 0
1.853439 1.6469302 -0.12920843 0
1.949 1.6160001 -0.12899999 0
2.0391166 1.64921 -0.12330648 0
2.1475179 1.6643797 -0.12527888 0
2.2447531 1.6525998 -0.12676443 0
2.3517044 1.6280134 -0.12238952 0
2.4593439 1.6451613 -0.10943478 0
2.5518718 1.6313763 -0.11217445 0
2.6498682 1.6582242 -0.11054157 0
2.7486954 1.6383244 -0.11710866 0
-2.358 1.7029999 -0.15099999 0
-2.2551262 1.7363685 -0.15100797 0
-2.1492269 1.7084663 -0.15110591 0
-2.0419998 1.742 -0.1455 0
-1.9433346 1.7559558 -0.14463302 0
-1.8521811 1.749374 -0.14484549 0
-1.7366558 1.7451746 -0.14469171 0
-1.651628 1.7623743 -0.14348856 0
-1.5350325 1.7274104 -0.14366111 0
-1.4582335 1.7531117 -0.14219289 0
-1.3619522 1.764309 -0.13946551 0
-1.2626675 1.7515532 -0.13776104 0
-1.1621006 1.7359633 -0.13788342 0
-1.0385162 1.7639436 -0.13661472 0
-0.9549582 1.7405313 -0.13701844 0
-0.87323105 1.7555742 -0.13617276 0
-0.75263298 1.7512646 -0.1363056 0
-0.65683717 1.7420392 -0.13468283 0
-0.55430692 1.7635475 -0.13132071 0
-0.44071257 1.7624875 -0.12937145 0
-0.33825865 1.7504884 -0.12984252 0
-0.24793637 1.7322685 -0.13057391 0
-0.15640742 1.745137 -0.12927325 0
-0.059008252 1.7478466 -0.12935257 0
0.052506 1.7660933 -0.12902403 0
0.15536064 1.7420808 -0.12992954 0
0.24600759 1.7602271 -0.13025227 0
0.34682828 1.7387867 -0.13261943 0
0.45453462 1.7464461 -0.12468681 0
0.55632085 1.7449359 -0.12083238 0
0.65335763 1.7594637 -0.11570945 0
0.75363135 1.7425743 -0.11712416 0
0.82823926 1.7635158 -0.11467852 0
0.94926369 1.7483643 -0.11477048 0
1.0310122 1.7371311 -0.12422768 0
1.1459794 1.7519045 -0.12563294 0
1.2543508 1.7846781 -0.12948941 0
1.3382034 1.7624909 -0.13129148 0
1.4501762 1.7510319 -0.13238522 0
1.5717998 1.7482477 -0.12936072 0
1.6590494 1.7658659 -0.12743722 0
1.7457894 1.7429188 -0.12716024 0
1.8544556 1.7460713 -0.12359436 0
1.9476016 1.7493049 -0.12202092 0
2.0353415 1.7543105 -0.11570881 0
2.1540959 1.7324443 -0.12263896 0
2.2448001 1.7309743 -0.11148548 0
2.3341758 1.7511822 -0.10939452 0
2.4323363 1.7298262 -0.10977162 0
2.6054559 1.7015872 -0.1014015 0
2.7261577 1.7049657 -0.10405542 0
2.864279 1.7087491 -0.11115523 0
2.941335 1.7556989 -0.10718627 0
-2.0606318 1.8757889 -0.14068721 0
-1.9933985 1.8146762 -0.14187476 0
-1.807528 1.8520093 -0.14241372 0
-1.7338451 1.8211359 -0.14270137 0
-1.6583401 1.8521433 -0.14232536 0
-1.5533603 1.8369757 -0.14117347 0
-1.4645166 1.8568254 -0.13898025 0
-1.3540754 1.8442968 -0.13569222 0
-1.2567012 1.8719268 -0.13376686 0
-1.1531506 1.8546615 -0.13396147 0
-1.0394148 1.8580378 -0.13362639 0
-0.94882655 1.8401785 -0.13357452 0
-0.82418942 1.8430971 -0.13373932 0
-0.73586065 1.8457001 -0.13330413 0
-0.65220231 1.8591167 -0.13092372 0
-0.55040306 1.8509787 -0.12733297 0
-0.45213771 1.86324 -0.12373108 0
-0.34594563 1.8461326 -0.12622872 0
-0.24729864 1.8359694 -0.12514167 0
-0.15468283 1.8319802 -0.12522091 0
-0.049516331 1.8502308 -0.12561239 0
0.045122914 1.8511791 -0.12628059 0
0.15686932 1.8463198 -0.1263559 0
0.24734099 1.86143 -0.12709476 0
0.35369036 1.848555 -0.12801568 0
0.43632391 1.8449229 -0.12594578 0
0.5399183 1.8423153 -0.12030762 0
0.64476734 1.8516079 -0.11504046 0
0.7375797 1.8521086 -0.11383054 0
0.84529334 1.8566755 -0.11204934 0
0.9214409 1.8150586 -0.11318459 0
1.0389926 1.8562164 -0.12124874 0
1.1567912 1.8489562 -0.12459365 0
1.2688226 1.8672336 -0.12625569 0
1.3416805 1.8308848 -0.12948042 0
1.4604762 1.8484563 -0.12999609 0
1.5504694 1.8410505 -0.1297878 0
1.6521262 1.855742 -0.12404791 0
1.7472544 1.8377199 -0.11811168 0
1.8674262 1.8623823 -0.12136874 0
1.9293638 1.8090305 -0.11895929 0
2.0398452 1.8390788 -0.10857851 0
2.1529586 1.8719246 -0.10012267 0
2.2696142 1.8110015 -0.10154907 0
2.477391 1.8001524 -0.10580511 0
3.0183907 1.8026488 -0.10321732 0
-2.1614814 1.9674579 -0.13890591 0
-1.8713987 1.9545217 -0.1397987 0
-1.6597688 1.9453058 -0.13964918 0
-1.5269046 1.9711181 -0.13543099 0
-1.4276586 1.9268763 -0.13401392 0
-1.3396297 1.9756969 -0.13064267 0
-1.2540572 1.9608631 -0.13074458 0
-1.1484755 1.9761124 -0.12998599 0
-1.0590475 1.9451979 -0.13107109 0
-0.96694958 1.9331976 -0.129794 0
-0.8422389 1.9579939 -0.13006285 0
-0.76143724 1.9501381 -0.12900297 0
-0.62615269 1.929212 -0.12891096 0
-0.5419634 1.9389271 -0.12347325 0
-0.44706154 1.9497234 -0.11934991 0
-0.35035527 1.9418741 -0.1173 0
-0.25296345 1.9387025 -0.12030518 0
-0.1530966 1.9465371 -0.12221168 0
-0.055864103 1.9454254 -0.12153461 0
0.039457664 1.9463614 -0.12311117 0
0.15326646 1.9489765 -0.12230214 0
0.25847295 1.9469838 -0.12420679 0
0.35257277 1.9399157 -0.12494715 0
0.45056039 1.9588029 -0.12347062 0
0.55529994 1.9456197 -0.11809537 0
0.66219133 1.9420776 -0.11425216 0
0.75299609 1.9507868 -0.11074863 0
0.87454695 1.9525673 -0.11553878 0
0.95259213 1.9226233 -0.11475483 0
1.0569388 1.9277796 -0.11763791 0
1.1662474 1.9593928 -0.12407169 0
1.3646688 1.9582525 -0.12591769 0
1.452041 1.9403253 -0.12799893 0
1.5533247 1.9666209 -0.12701106 0
1.6890416 1.9440497 -0.10635417 0
1.7475929 1.9345709 -0.11563294 0
2.994 1.98 -0.103 0
-2.262331 2.0591269 -0.1371246 0
-1.9649128 2.0512762 -0.13825557 0
-1.807761 2.0681844 -0.13788342 0
-1.7462692 2.0458755 -0.13820618 0
-1.647341 2.0274391 -0.1373208 0
-1.5368866 2.0699053 -0.12708101 0
-1.4610487 2.016711 -0.13112445 0
-1.280745 2.0499959 -0.12143667 0
-1.154 2.0599999 -0.12800001 0
-1.0446092 2.0258117 -0.12756065 0
-0.93337882 2.0921943 -0.12647864 0
-0.85466105 2.0488853 -0.12705542 0
-0.72625208 2.0707984 -0.12407066 0
-0.65374696 2.0144053 -0.12616184 0
-0.55198383 2.0334425 -0.11550426 0
-0.45372805 2.0513952 -0.11666133 0
-0.33820939 2.0448611 -0.11094899 0
-0.24199918 2.0357375 -0.11390842 0
-0.15461294 2.0554025 -0.11977163 0
-0.05582973 2.0449216 -0.11766268 0
0.044668261 2.0515814 -0.11911628 0
0.16013159 2.0348117 -0.1192501 0
0.26084408 2.0386739 -0.12139449 0
0.35124913 2.0457613 -0.1204942 0
0.44930136 2.0747273 -0.11917006 0
0.55856454 2.0546858 -0.11731774 0
0.65680593 2.0536726 -0.11294981 0
0.74361098 2.0346432 -0.11216453 0
0.82529265 2.059962 -0.11466512 0
0.92359185 2.0194795 -0.11433673 0
1.1476671 2.0546708 -0.11679894 0
1.4358702 2.0538042 -0.12406831 0
1.5470387 2.0675843 -0.1248102 0
1.6293086 2.042228 -0.12526371 0
-2.326 2.1170001 -0.13600001 0
-2.0409999 2.1300001 -0.13699999 0
-1.8463221 2.1600332 -0.13221696 0
-1.7532382 2.1519022 -0.13355535 0
-1.6742926 2.1077337 -0.13553801 0
-1.5725464 2.1636205 -0.11332406 0
-1.3538628 2.1609898 -0.10859169 0
-1.1475778 2.1560144 -0.11384869 0
-0.96977532 2.1752267 -0.12405842 0
-0.86730051 2.1517963 -0.12346043 0
-0.75591469 2.1556082 -0.12134786 0
-0.65654045 2.1614652 -0.12137222 0
-0.55963659 2.1450362 -0.1221442 0
-0.43539762 2.1422637 -0.12155471 0
-0.32859713 2.1543281 -0.11980481 0
-0.24373132 2.1217628 -0.10929704 0
-0.17124389 2.1428492 -0.1187655 0
-0.076740906 2.142674 -0.11490427 0
0.060858756 2.1293795 -0.11684953 0
0.15417637 2.1337285 -0.11551882 0
0.2500008 2.1565561 -0.11723929 0
0.3383801 2.1553452 -0.11781136 0
0.47108436 2.1495256 -0.11720443 0
0.55937064 2.1432903 -0.11540573 0
0.65474343 2.1549578 -0.1133978 0
0.76075196 2.1424658 -0.11282063 0
0.8472572 2.1706204 -0.11146552 0
0.96613878 2.1485467 -0.1158755 0
1.1768687 2.1511691 -0.10840907 0
1.2354342 2.1724911 -0.12033961 0
1.477 2.109 -0.123 0
-3.0639999 2.2880001 -0.14300001 0
-1.858144 2.2785664 -0.12493394 0
-1.7886603 2.2458744 -0.12468342 0
-1.6263195 2.2344308 -0.10448609 0
-1.0061718 2.2582591 -0.12163819 0
-0.93031096 2.2372518 -0.12116157 0
-0.84095258 2.2252066 -0.11968373 0
-0.73652971 2.2699857 -0.11791448 0
-0.64850307 2.2742987 -0.11816633 0
-0.56598747 2.2704234 -0.11805568 0
-0.44373378 2.2629769 -0.11728689 0
-0.34111655 2.2413936 -0.11716578 0
-0.23282485 2.2460401 -0.11613628 0
-0.13795878 2.2596757 -0.1150316 0
-0.05852031 2.2291408 -0.107309 0
0.029893516 2.2439313 -0.11395329 0
0.14199078 2.2504959 -0.11188549 0
0.26437944 2.2738304 -0.1059705 0
0.3562575 2.2380824 -0.11254585 0
0.465 2.233 -0.1155 0
0.53724301 2.2452028 -0.11410347 0
0.63541961 2.2637603 -0.1126653 0
0.74337739 2.2170584 -0.11107943 0
0.91640902 2.2686677 -0.11030342 0
1 2.221 -0.116 0
1.233 2.2550001 -0.106 0
-3.2047608 2.393738 -0.1189078 0
-3.1343803 2.3408692 -0.13095391 0
-1.9509323 2.3281991 -0.10830182 0
-1.8537586 2.3168714 -0.10678276 0
-1.0425683 2.3412914 -0.11921796 0
-0.93531531 2.3451664 -0.11701476 0
-0.85483009 2.3462181 -0.11500867 0
-0.76412392 2.3551788 -0.11516535 0
-0.6457094 2.3609815 -0.11527324 0
-0.52870524 2.3597989 -0.11524037 0
-0.448064 2.3841996 -0.11317174 0
-0.35363597 2.3284593 -0.11452675 0
-0.24235334 2.333859 -0.11346662 0
-0.13543251 2.3740168 -0.11130257 0
-0.051030129 2.3616638 -0.10993394 0
0.036427934 2.3623307 -0.11023505 0
0.15994079 2.3524702 -0.10750562 0
0.35092717 2.3455832 -0.10849695 0
0.43510893 2.3150339 -0.10265142 0
0.54405344 2.3319564 -0.10299359 0
-3.2751412 2.4466071 -0.1068617 0
-1.1415 2.487 -0.1155 0
-1.0350554 2.4411261 -0.11521565 0
-0.95700002 2.454 -0.113 0
-0.84075928 2.4442775 -0.11216639 0
-0.74934971 2.4549086 -0.11204173 0
-0.65678036 2.455049 -0.11225733 0
-0.55074364 2.4579036 -0.11217347 0
-0.461 2.457 -0.111 0
-0.36832768 2.4302626 -0.11144385 0
-0.25224844 2.4247637 -0.11070412 0
-0.13749999 2.4145 -0.11 0
-2.7196345 2.5711839 -0.13011785 0
-2.6330013 2.5457082 -0.13450426 0
-2.5469999 2.5209999 -0.139 0
-1.2138903 2.5631411 -0.10193937 0
-1.0634089 2.5464146 -0.10119571 0
-0.98784834 2.526968 -0.10034429 0
-0.85503042 2.5299523 -0.10156647 0
-0.79102033 2.5356922 -0.10191346 0
-0.66600531 2.5444767 -0.10005424 0
-0.53990358 2.5470107 -0.10173362 0
-0.23064944 2.5130756 -0.10023691 0
-2.846904 2.6955514 -0.10835353 0
-2.7832694 2.6333675 -0.11923568 0
-2.6730053 2.6438324 -0.11701704 0
-2.7360082 2.7052488 -0.10602556 0
-0.23692818 -4.1311693 -0.036619954 0
-0.2324993 -4.0161715 -0.055709913 0
-0.22914226 -3.9290042 -0.070179924 0
-0.22578523 -3.8418367 -0.084649935 0
-0.22242817 -3.7546694 -0.099119946 0
-0.040185656 -3.7509632 -0.038758513 0
-0.036934178 -3.6310337 -0.053765327 0
-0.034497049 -3.541141 -0.065013625 0
-0.032059915 -3.4512484 -0.076261923 0
0.12004263 -3.443851 -0.042379502 0
-0.029622786 -3.3613558 -0.087510221 0
0.11669961 -3.3211141 -0.061164133 0
-0.027185656 -3.2714632 -0.098758519 0
0.11431395 -3.2335262 -0.074569255 0
0.11192829 -3.1459386 -0.087974384 0
-3.9649999 -2.8169999 -0.052000001 0
-3.9101305 -2.779624 -0.063867792 0
-3.8371162 -2.729888 -0.079660267 0
-3.7641015 -2.6801519 -0.095452733 0
3.9130001 -2.2190001 -0.067000002 0
3.7529163 -2.1360738 -0.089113683 0
3.8696661 -2.1965523 -0.072986066 0
2.1455677 1.7884536 -0.096847653 0
2.5338185 1.7498946 -0.096522786 0
2.6459844 1.77223 -0.094462395 0
2.8405919 1.7750778 -0.094326213 0
1.9621375 1.8791375 -0.095816791 0
2.2110903 1.8459381 -0.086130202 0
2.3550844 1.8537112 -0.091133617 0
2.4533932 1.8629189 -0.088216208 0
2.5485213 1.8492033 -0.097740151 0
2.6449833 1.8527204 -0.081888646 0
2.7573338 1.8489813 -0.085409708 0
2.8313296 1.8525395 -0.083642401 0
2.9550259 1.8451899 -0.084596992 0
3.063381 1.870765 -0.088679604 0
3.1725023 1.8965485 -0.09527941 0
1.7960465 1.9751961 -0.095018521 0
1.8181791 1.9783174 -0.095987484 0
1.9361045 1.9422147 -0.089343704 0
2.0654607 1.9380369 -0.08901386 0
2.1413965 1.962589 -0.088408306 0
2.2596664 1.9394051 -0.084666699 0
2.3696437 1.9426186 -0.069681369 0
2.4524372 1.9522538 -0.07756456 0
2.5597513 1.952134 -0.066869743 0
2.6587391 1.967339 -0.079340503 0
2.7535748 1.9530042 -0.065282382 0
2.8246384 1.9536307 -0.060010284 0
2.9315231 1.9516522 -0.072865784 0
3.043 1.994 -0.067000002 0
3.1348023 1.9553363 -0.069312349 0
3.262279 1.9512491 -0.09065523 0
-0.2260083 2.0893009 -0.098224938 0
0.78423578 2.0442104 -0.094400197 0
1.7670729 2.037087 -0.088619798 0
1.8631356 2.0407326 -0.086338371 0
1.9040775 2.0986602 -0.071697533 0
2.0521641 2.0634804 -0.066682965 0
2.165659 2.0386732 -0.06705787 0
2.2508771 2.0555375 -0.073261894 0
2.3742137 2.0644341 -0.075732335 0
2.4559462 2.060756 -0.046079416 0
2.5662584 2.0466678 -0.058007505 0
2.6866932 2.0488758 -0.047650214 0
2.7019999 2.0450001 -0.07 0
2.845325 2.0171018 -0.050846338 0
2.9264998 2.0250001 -0.046500001 0
3.066345 2.0299737 -0.090089187 0
3.1386902 2.0799475 -0.077178374 0
-0.62497693 2.118978 -0.099431157 0
-0.52973753 2.1483016 -0.09729977 0
-0.4532696 2.1602216 -0.097699448 0
-0.34337246 2.1658244 -0.094670244 0
-0.24523301 2.1903896 -0.095951945 0
0.81247157 2.1254206 -0.080800384 0
1.858052 2.1455622 -0.067942716 0
1.9497463 2.1359189 -0.074549995 0
2.112 2.1259999 -0.055 0
2.2484999 2.1145 -0.050000001 0
2.3099999 2.1010001 -0.074000001 0
3.2472076 2.1549082 -0.057812154 0
-1.4269803 2.2719836 -0.095746711 0
-1.2121556 2.2680292 -0.099697374 0
-0.66397119 2.2487223 -0.089788944 0
-0.55112863 2.2363448 -0.091056883 0
-0.47166526 2.2487535 -0.091656521 0
-0.36260414 2.2754011 -0.087785304 0
-0.25498068 2.2792199 -0.089785315 0
0.694076 2.2753789 -0.099646181 0
0.85482526 2.2472358 -0.06040068 0
3.3557253 2.2298687 -0.038445935 0
3.4280705 2.2798424 -0.025535122 0
-2.0095763 2.3952656 -0.098735765 0
-1.9106781 2.3848286 -0.097043678 0
-1.733866 2.3760512 -0.086810157 0
-1.6800928 2.3052409 -0.095648125 0
-1.4757253 2.3459795 -0.087183386 0
-1.2552075 2.3427057 -0.090263158 0
-0.70296544 2.3784668 -0.080146737 0
-0.54468298 2.3271775 -0.085347444 0
-0.43649912 2.3519588 -0.085587427 0
-0.35978508 2.3661895 -0.07884194 0
-0.26472834 2.3680499 -0.083618693 0
-0.074422792 2.3460112 -0.093390793 0
0.23698342 2.3773985 -0.072174676 0
0.34161937 2.3592796 -0.072401151 0
0.472 2.3445001 -0.050499998 0
0.64248163 2.3360367 -0.068758868 0
0.76063168 2.3374243 -0.0920697 0
0.85889411 2.3761353 -0.06177048 0
3.5004156 2.3298161 -0.012624316 0
-3.3455217 2.499476 -0.094815597 0
-2.0682204 2.462332 -0.089169711 0
-1.9675977 2.4527857 -0.087304592 0
-1.7876391 2.4468615 -0.077972189 0
-1.5488429 2.4569733 -0.074338406 0
-1.3413112 2.4920583 -0.071394742 0
-1.2982594 2.417382 -0.08082895 0
-0.72896159 2.4649632 -0.073718593 0
-0.61299998 2.4909999 -0.072999999 0
-0.55854613 2.4527097 -0.077109694 0
-0.45641619 2.4598382 -0.078298576 0
-0.35624975 2.4610081 -0.073106907 0
-0.25950372 2.4475851 -0.071951218 0
-0.077 2.4260001 -0.089000002 0
0.064171188 2.4699445 -0.099967897 0
0.25747213 2.4602635 -0.054719608 0
0.33849713 2.4461102 -0.070130013 0
0.45082214 2.4444177 -0.069964699 0
0.52993733 2.4420707 -0.07106445 0
0.6498884 2.4207721 -0.063564062 0
0.72997499 2.4662735 -0.050358996 0
0.82849211 2.466079 -0.071263209 0
0.92541468 2.4502616 -0.026401162 0
-3.4159021 2.552345 -0.082769506 0
-2.1561866 2.5629315 -0.07482063 0
-2.0529768 2.5547214 -0.072695978 0
-1.8682989 2.5530767 -0.064715236 0
-1.6219604 2.5679672 -0.061493434 0
-1.3843632 2.5667348 -0.061960541 0
-1.0186967 2.5999362 -0.08768858 0
-0.84075385 2.5463808 -0.066540942 0
-0.7508449 2.5423796 -0.06847892 0
-0.60130847 2.5454788 -0.099019542 0
-0.568685 2.5765319 -0.06694518 0
-0.35945368 2.5507746 -0.066499591 0
-0.2720916 2.5408015 -0.06260848 0
0.069342375 2.5588889 -0.089935794 0
0.26663303 2.5496619 -0.046206322 0
0.3598097 2.5506301 -0.061307177 0
0.45144501 2.545723 -0.043651555 0
0.54176748 2.5648849 -0.045095392 0
0.65866899 2.5437372 -0.050683863 0
0.73888874 2.5626905 -0.044120084 0
0.85648954 2.5479386 -0.058017612 0
0.96382523 2.5607357 -0.0079006776 0
-3.556663 2.658083 -0.058677308 0
-3.4862826 2.6052141 -0.070723407 0
-2.2441528 2.6635311 -0.060471542 0
-2.1383562 2.656657 -0.058087356 0
-1.9594793 2.6731462 -0.049729142 0
-1.6733527 2.6459816 -0.052465055 0
-1.4069999 2.6059999 -0.056999996 0
-1.2507806 2.6382823 -0.087878741 0
-1.0731814 2.6483665 -0.081712142 0
-0.91353631 2.6595328 -0.06447912 0
-0.85217148 2.6489124 -0.081486464 0
-0.78506923 2.6792769 -0.060873512 0
-0.6543138 2.6254556 -0.087073781 0
-0.57158858 2.6475425 -0.075178787 0
-0.41375569 2.6396232 -0.053589754 0
-0.33405912 2.6374757 -0.068408608 0
-0.25514343 2.6409936 -0.076133832 0
0.074513562 2.6478333 -0.079903692 0
0.26017928 2.6378245 -0.045447115 0
0.33760282 2.6371033 -0.035697542 0
0.45100531 2.6461797 -0.038773533 0
0.5512805 2.675169 -0.031654995 0
0.68310386 2.6795964 -0.026388098 0
0.75880212 2.6427221 -0.047306929 0
0.8334533 2.6666608 -0.043285564 0
0.91152316 2.6235483 -0.040849984 0
-3.6610217 2.7364759 -0.040815603 0
-2.9105389 2.757735 -0.097471364 0
-2.7990108 2.7666652 -0.095034078 0
-2.3208985 2.7512989 -0.047952745 0
-2.2090001 2.7409999 -0.046000004 0
-2.1952758 2.7246141 -0.048348278 0
-1.324561 2.7885647 -0.059757486 0
-1.2876707 2.7134235 -0.073818117 0
-1.1469311 2.7399507 -0.069184989 0
-1.0803932 2.7458723 -0.062377162 0
-0.9463197 2.7667751 -0.058001928 0
-0.85615677 2.7632034 -0.061944176 0
-0.72101867 2.7456684 -0.070189841 0
-0.63373804 2.7476492 -0.061324108 0
-0.57571071 2.717032 -0.081200846 0
-0.43013355 2.7269349 -0.049384631 0
-0.34658867 2.7257135 -0.061612915 0
-0.27193624 2.7493534 -0.061386541 0
0.079684749 2.7367775 -0.06987159 0
0.26891679 2.7275002 -0.036813039 0
0.34862772 2.725724 -0.026465237 0
0.4552618 2.7592616 -0.026958857 0
0.54115266 2.76266 -0.020579772 0
0.64932078 2.7567384 -0.040461492 0
0.75366902 2.7556598 -0.030659549 0
0.85783637 2.7506552 -0.030978058 0
0.95698011 2.7437129 -0.019504983 0
-3.0378082 2.8821025 -0.075707041 0
-2.949595 2.8547082 -0.079820156 0
-2.8620133 2.8280816 -0.084042594 0
-1.3614513 2.8637059 -0.045696855 0
-1.1404285 2.8326375 -0.049566671 0
-0.95618528 2.8403282 -0.050991416 0
-0.86062008 2.8510077 -0.05665715 0
-0.75402671 2.8663836 -0.052271202 0
-0.63626665 2.8635247 -0.050182164 0
-0.59361434 2.8020427 -0.07093446 0
-0.44651139 2.8142464 -0.045179509 0
-0.3337881 2.8549795 -0.047929808 0
-0.28030676 2.8382921 -0.053809233 0
0.084855929 2.825722 -0.059839491 0
0.27765426 2.8171759 -0.02817896 0
0.34542313 2.834352 -0.022623401 0
0.46435356 2.8510098 -0.033948485 0
0.56539166 2.8300192 -0.027908072 0
0.63173795 2.8349872 -0.031796612 0
0.74256217 2.8435862 -0.020524837 0
0.85560799 2.8660312 -0.013169453 0
0.94445062 2.8403816 -0.013360709 0
-3.1014431 2.9442863 -0.064824887 0
-2.988019 2.9509141 -0.062059641 0
-1.421 2.9849999 -0.023000002 0
-1.3983415 2.9388471 -0.031636231 0
-1.2437266 2.9642432 -0.032087136 0
-1.020732 2.9515228 -0.040854424 0
-0.96052253 2.9349155 -0.04999873 0
-0.84667301 2.9256921 -0.047183782 0
-0.75367737 2.9612868 -0.036108483 0
-0.65423232 2.9475319 -0.03974827 0
-0.47107816 2.9452138 -0.038871825 0
-0.35779157 2.9591417 -0.041632742 0
-0.26889658 2.9584537 -0.05142146 0
0.090027116 2.9146664 -0.049807388 0
0.27004889 2.919327 -0.00029496849 0
0.35538879 2.9602845 -0.028067505 0
0.44552058 2.9517605 -0.021895751 0
0.56291425 2.936847 -0.015807591 0
0.65284342 2.920414 -0.019624695 0
0.75367069 2.9329631 -0.0080908686 0
0.86900002 2.915 -0.0059999973 0
0.949 2.934 -0.0050000027 0
-3.2287126 3.0686538 -0.043060571 0
-3.1340389 3.0347352 -0.04797136 0
-3.0510216 3.0123305 -0.051068164 0
-1.05345 3.0436831 -0.026231878 0
-0.96921164 3.0225112 -0.041412458 0
-0.8731038 3.0314152 -0.041310266 0
-0.65607667 3.0539961 -0.028474197 0
-0.49564493 3.0761814 -0.032564141 0
-0.36167401 3.076138 -0.032344744 0
-0.276546 3.0475292 -0.041658364 0
0.095198303 3.0036108 -0.03977529 0
0.10036948 3.092555 -0.029743187 0
0.37052962 3.0845354 -0.013803395 0
0.46123368 3.0444779 -0.010553192 0
0.53072852 3.0259352 -0.010707621 0
0.67299998 3.0020001 -0.0080000013 0
-3.27 3.109 -0.035999998 0
-1.106629 3.1311331 -0.024439408 0
-1.0228466 3.1230447 -0.030649843 0
-0.67524004 3.1616273 -0.020280704 0
