# .PCD v0.7 - Point Cloud Data file format
VERSION 0.7
FIELDS x y z intensity
SIZE 4 4 4 4
TYPE F F F F
COUNT 1 1 1 1
WIDTH 462
HEIGHT 1
VIEWPOINT 0 0 0 1 0 0 0
POINTS 462
DATA ascii
-49.243786 -7.1089058 14.587459 12
-49.159027 -7.0024142 10.779433 10
-48.843803 -7.3644738 13.189477 11
-49.154655 -6.7408338 13.706387 11
-48.490067 -7.706666 11.866512 10
-48.691605 -7.3217483 11.694455 10
-48.789799 -6.2278838 11.685268 10
-48.791298 -7.1591845 18.224434 14
-48.720764 -6.5926781 18.304331 14
-48.592789 -5.9974666 18.079214 14
-48.263573 -5.8450065 10.458162 10
-48.025192 -5.0360146 11.473001 10
-48.080559 -5.4232893 11.632074 10
-48.187477 -5.3981729 12.496077 11
-47.719467 -5.0810976 12.726988 11
-47.970497 -7.6048079 13.364455 11
-47.984882 -7.96209 14.31352 12
-47.223831 -8.1755409 11.375504 10
-47.574463 -8.2303286 12.92454 11
-47.02182 -8.5606194 11.577558 10
-46.844151 -8.3666859 12.183511 11
-45.906635 -2.3102007 9.8313704 10
-45.802647 -2.7438262 10.902437 10
-45.767113 -1.7180146 10.886259 10
-45.935883 -2.1431499 11.911344 11
-45.717026 -1.84506 12.005277 11
-45.846748 -1.7584776 13.180272 12
-43.316158 1.0133306 10.247619 10
-43.591152 0.81077236 11.350673 11
-43.184978 1.0805913 11.217598 11
-37.251225 5.3165832 14.843489 15
-37.03508 5.6645594 13.731421 14
-37.001373 5.5692911 15.553432 15
-36.556473 6.4581628 13.608265 14
-36.780434 5.9159484 14.561364 15
-36.471138 6.3030095 15.349281 15
-36.145527 6.9712992 13.451159 14
-36.300934 6.8416181 14.591189 15
-36.140686 7.0839148 16.684143 16
-35.998363 7.2527728 15.553106 15
-30.774193 -2.8114264 2.4393377 6
-30.741327 -2.5212765 2.5502849 6
-27.220655 -43.021358 0.13721453 3
-21.366802 -0.39052287 -0.0047711851 3
-17.292048 -25.869955 3.3379917 6.5
-17.094322 -26.027634 3.3400123 6
-16.707748 -26.230461 3.3255305 6.5
-13.088698 -17.959463 -0.42393124 3
-11.227734 3.4623156 -0.13308391 3
-10.414726 0.2978341 -0.01469175 3
-10.54891 4.9871664 -0.018314281 3
-9.8173218 2.1074333 -0.22999834 2
-9.2569103 -5.1773133 -0.24180813 2
-9.4703703 2.3596609 0.43194413 5
-9.4069824 2.4605296 0.58892655 5
-9.1641312 -10.151392 -0.26580927 3
-8.7612114 4.563827 -0.021367814 3
-7.2052841 -6.4124479 -0.19470671 3
-6.9114852 -8.2020159 0.04363792 3
-6.4604101 -6.8557782 0.19733146 4
-6.4839773 -0.91279149 0.20120656 4
-6.4184065 -6.8813791 0.57833374 5.5
-6.5240169 -0.86098599 0.64220119 6
-6.4492507 -6.9143858 0.98434263 7
-6.4524908 -8.7907705 4.1057277 14
-6.3387566 -6.0467858 -0.1918412 3
-6.0682063 -1.0267684 -0.16830648 2
-6.3038387 -7.272418 0.22440559 4
-6.1335273 -1.4527848 0.028269488 3
-6.3584619 -0.97181255 0.28320661 4.6666665
-6.2885661 -7.0270643 0.58235443 5.5
-6.3481169 -0.96766537 0.62620509 6.5
-6.3849626 -6.9440722 0.94734418 6
-6.1678185 -8.9864464 4.1023736 14.5
-5.9793978 -2.2039976 -0.19261114 2
-5.8853245 -0.081858896 -0.17396805 2
-5.8067932 -1.6165729 0.029272331 3
-5.7712002 -1.3386089 0.260389 4.5
-5.7837181 -1.329067 0.61250734 6.8571429
-5.7399693 -9.2917891 4.0924482 14.333333
-5.9422793 -9.1533623 4.1012669 14.5
-5.7305689 -9.2048874 4.4027634 15
-5.3174362 -1.6364413 0.23873782 4.5
-5.4721971 -1.5215461 0.19723015 4.3333335
-5.2679753 2.6537085 0.35465223 5
-5.4639378 3.8213589 0.052546624 3
-5.3127012 -1.6381502 0.56423771 6.5
-5.4785204 -1.5133433 0.58396262 6.5999999
-5.215291 2.6752944 0.58664745 6
-5.2956142 -1.695732 0.84624648 8
-5.4753246 -10.047657 3.1089194 11
-5.4111238 -9.9578333 3.3318963 12
-5.425972 -9.3967419 4.2467809 14.5
-4.8340788 -2.49107 -0.046647266 3
-5.0440526 2.8097844 -0.12337434 3
-4.9730139 -3.8015814 0.047112767 3.5
-5.0052624 -1.8494498 0.21300054 4.5
-5.0449257 -1.8202189 0.56390679 6.8000002
-5.0967188 2.8108718 0.43162802 6
-4.4069581 -1.3444386 -0.20688365 2
-4.5062647 1.308388 -0.14324556 2
-4.6083183 -4.2042575 0.10666458 4
-4.7921705 -3.9975724 0.058637585 4
-4.5792503 -2.1414149 0.25051901 5
-4.5889988 -2.1245959 0.55895191 7
-4.7935209 -1.9613807 0.61225367 7
-4.135869 -2.4266343 -0.06521415 3
-4.1360831 -2.2598455 -0.12224482 2.5
-4.2115107 -1.0183673 -0.19495261 2
-4.3286209 1.4436923 -0.1402708 2
-4.0018053 2.9795804 -0.035432134 3
-4.1022191 -2.4831016 0.19686028 4.8000002
-4.295167 -2.3246915 0.094479799 3.75
-4.1012683 -2.4350681 0.40728468 6
-3.6583488 -2.984988 -0.20464712 2
-3.854944 -2.5087216 -0.12005483 2.5
-3.946532 -2.3698201 -0.20373985 2
-3.657841 -1.4103012 -0.1954333 1
-3.6676061 -1.076488 -0.1949876 1
-3.6419995 0.10017196 -0.17115892 2
-3.7074406 1.40083 -0.15630008 2
-3.8253162 2.555083 -0.1274015 2
-3.8065095 3.4310598 -0.10447554 3
-3.7609293 -3.3181911 0.28842542 5.5
-3.6732311 -2.9523313 0.3053478 5.5
-3.9296701 -2.5799453 0.15092286 4.5
-3.7230079 -3.2783847 0.56208134 7.3333335
-3.6531768 -2.9420319 0.51426095 7
-3.8445852 -2.6343408 0.54580116 7.5
-3.2902415 -3.0116568 -0.20367201 2
-3.5386057 -2.5046663 -0.19174801 2
-3.5291798 -0.54339713 -0.19058019 1
-3.4351139 1.5263805 -0.15382516 2
-3.3158934 2.5098832 -0.14291377 2
-3.2315488 3.130163 -0.085464537 3
-2.9167576 -4.7485561 -0.20735776 2
-2.820452 -4.0378385 -0.16950873 2
-2.9134369 -3.236186 -0.19915983 2
-3.1818902 -3.1527593 -0.20265362 2
-3.1810241 1.6398888 -0.15234615 2
-2.8001575 2.9179645 -0.071455359 3
-2.800334 -4.1017351 0.63950247 7
-2.8573472 -3.5258048 4.501893 28
-2.6489789 -3.2730255 -0.19467521 2
-2.5557199 -1.7876993 -0.1886317 1
-2.5749719 -1.4102499 -0.1895285 1
-2.6006062 -1.0336975 -0.18833685 0.75
-2.6221313 -0.5600583 -0.18365355 0.66666669
-2.6673086 0.69003499 -0.16128637 1
-2.6594701 1.0295147 -0.15764903 1
-2.6618898 2.2453892 -0.13640834 2
-2.5419543 2.864773 -0.092453972 2
-2.5584052 -4.531178 0.011568545 3
-2.6701348 -4.155478 0.15850227 4.375
-2.7412512 -4.1111922 0.61929935 7.1999998
-2.6461244 -3.6561821 4.4982333 28
-2.5163937 -3.5631306 4.4988704 29
-2.1737244 -2.4555681 -0.18487762 1
-2.3852391 -2.0749667 -0.18792906 1
-2.1687593 -1.0665355 -0.19320756 0
-2.1668043 -0.7738297 -0.18916748 0
-2.1396019 0.58024538 -0.16930275 0
-2.1770704 1.3893635 -0.1516065 1
-2.0833828 1.9207079 -0.14389206 2
-2.2844362 2.7931089 -0.083449945 2
-2.2635212 -3.7116468 0.26804459 5.3333335
-2.2493894 -3.6665349 0.47943017 6.75
-2.1955895 -3.5891042 0.63734734 8
-1.8861177 -4.5040174 -0.028496025 3
-1.8095081 -2.9293368 -0.17232098 2
-1.7631379 -2.7567849 -0.10285965 2
-1.695353 -2.087312 -0.17974733 1
-1.9472309 0.75065792 -0.16982123 0
-1.677207 0.99981046 -0.1613391 0
-1.7810096 1.5255837 -0.14811762 1
-1.6727866 2.6661625 -0.057437014 3
-1.6615027 3.0435159 -0.023461521 3
-1.8889287 2.9719563 0.24654008 5.5
-1.7118361 -2.8302932 0.4351497 8
-1.6950092 -2.7590733 0.72613388 10.5
-1.737433 2.8140442 1.1782191 14
-1.7483023 2.7874508 1.2175541 14
-1.5109886 -2.8699493 -0.16086331 2
-1.4627452 -2.5977249 -0.16292302 1
-1.4945157 -2.2456784 -0.1699892 1
-1.4967897 1.157751 -0.1570127 0
-1.3741467 1.3233738 -0.15101855 0.66666669
-1.3767018 2.0881629 -0.12839472 2
-1.3661745 2.5211158 -0.11542131 2
-1.3855495 3.0245628 -0.036954448 3
-1.3705469 -3.6963289 0.20195633 5
-1.4675086 3.6428261 0.036502026 4
-1.4823896 4.4541221 0.04944583 4
-1.5473361 -4.0113821 0.49337167 7
-1.4330504 -3.7937167 0.59053814 7.7777777
-1.579698 -2.7930117 0.68212855 10
-1.5148069 -3.9384618 0.98935354 10.5
-1.5927544 -4.0462165 4.3638835 28
-1.5102003 -3.9141221 4.3013487 28
-1.5248818 -3.7902002 4.506074 29
-1.097873 1.5696106 -0.1433557 1
-0.9809404 1.6823741 -0.13935699 1
-0.93389529 2.5406876 -0.05940859 2.5
-0.89869809 3.5632474 0.045522917 4
-0.88468987 2.4564118 2.3805988 26
-0.88064688 2.3423896 2.518023 27.333334
-0.5011763 1.5607618 -0.13882145 1
-0.61267453 2.4759598 -0.063265197 2.5
-0.51942426 3.7315881 0.11952443 4
-0.78769064 3.0109086 1.1685653 14
-0.73007798 2.9462492 1.3350719 15.5
-0.43216267 2.5582006 2.3536127 26
-0.26423919 1.5191939 -0.13796745 0.5
-0.32543343 1.652059 -0.13431531 1
-0.12305166 2.3707764 -0.077106342 2.5
-0.29899386 2.411171 -0.075869493 2.5
-0.16647115 3.5825672 0.11454976 4
-0.34260529 4.0566726 0.12950745 4
0.20025039 1.5257605 -0.13051301 1
0.18427202 2.161869 -0.11707042 2
0.29294372 3.0211072 -0.010384495 3
0.15547499 3.2652907 0.018589027 3
0.080488846 4.4862208 0.14349185 4
0.31923524 2.4893897 2.5777025 27
0.57929593 -3.3684545 -0.051034451 3
0.74274796 -2.9880714 -0.041502234 3
0.41523054 1.4413087 -0.12023701 1
0.68641281 1.7447562 -0.11224692 1.6
0.51842773 2.0708628 -0.11028969 2
0.57161021 2.9131038 -0.0073603787 3
0.5922339 -3.3555028 0.20005031 5
0.75440431 -2.9808726 0.19985573 5.1428571
0.49649405 4.1526442 0.16953506 4
0.4539355 -3.6889775 0.45093727 7
0.57378578 -3.3880849 0.59288055 8.333333
0.73347461 -3.0310707 0.54236948 8.25
0.5586347 -3.4209642 0.92929435 11
0.71721935 -3.0287468 0.91699421 11.5
0.6399799 -3.2932677 1.3184733 14.5
0.64387625 -3.1811948 1.4639813 16
0.42712504 2.3603559 2.6396785 28
0.44156569 2.4518359 2.5646715 27
0.65873605 -3.0407202 3.4379914 28.5
0.92966127 -2.5402799 -0.090593785 2.5
1.0826571 -2.1704133 -0.099354282 2
1.0036212 -1.7958608 -0.15042852 1
1.0518551 1.0979735 -0.14315009 1
0.89180428 1.2567372 -0.14542969 1
0.93183744 -2.5676491 0.20490468 5.5833335
1.0996872 -2.1505771 0.22382323 6.2727275
1.1985049 -1.8573354 0.35306841 8
0.98650962 2.4960008 0.38595015 7.25
0.9281351 -2.5842955 0.59227848 9.833333
1.0683732 -2.2180376 0.54995626 10.142858
1.1911515 -1.856323 0.65973514 12
1.1940367 -1.3634188 0.54308158 12.5
1.0274171 2.4677958 0.40970516 8
0.95560235 -2.5297656 0.93753213 13.666667
0.98178566 -2.3858452 1.1790413 16
1.0102596 -1.613983 1.9940788 28
1.0117587 -1.552597 1.9905809 29
0.97939295 -1.6217661 2.0145783 28.5
1.0001034 -1.5036854 2.0320823 29
0.87953955 -2.6107016 3.0540257 28.666666
1.2373909 -1.7843665 -0.068505414 2.2
1.3728889 -1.3410939 -0.064685941 2.125
1.5086544 -1.0954168 -0.073074684 2
1.5614187 1.7181991 -0.12969036 2
1.4082278 2.049237 -0.12423252 2
1.2410154 -1.7946079 0.19164954 6
1.3805388 -1.3208946 0.14912072 5.5999999
1.4904156 -1.1290884 0.18340088 6.4285712
1.2537136 -1.7903143 0.51102042 10.5
1.3244048 -1.3453733 0.55180806 12.25
1.4912206 -1.0437971 1.8607396 28
1.5800154 2.952672 3.6266901 28
1.9893262 -0.5903312 -0.15370539 1
1.9708397 -0.37953901 -0.15396789 1
1.9166026 0.19276355 -0.15301524 1
1.6380377 0.58167529 -0.15406106 1
1.8628743 0.82245129 -0.14858107 1
1.7227684 1.6298125 -0.12917309 2
1.824875 2.097872 -0.072216168 2.6666667
1.7671864 -0.97670257 0.238665 7
1.7927845 2.4255168 1.468417 16
1.8030363 2.8999097 3.4699559 26.5
1.9145997 2.7435081 3.628726 28
1.6040986 2.8689675 3.6356993 28
2.198808 -0.1477745 -0.15398578 1
2.1588976 0.055230845 -0.15450169 1
2.1932409 1.0379561 -0.14076062 2
2.3941171 1.4351374 -0.13112696 2
2.2045636 2.0511415 -0.074194461 3
2.106066 -1.1596032 0.065063894 4
2.2147548 2.6726668 3.4454961 26.25
2.191339 2.6002197 3.6527519 27.5
2.5795884 2.5110309 3.7966099 27.333334
3.1629779 0.29915908 -0.1540156 2
2.9197152 1.0473262 -0.14607781 2
3.0524163 1.9198306 -0.096652776 2.5
3.3432186 0.088857614 -0.15750104 2
3.5103781 1.8767257 -0.090136908 3
3.5646653 2.3695612 0.012821724 3
3.3615677 1.7124779 3.6551404 26
3.8025422 -2.1515048 -0.13443945 2.5
3.7910693 -1.2795895 -0.16494614 2
3.8545587 -1.1189951 -0.16594991 2
3.8538754 -0.75516534 -0.16796076 2
3.8759708 1.8315198 -0.065125078 3
4.0675483 -2.0689108 -0.10993929 2
4.2043476 -1.7856494 -0.062690698 2.5999999
4.3205571 -1.5480847 -0.045609903 2.6666667
4.0625443 -0.99069762 -0.17395402 2
4.2352796 -0.5959205 -0.14996755 2
4.074542 -0.29548302 -0.14898008 2
4.0791335 -2.0475464 0.2310607 5
4.2124581 -1.7881473 0.26450628 5.090909
4.3555703 -1.4808631 0.18838899 4.4000001
4.1095061 -2.0147119 0.40906066 6
4.2410812 -1.7740009 0.5229758 6.8333335
4.374444 -1.5093021 0.56472272 7
4.4328156 -1.3161025 -0.095947377 2.5
4.5252628 -1.1506311 -0.046451222 3
4.4530554 -1.2820108 0.2308614 4.7142859
4.5393138 -1.1642692 0.15304907 4
4.4683065 -1.3161408 0.53005242 6.8333335
5.7089229 1.9787318 0.050892785 3
6.2226586 2.1774259 1.0188855 7.5
6.1133213 2.0998051 1.5498894 10
7.9911857 1.6121866 1.2919354 8
7.9842777 1.4981339 1.6594416 9
7.8652306 1.6102221 1.8879349 10
8.4739628 1.4611655 0.28894603 4
8.4406786 1.4738322 0.64794528 5.5
8.5045404 1.3919681 1.0149498 7
10.381289 -4.545362 4.338069 14
10.587058 -4.4499097 4.0480719 13.5
10.596933 -4.3081474 4.1965718 13.5
11.085067 1.1428145 0.37297115 4
11.187598 1.1525687 0.68297106 5
11.217967 1.0473288 0.50297552 5
11.223752 1.3124012 0.49796426 5
11.212847 1.0570788 1.0309751 6
14.268936 5.3594904 15.93477 27
14.343089 5.3701639 16.361769 28
14.545627 5.4189386 15.109769 26
14.539038 5.3084946 15.595776 27
14.720997 -5.995491 17.232079 28
14.926187 5.430481 14.884771 26
15.074142 -6.3591204 17.236078 28
15.540023 -6.5494213 7.8470812 16
15.528979 -5.7710657 8.2030878 17
15.370537 5.3902154 17.022778 27
15.304417 5.3824234 17.328777 28
15.924322 -3.424243 0.52908677 4
15.879233 -3.6450477 0.84308845 5
15.899272 -3.4772375 0.98308718 5
15.968807 -3.3806748 1.3500866 6
15.883032 -3.5943179 1.6990883 6
15.935044 -5.6633534 5.14009 12
15.945696 -5.6535749 5.46909 13
15.955313 -5.6066723 5.7600904 13
15.892474 -5.8461981 7.8530898 16
15.660445 -4.7735038 7.6810923 16
15.788034 -5.3419833 8.2830906 17
15.641852 -5.0460229 8.1480904 17
15.674137 5.4379625 16.138779 26
15.645564 5.3285193 16.678782 27
16.137295 -3.0656171 -0.022916207 3
16.164328 -2.9417703 0.54383236 4
16.092405 -3.2255921 0.91558534 5
16.223675 -2.9554181 0.83408266 5
16.245152 -2.7896388 0.99508083 5
16.13413 -3.0344121 1.3350835 6
16.008537 -3.3523889 1.7570864 6.5
16.346827 -2.7876995 1.7880809 6
16.175756 -3.8021581 2.6270902 8
16.122154 -3.8978047 3.2700903 9
16.235716 -3.5533752 3.2870886 9
16.040806 -5.5734234 5.0060911 12
16.111485 -4.1183734 5.0390916 12
16.286949 -3.6821837 4.9670897 12
16.112171 -5.4219518 5.4860921 13
16.136383 -4.1593399 5.4000916 13
16.269236 -3.8851109 5.3490911 13
16.02453 -5.523603 6.0500917 14
16.11647 -4.0773859 6.0220919 14
16.242085 -3.7455952 6.0610905 14
16.026957 -5.4300709 7.917592 16
16.12673 -4.1310539 7.8050914 16
16.256235 -3.8412554 7.7570906 16
16.216455 -3.9925227 8.2710905 17
16.022499 5.4300141 15.860781 26
16.026634 -4.8063107 17.57159 28
16.44523 -3.3865647 2.4170873 8
16.433352 -3.5026441 2.9360883 8.5
16.544157 -3.1432049 2.9390855 8.5
16.509285 -3.30707 3.3250868 9
16.480629 -3.3634925 3.719754 10
16.482824 -3.3280656 4.9950871 12
16.528467 -3.0373828 5.0840845 12
16.511465 -3.0832489 6.150085 14
16.773066 -3.1017885 7.9920855 16
16.737291 -3.251054 8.3910866 17
16.7171 -3.4256706 8.4890881 17
16.450212 -4.9004984 16.526594 26
16.640982 -2.4338899 17.605074 28
17.001692 -2.4562178 -0.044922847 3
17.142944 -2.2144499 0.35007352 4
17.044441 -2.5532377 0.56307852 4
17.106073 -2.5420401 1.0440786 5
17.164783 -2.1520507 1.0460725 5
17.024452 -2.4464834 1.4460771 6
17.12874 -2.3665397 1.8660761 6
17.090088 -2.6970716 2.4800808 8
17.129887 -2.2378531 2.591074 8
17.064602 -2.5628524 3.0320787 8.666667
17.060915 -2.5810452 3.4420791 9
17.143524 -2.274411 3.4080744 9
16.979834 -2.9233112 3.8170836 10
17.012508 -2.6322432 3.7840798 10
17.157698 -2.3675153 3.817076 10
17.021309 -2.8531108 7.9060831 16
17.130766 -2.3704979 8.0990753 16
17.363758 -2.1140466 -0.056927912 3
17.344563 -2.043853 0.54307085 4
17.506779 -1.8362243 0.6110673 4
17.240976 -2.3373005 0.86107564 5
17.477545 -1.8791214 0.96106803 5
17.338362 -2.0891881 1.4125715 6
17.328413 -2.0341141 3.1280708 9
17.224577 -2.9935498 3.4770849 9
17.339991 -2.1247759 3.8475723 10
17.387579 -2.1647711 5.0850725 12
17.400145 -1.9678385 5.2940698 12
17.301874 -2.1160207 6.4460726 14
17.218548 -2.4757826 7.9600782 16
17.470207 -2.4885325 17.066076 26
17.527328 -2.5011935 17.313078 27
18.757669 0.2261163 -0.1329817 3
18.856209 -0.019490946 -0.22797441 3
19.022419 -1.8158523 0.040068589 3
19.067295 -0.12183201 0.052028734 3
19.02895 -0.1812776 0.63403034 4
18.829594 0.23489498 0.62101805 4
18.824194 0.12670866 1.0075213 5
19.095703 -0.15983476 1.4000299 5
19.117153 -0.20175476 1.6530311 6
18.816675 0.12816599 1.7535213 6
19.038864 -0.1744587 2.1440301 7
19.80253 -0.51659071 3.7600403 9
19.717972 -0.37523785 4.0030355 9
20.223452 -0.69396621 0.38904521 4
20.207481 -0.65353018 1.3605442 5
20.306086 -0.66572028 1.7480446 6
20.191553 -0.61600864 2.2610433 7
20.380276 -0.68522531 3.182045 8
20.078903 -0.64229774 3.3400435 8
20.212008 -0.82653338 4.0950484 9
20.707819 -0.91329485 -0.23194891 3
20.46496 -0.83140945 2.0830488 6
20.40757 -0.79631877 2.897048 7
