# .PCD v0.7 - Point Cloud Data file format
VERSION 0.7
FIELDS x y z intensity
SIZE 4 4 4 4
TYPE F F F F
COUNT 1 1 1 1
WIDTH 1347
HEIGHT 1
VIEWPOINT 0 0 0 1 0 0 0
POINTS 1347
DATA ascii
-2.194 -1.012 -0.20299999 0
-1.7281585 -1.0136077 -0.20021284 0
-2.1149373 -0.97632933 -0.20202123 0
-2.0339451 -0.93978822 -0.20101857 0
-1.952953 -0.903247 -0.20001592 0
-1.6527723 -0.97073847 -0.20114188 0
-1.5773861 -0.92786926 -0.20207094 0
-1.502 -0.88499999 -0.20299999 0
-2.0417917 -0.61282891 -0.2005619 0
-1.7048235 -0.64684212 -0.20019394 0
-1.6234118 -0.61742103 -0.20059697 0
-2.2179999 -0.551 -0.20100001 0
-2.1548138 -0.53537226 -0.20109648 0
-2.0702689 -0.51446193 -0.20122555 0
-1.9651945 -0.59088594 -0.20137459 0
-1.8502986 -0.55797148 -0.20259365 0
-1.5420001 -0.588 -0.20100001 0
-2.2179999 -0.48199999 -0.20200001 0
-2.1563725 -0.47076496 -0.20266089 0
-2.0396078 -0.44947809 -0.20391306 0
-1.9365821 -0.46479473 -0.20266785 0
-1.8308172 -0.4328655 -0.2038064 0
-1.7320896 -0.43082064 -0.20174186 0
-1.6475447 -0.40991032 -0.20187093 0
-1.563 -0.389 -0.20200001 0
-3.869 -0.101 -0.22 0
-3.7528555 -0.10028746 -0.22035627 0
-2.8299999 -0.16 -0.21799999 0
-2.7698948 -0.15617976 -0.21761797 0
-2.6463263 -0.14832583 -0.21683258 0
-2.522758 -0.14047189 -0.2160472 0
-2.4403789 -0.13523595 -0.2155236 0
-2.358 -0.13 -0.215 0
-3.6167731 -0.0994526 -0.2207737 0
-3.5260515 -0.098896019 -0.22105199 0
-3.4353297 -0.098339446 -0.22133029 0
-3.3446081 -0.097782873 -0.22160856 0
-3.2538865 -0.097226299 -0.22188686 0
-3.1631649 -0.096669726 -0.22216514 0
-3.0724432 -0.096113145 -0.22244343 0
-2.9817216 -0.095556572 -0.22272171 0
-2.8636842 -0.067305684 -0.22192517 0
-2.7516751 -0.057386849 -0.2199274 0
-2.66714 -0.055009477 -0.21854192 0
-2.5565288 -0.061655391 -0.2167864 0
-2.4396112 -0.038854089 -0.21475552 0
-2.329 -0.045499999 -0.213 0
-2.5650079 0.098067038 -0.21792985 0
-2.4800053 0.095378026 -0.21628657 0
-2.3525014 0.091344506 -0.21382165 0
-2.9100001 0.17900001 -0.228 0
-2.8414085 0.12943774 -0.22429156 0
-2.737344 0.13638051 -0.22261444 0
-2.6520753 0.13260441 -0.22079155 0
-2.5686049 0.15958957 -0.22000748 0
-2.4830699 0.15472639 -0.21800499 0
-2.3547676 0.14743158 -0.21500126 0
-2.8207684 0.23998189 -0.22199722 0
-2.732573 0.26583663 -0.22072026 0
-2.6498585 0.25836933 -0.21987621 0
-2.5671439 0.25090197 -0.21903217 0
-2.4579828 0.23145443 -0.21779175 0
-2.3373351 0.25286016 -0.21592227 0
-2.7611473 0.34464476 -0.22006555 0
-2.6373534 0.34594741 -0.21795736 0
-2.5562649 0.33196056 -0.21671802 0
-2.4685454 0.35378891 -0.21723682 0
-2.3867726 0.34064445 -0.2161184 0
-2.2969999 0.36500001 -0.21699999 0
-2.128 0.389 -0.20299999 0
-4.8029442 0.49603444 -0.24482271 0
-4.7136168 0.48603064 -0.24350908 0
-4.6242895 0.4760268 -0.24219544 0
-4.5349627 0.46602297 -0.2408818 0
-4.4456358 0.45601913 -0.23956817 0
-4.3563085 0.4460153 -0.23825453 0
-4.2669811 0.43601146 -0.23694091 0
-4.1776543 0.42600766 -0.23562726 0
-4.0883274 0.41600382 -0.23431364 0
-3.9990001 0.40599999 -0.233 0
-2.7508948 0.45904398 -0.22149675 0
-2.6317484 0.44656011 -0.21907133 0
-2.548131 0.4329164 -0.21739319 0
-2.4671125 0.44894135 -0.21243522 0
-2.3641236 0.46893886 -0.20822249 0
-2.245734 0.42782918 -0.20531984 0
-4.8829999 0.505 -0.24600001 0
-3.9650857 0.59034312 -0.23153432 0
-3.8759999 0.57499999 -0.23 0
-2.724 0.56099999 -0.22 0
-2.6540358 0.54686052 -0.21759105 0
-2.5686021 0.52959472 -0.21464947 0
-2.4831684 0.51232892 -0.21170789 0
-4.5886874 0.69774491 -0.24227449 0
-4.4550581 0.67473018 -0.23997302 0
-4.3214297 0.65171558 -0.23767155 0
-4.2323437 0.63637245 -0.23613726 0
-4.1432576 0.62102932 -0.23460294 0
-4.0541716 0.60568619 -0.23306863 0
-4.8049998 0.73500001 -0.24600001 0
-4.7668591 0.72843111 -0.24534312 0
-4.6777735 0.71308804 -0.24380881 0
-2.2531681 0.87176096 -0.2048437 0
-2.1324453 0.82584065 -0.2008958 0
-2.4631863 0.9516474 -0.21171176 0
-2.3738906 0.91768128 -0.2087916 0
-3.448 1.189 -0.226 0
-3.7625427 1.2922623 -0.2001844 0
-3.6445892 1.2535391 -0.20986524 0
-3.5266356 1.2148156 -0.21954609 0
-3.4391959 1.2738296 -0.21902435 0
-3.359 1.245 -0.22400001 0
-3.6797841 1.3603183 -0.20409735 0
-3.55949 1.3170739 -0.21156085 0
-3.2631974 1.3843664 -0.21441714 0
-3.184 1.352 -0.219 0
-3.0680001 1.386 -0.215 0
-3.5007896 1.4814656 -0.20066859 0
-3.4215922 1.4490992 -0.20525144 0
-3.3238018 1.4499855 -0.21045494 0
-3.2261393 1.4508255 -0.21238373 0
-3.1470697 1.4184127 -0.21369186 0
-2.9034486 1.4765513 -0.20541415 0
-2.823 1.437 -0.205 0
-3.5424175 1.5804763 -0.20715117 0
-3.4633479 1.5480635 -0.20845932 0
-3.3842783 1.5156509 -0.20976746 0
-3.1447942 1.5952052 -0.20665661 0
-3.0643456 1.5556539 -0.20624246 0
-2.9838972 1.5161027 -0.20582829 0
-3.612 1.609 -0.206 0
-3.3056915 1.6743078 -0.2074849 0
-3.2252429 1.6347566 -0.20707075 0
-3.5470371 1.7929617 -0.20872736 0
-3.4665885 1.7534103 -0.2083132 0
-3.3861399 1.7138591 -0.20789905 0
-3.5999999 1.819 -0.20900001 0
2.9329309 -2.009795 -0.10591114 0
2.7869771 -1.9099317 -0.13130371 0
2.8599539 -1.9598633 -0.11860742 0
2.714 -1.86 -0.14399999 0
-1.0190001 -1.716 -0.152 0
-1.2442521 -1.6209822 -0.16862224 0
-1.1546512 -1.6411018 -0.16381866 0
-1.0296389 -1.6639235 -0.1595988 0
-0.9726634 -1.6336915 -0.16419385 0
-1.4432983 -1.5355909 -0.1547416 0
-1.3621676 -1.5721757 -0.17656489 0
-1.2588962 -1.5352397 -0.17558052 0
-1.1504129 -1.5467249 -0.17237289 0
-1.0778077 -1.5489037 -0.17182973 0
-0.96000004 -1.5675 -0.17300001 0
-1.7178395 -1.4364631 -0.17253816 0
-1.521 -1.416 -0.186 0
-1.4689147 -1.4682508 -0.18502535 0
-1.3584876 -1.4546689 -0.17578904 0
-1.2606677 -1.4529257 -0.17931488 0
-1.1546538 -1.446229 -0.1788367 0
-1.056 -1.478 -0.17750001 0
-1.8634583 -1.3706928 -0.18364775 0
-1.7702693 -1.3312317 -0.18411623 0
-1.6382326 -1.3716052 -0.1755636 0
-1.5483212 -1.3479227 -0.18464124 0
-1.4491285 -1.3694872 -0.186 0
-1.333876 -1.3616976 -0.1802641 0
-1.2523848 -1.3411118 -0.18081856 0
-1.1506666 -1.3563333 -0.18166666 0
-2.0699999 -1.2079999 -0.19599999 0
-1.9609585 -1.2749944 -0.19117032 0
-1.8542147 -1.2071331 -0.19172055 0
-1.7389656 -1.2736126 -0.18560417 0
-1.6301795 -1.2314878 -0.18607749 0
-1.5073395 -1.2649632 -0.18053816 0
-1.4353718 -1.2498323 -0.18603884 0
-1.3369147 -1.2618933 -0.186 0
-1.237 -1.233 -0.1855 0
-1.199 -1.284 -0.183 0
-2.0297031 -1.1850847 -0.19649661 0
-1.954317 -1.1422155 -0.19742566 0
-1.7436609 -1.1368499 -0.19229041 0
-1.6521536 -1.1948103 -0.18726024 0
-1.57075 -1.1632367 -0.18762666 0
-1.4900898 -1.1317439 -0.18803874 0
-1.3441635 -1.1512307 -0.18691032 0
-1.278 -1.158 -0.18650001 0
1.403 -1.1059999 -0.155 0
-2.8379786 -1.0434761 -0.1274354 0
-2.7125514 -1.0642511 -0.12222942 0
-2.620574 -1.0507886 -0.12803882 0
-2.5408115 -1.0203239 -0.13953236 0
-1.8412378 -1.0779116 -0.19881925 0
-1.6331073 -1.0665666 -0.19286028 0
-1.5349908 -1.0573081 -0.19118515 0
-1.4299166 -1.0634122 -0.1895422 0
-1.35 -1.0319999 -0.19 0
1.2727914 -1.0011293 -0.15992682 0
1.3549783 -1.067323 -0.15681705 0
1.4436736 -1.0306162 -0.16012219 0
1.752 -1.001 -0.154 0
-2.8276758 -0.99112791 -0.13586 0
-2.7444663 -0.96136194 -0.14375252 0
-2.6494794 -0.96208358 -0.14831233 0
-2.5670662 -0.93173629 -0.15667695 0
-2.4677587 -0.96028662 -0.1568395 0
-2.3414059 -0.94416195 -0.16826618 0
-2.142 -0.92699999 -0.197 0
-1.4488511 -0.94942772 -0.19381005 0
-1.369 -0.995 -0.191 0
1.2557245 -0.93903875 -0.16137406 0
1.3538982 -0.96515489 -0.16049625 0
1.4619417 -0.94118661 -0.16 0
1.6378831 -0.93733978 -0.15565045 0
1.7404299 -0.94030386 -0.15429026 0
-2.4532332 -0.85718095 -0.17137626 0
-2.3441679 -0.86039156 -0.17834379 0
-2.2256894 -0.86819661 -0.18733487 0
-2.1459999 -0.82733327 -0.19766666 0
-2.0650163 -0.89457321 -0.1971201 0
-1.9441557 -0.84366465 -0.19730864 0
-1.8719609 -0.86670583 -0.19901326 0
-1.7909687 -0.83016467 -0.19801062 0
1.2409999 -0.83899999 -0.16049999 0
1.3419417 -0.86218667 -0.16 0
1.4529415 -0.83416986 -0.15832523 0
1.569602 -0.85070771 -0.15633453 0
1.6558089 -0.82204539 -0.15597153 0
1.7427301 -0.85412747 -0.15451962 0
-2.2452095 -0.78276598 -0.1911075 0
-2.1476271 -0.75064915 -0.1980596 0
-2.0304701 -0.76452637 -0.19858183 0
-1.9490585 -0.73510528 -0.19898486 0
-1.8454709 -0.74922013 -0.19844255 0
-1.7263489 -0.77622032 -0.19731542 0
-1.645566 -0.74098021 -0.19687696 0
-1.5479922 -0.72054118 -0.19500266 0
1.268 -0.73100001 -0.161 0
1.3419766 -0.77226794 -0.1599301 0
1.461561 -0.74858975 -0.15709294 0
1.560374 -0.75672781 -0.15918928 0
1.677834 -0.7120384 -0.15703034 0
1.7623755 -0.74427879 -0.15452276 0
2.0687354 -0.70900482 -0.14999634 0
2.145 -0.73500001 -0.149 0
-2.2090001 -0.60500002 -0.2 0
-2.1418114 -0.65947795 -0.19866395 0
-2.0353243 -0.66213894 -0.19763654 0
-1.9526036 -0.63561577 -0.19803046 0
-1.8698828 -0.60909259 -0.19842437 0
-1.7862351 -0.67626315 -0.19979092 0
-1.5412869 -0.67396951 -0.19793715 0
-1.467 -0.68400002 -0.19400001 0
1.272 -0.65399998 -0.15899999 0
1.3478243 -0.69183588 -0.15823717 0
1.544 -0.66100001 -0.161 0
1.6490629 -0.65421653 -0.15798524 0
1.7704065 -0.64893544 -0.15446648 0
1.8560311 -0.63650346 -0.15277514 0
1.9836535 -0.68000424 -0.15110785 0
2.8442469 -0.61060935 -0.13975796 0
2.908 -0.62400001 -0.139 0
-2.1476009 -0.5882628 -0.19955955 0
-2.0204806 -0.55361027 -0.19864763 0
-1.9357339 -0.53050852 -0.1980397 0
-1.8509872 -0.50740683 -0.19743176 0
-1.7458018 -0.56930792 -0.19901523 0
-1.6217208 -0.52952319 -0.19960609 0
-1.539 -0.50300002 -0.2 0
1.4731634 -0.50600106 -0.15777697 0
1.5551226 -0.55650079 -0.15883273 0
1.6427314 -0.5523051 -0.15786977 0
1.7615931 -0.55431575 -0.15501198 0
1.83 -0.52899998 -0.153 0
2.3243117 -0.50140232 -0.14593948 0
2.4532552 -0.52192312 -0.14045314 0
2.5841684 -0.54948819 -0.13793167 0
2.6654677 -0.56660354 -0.13640922 0
2.7575912 -0.59240818 -0.14078821 0
-1.7662404 -0.48430511 -0.19682382 0
-1.6814935 -0.4612034 -0.19621587 0
-1.5543734 -0.42655087 -0.19530396 0
1.3455408 -0.46250027 -0.15944424 0
1.5485001 -0.47350001 -0.16049999 0
1.6658455 -0.45489386 -0.15706588 0
1.7736751 -0.41776201 -0.15440476 0
1.8824153 -0.40639973 -0.1533273 0
1.9676548 -0.4189271 -0.15049785 0
2.0536544 -0.43737823 -0.14849791 0
2.1453271 -0.46041465 -0.14724898 0
2.2283289 -0.45433581 -0.14351536 0
2.3381984 -0.45307675 -0.13867353 0
2.4624717 -0.42228338 -0.13458849 0
2.5508547 -0.43773937 -0.13236685 0
2.647934 -0.44975439 -0.13007604 0
1.5469999 -0.35299999 -0.16 0
1.6301831 -0.33835688 -0.15713198 0
1.7658939 -0.35216436 -0.15376423 0
1.8786129 -0.35108483 -0.14981002 0
1.9617656 -0.3345786 -0.14722335 0
2.0501482 -0.35003459 -0.14500169 0
2.1376486 -0.35061792 -0.14358503 0
2.2243385 -0.33811656 -0.14130741 0
2.3457694 -0.35209146 -0.13835379 0
2.4758086 -0.34787744 -0.13587292 0
2.5625 -0.36039132 -0.13369897 0
2.6260872 -0.36960059 -0.13210334 0
2.7305183 -0.39278406 -0.13103724 0
1.5512004 -0.24356081 -0.15832205 0
1.6672026 -0.22936484 -0.15493244 0
1.7687607 -0.24180944 -0.15197974 0
1.8514739 -0.26742721 -0.14952423 0
1.9566905 -0.24704307 -0.14652358 0
2.0450358 -0.2580646 -0.14428538 0
2.1357925 -0.247648 -0.14167088 0
2.2475736 -0.22523284 -0.13821392 0
2.3362567 -0.23430355 -0.1360117 0
2.4538813 -0.25154471 -0.13323581 0
2.5634789 -0.25111774 -0.1302219 0
2.668 -0.259 -0.12899999 0
1.5462089 -0.1417678 -0.15696879 0
1.6518354 -0.14707123 -0.15387511 0
1.7558506 -0.14952137 -0.15036252 0
1.8576794 -0.15598701 -0.14744066 0
1.9463588 -0.16364069 -0.14521462 0
2.0350382 -0.17129438 -0.14298861 0
2.1358712 -0.15770736 -0.14025235 0
2.2416189 -0.12465838 -0.13735764 0
2.3611863 -0.14548385 -0.13404934 0
2.4652104 -0.13175634 -0.13168339 0
2.5384452 -0.12934355 -0.12991792 0
2.6429999 -0.13500001 -0.12899999 0
1.485 -0.064999998 -0.156 0
1.5557389 -0.065292306 -0.15395384 0
1.6618471 -0.065730773 -0.15088458 0
1.7356001 -0.055599999 -0.14839999 0
1.8413408 -0.048774928 -0.1460205 0
1.9495884 -0.062268257 -0.14358357 0
2.0653598 -0.057173532 -0.14164788 0
2.1760037 -0.052445024 -0.13942912 0
2.2638123 -0.054449998 -0.13730755 0
2.3516209 -0.056454975 -0.13518597 0
2.4401646 -0.043253485 -0.13336112 0
2.5389588 -0.051422901 -0.13100639 0
2.6199999 -0.043499999 -0.12899999 0
1.4614999 0.040999997 -0.155 0
1.5546643 0.053250212 -0.15170832 0
1.6640859 0.045031078 -0.14832246 0
1.7345692 0.05002743 -0.14627065 0
1.8569483 0.046403468 -0.14362852 0
1.9655476 0.040483356 -0.14148244 0
2.0721855 0.03593507 -0.13945524 0
2.1610651 0.036835503 -0.13756905 0
2.2499447 0.037735935 -0.13568287 0
2.3388245 0.038636368 -0.13379669 0
2.4498224 0.038922083 -0.1313463 0
2.560914 0.044800192 -0.12967934 0
1.4345 0.162 -0.15450001 0
1.5276241 0.16388117 -0.15096354 0
1.6706167 0.16400254 -0.14571266 0
1.7680972 0.15054324 -0.14434522 0
1.8564445 0.15833646 -0.14244047 0
1.9463819 0.15165339 -0.14031096 0
2.0423987 0.1530488 -0.13953829 0
2.132467 0.14792028 -0.13783753 0
2.2342408 0.15712495 -0.13512769 0
2.3388965 0.14540844 -0.13226509 0
2.4369323 0.14607686 -0.13017583 0
2.5350001 0.16 -0.12800001 0
1.4475238 0.25360695 -0.15282971 0
1.5637205 0.23984209 -0.14977413 0
1.6504576 0.25894079 -0.1464778 0
1.7397039 0.24891642 -0.13959903 0
1.8439486 0.25984868 -0.13166131 0
1.9382298 0.23885025 -0.12872253 0
2.0511813 0.25274897 -0.12209411 0
2.1490393 0.24125016 -0.12862861 0
2.2585723 0.22629747 -0.13415703 0
2.3802071 0.23397751 -0.13155706 0
2.4447582 0.23984574 -0.12980779 0
2.5065 0.2455 -0.1285 0
1.393 0.31299999 -0.154 0
1.4608186 0.33114445 -0.15132295 0
1.5740312 0.36624077 -0.1462049 0
1.632465 0.35304481 -0.14327553 0
1.7360452 0.35041314 -0.13659285 0
1.8477992 0.34064555 -0.12951529 0
1.9612335 0.34237149 -0.12082538 0
2.0421309 0.3556225 -0.11383956 0
2.1270001 0.382 -0.114 0
-2.1392169 0.46263289 -0.19947079 0
-2.065192 0.45988655 -0.19784093 0
1.3429999 0.44150001 -0.153 0
1.4540808 0.44384062 -0.14912881 0
1.5758803 0.46766877 -0.14417966 0
1.6656278 0.4484576 -0.13862643 0
1.7615095 0.44737801 -0.13366182 0
1.8425965 0.44968674 -0.12813462 0
1.9495249 0.45807165 -0.11925812 0
2.0283189 0.45233035 -0.11564576 0
-2.1097107 0.58580452 -0.19884408 0
-2.0492108 0.57430452 -0.19734406 0
-1.995 0.56400001 -0.19599999 0
-1.5120101 0.57436973 -0.1891087 0
-1.4300051 0.54168487 -0.18805435 0
-1.3285 0.53850001 -0.1855 0
1.2795 0.56299996 -0.15149999 0
1.3547543 0.55954075 -0.14946012 0
1.4301101 0.53943807 -0.14910103 0
1.5549644 0.54984647 -0.14527658 0
1.648445 0.55310303 -0.13802913 0
1.7510926 0.54300004 -0.13104452 0
1.8601755 0.55867636 -0.12382313 0
1.9532057 0.56483597 -0.11784054 0
2.0529883 0.55840391 -0.11648122 0
2.177635 0.56384641 -0.1087957 0
2.2780056 0.58834082 -0.10288325 0
-2.108 0.63999999 -0.199 0
-2.0614448 0.65588605 -0.19709632 0
-1.9552647 0.65297371 -0.19430567 0
-1.7580253 0.67242432 -0.19227175 0
-1.6760203 0.63973945 -0.19121741 0
-1.5721748 0.64256549 -0.18881775 0
-1.4698896 0.64138418 -0.18631496 0
-1.3720565 0.63714379 -0.18465212 0
-1.26 0.6595 -0.1825 0
1.2517849 0.67635888 -0.15002893 0
1.3377645 0.63066518 -0.1501732 0
1.4543619 0.66098267 -0.14708214 0
1.5515755 0.65134388 -0.14454933 0
1.6655551 0.63279378 -0.13642794 0
1.7524878 0.64528006 -0.12975506 0
1.8360138 0.64387393 -0.12419659 0
1.9388367 0.64704895 -0.11786119 0
2.1827896 0.62081802 -0.10915652 0
2.2770226 0.64811033 -0.10358945 0
-2.0380301 0.76328832 -0.1962162 0
-1.9469992 0.75227535 -0.19432701 0
-1.8653435 0.73803639 -0.19277537 0
-1.7514465 0.7698065 -0.19036615 0
-1.6307793 0.71476841 -0.18862993 0
-1.5513383 0.77108419 -0.18701369 0
-1.4333363 0.71019095 -0.18529353 0
-1.3590493 0.75657159 -0.18353626 0
1.193 0.74699998 -0.15099999 0
1.2637436 0.79257977 -0.14925911 0
1.3434752 0.7431156 -0.14833687 0
1.4120319 0.75961483 -0.1441301 0
1.524 0.72600001 -0.145 0
1.6423862 0.74847758 -0.13605174 0
1.7453918 0.76661092 -0.13082024 0
1.8706592 0.74375057 -0.12038095 0
1.9722247 0.77256221 -0.1181794 0
2.0790203 0.70033622 -0.11353043 0
2.1616902 0.72855896 -0.10828551 0
2.2446799 0.75689089 -0.10302029 0
-2.0145001 0.861 -0.1945 0
-1.9676853 0.84109449 -0.19373441 0
-1.8495898 0.85350209 -0.19170071 0
-1.7480085 0.8725729 -0.18988059 0
-1.6693405 0.83197743 -0.18873383 0
-1.5507982 0.86752421 -0.18609671 0
-1.4697344 0.84137321 -0.18565533 0
-1.3675001 0.84650004 -0.185 0
-1.142 0.87099999 -0.17900001 0
1.13325 0.85000002 -0.1505 0
1.2350731 0.87657046 -0.14814609 0
1.3344872 0.83815956 -0.1475182 0
1.4274738 0.85046649 -0.14630723 0
1.5226223 0.85959154 -0.14511621 0
1.7522804 0.83673644 -0.12366962 0
1.8452039 0.85429406 -0.11936812 0
1.9467329 0.83786279 -0.11681119 0
2.0621071 0.83845544 -0.11102076 0
2.1339145 0.83718705 -0.10745116 0
2.201 0.86400002 -0.103 0
-1.9553245 0.94401437 -0.19323465 0
-1.8404484 0.95909995 -0.19098981 0
-1.7310987 0.94514316 -0.18907253 0
-1.64503 0.95304269 -0.18692927 0
-1.5407407 0.9052065 -0.18647628 0
-1.4542664 0.95184427 -0.18418679 0
-1.3400557 0.97078955 -0.1839352 0
-1.2482653 0.95254505 -0.17932105 0
-1.138974 0.95861852 -0.17805579 0
-1.0599999 0.98400003 -0.177 0
1.0759999 0.95866662 -0.15099999 0
1.1532611 0.95717221 -0.14884776 0
1.2410742 0.95750594 -0.14678581 0
1.3399835 0.96136355 -0.14511117 0
1.4267005 0.96797466 -0.14336602 0
1.5711231 0.9384442 -0.14284539 0
1.6827168 0.9526937 -0.14133716 0
1.9425139 0.92901671 -0.10589431 0
2.058305 0.92427671 -0.10728721 0
2.1490076 0.92458516 -0.10299095 0
-1.9322228 1.0477104 -0.19164735 0
-1.8373142 1.0702831 -0.18912029 0
-1.7535454 1.0397083 -0.18802114 0
-1.6607924 1.0377504 -0.18616603 0
-1.5394335 1.0622129 -0.18399239 0
-1.4352984 1.0683059 -0.18179846 0
-1.3368621 1.0465875 -0.18082103 0
-1.232632 1.037158 -0.18007438 0
-1.1251605 1.0441917 -0.177 0
-1.018 1.039 -0.176 0
-0.972 1.0930001 -0.17399999 0
0.995 1.073 -0.15099999 0
1.0476304 1.0439639 -0.1508467 0
1.1426834 1.0533047 -0.14877355 0
1.2328489 1.0523268 -0.14615929 0
1.3466091 1.0468599 -0.14380966 0
1.4401827 1.0560353 -0.14276415 0
1.6287308 1.0277393 -0.14027733 0
-2.023 1.197 -0.18799999 0
-1.9552777 1.1560242 -0.18778601 0
-1.8680747 1.1433619 -0.18979347 0
-1.7435663 1.1489892 -0.18565913 0
-1.6501184 1.146824 -0.18527809 0
-1.5673767 1.1553742 -0.18294145 0
-1.4728994 1.1560359 -0.18103507 0
-1.3495861 1.1385393 -0.17962272 0
-1.2436727 1.1555916 -0.17818834 0
-1.160746 1.1297249 -0.17692192 0
-1.0696182 1.1457294 -0.1755874 0
-0.92799997 1.151 -0.17399999 0
0.74950004 1.1470001 -0.1525 0
0.81991976 1.1937568 -0.15149133 0
0.97317809 1.1579562 -0.1520925 0
1.056551 1.1398575 -0.1496145 0
1.1431675 1.1442454 -0.14746511 0
1.3312583 1.1420228 -0.14325488 0
1.5486218 1.1365235 -0.14017609 0
-1.9288771 1.2682514 -0.18499808 0
-1.827955 1.2384701 -0.18543583 0
-1.7460115 1.2434735 -0.18452834 0
-1.6438074 1.2386205 -0.1822834 0
-1.5472279 1.2480996 -0.18141735 0
-1.4491913 1.2559208 -0.17898884 0
-1.3658088 1.2490724 -0.17785496 0
-1.2464871 1.2534467 -0.17620008 0
-1.135062 1.2761121 -0.17492026 0
-1.0583237 1.2479163 -0.17400302 0
-0.96634358 1.2595696 -0.17292885 0
-0.85249996 1.2279999 -0.17199999 0
0.65450001 1.2474999 -0.152 0
0.74128115 1.2591277 -0.1514736 0
0.83672047 1.2800162 -0.15047464 0
0.94437736 1.2484906 -0.15126297 0
1.0474733 1.2440138 -0.1486773 0
1.2290952 1.2622764 -0.14542928 0
1.8049999 1.276 -0.13699999 0
-3.911 1.341 -0.18799999 0
-3.8411784 1.3180779 -0.1937305 0
-3.75998 1.389148 -0.19912168 0
-1.825 1.3610001 -0.182 0
-1.7545301 1.3280578 -0.18193282 0
-1.6717968 1.35251 -0.18147315 0
-1.5484695 1.3422399 -0.17902789 0
-1.4509634 1.3451499 -0.177 0
-1.3489751 1.340243 -0.17646156 0
-1.2382572 1.3456098 -0.17534193 0
-1.1572179 1.3628099 -0.17410548 0
-1.0661225 1.3519995 -0.17262825 0
-0.95494103 1.343127 -0.17166132 0
-0.85137844 1.3639282 -0.16952468 0
-0.74199998 1.3234999 -0.169 0
-0.65499997 1.3940001 -0.167 0
0.55549997 1.36 -0.15349999 0
0.66402155 1.3365812 -0.15144227 0
0.75352317 1.3479924 -0.15092772 0
0.84495628 1.3409959 -0.15199459 0
0.94068635 1.3520467 -0.14934617 0
1.316136 1.3511093 -0.14261325 0
1.8783262 1.3279858 -0.13649429 0
1.9516523 1.3799715 -0.13598859 0
3.7920001 1.345 -0.119 0
3.8540087 1.3758516 -0.11380716 0
-3.9070001 1.442 -0.19 0
-3.8401761 1.4179776 -0.19414602 0
-1.714 1.443 -0.17900001 0
-1.635 1.464 -0.17900001 0
-1.546407 1.4422687 -0.17734748 0
-1.450545 1.452224 -0.17586517 0
-1.3522086 1.4514138 -0.1748931 0
-1.2384226 1.4568019 -0.173098 0
-1.1463937 1.4520438 -0.17182168 0
-1.0574245 1.450817 -0.17048278 0
-0.95229435 1.4447453 -0.16867009 0
-0.84374261 1.4436833 -0.16752189 0
-0.76426506 1.467638 -0.165805 0
-0.69271976 1.4692818 -0.16542177 0
-0.55800003 1.4476666 -0.163 0
-0.49599999 1.494 -0.162 0
0.45595667 1.4675646 -0.15230538 0
0.55226719 1.4481212 -0.15249036 0
0.66300786 1.4426185 -0.15087128 0
0.76409698 1.4474318 -0.15019695 0
0.84806061 1.4338042 -0.15012787 0
0.96181428 1.4468238 -0.14760515 0
1.0075988 1.476784 -0.14545664 0
1.164 1.471 -0.14300001 0
1.3660001 1.402 -0.141 0
1.4292394 1.4670063 -0.13979101 0
2.0616417 1.4579501 -0.13523006 0
3.9630144 1.430086 -0.1046786 0
-3.737 1.5779999 -0.18700001 0
-3.6591847 1.5461984 -0.19150288 0
-3.579987 1.513832 -0.19608574 0
-1.637 1.517 -0.177 0
-1.5446113 1.5605273 -0.17551051 0
-1.4476522 1.5544513 -0.17442699 0
-1.3541586 1.5530365 -0.17295945 0
-1.2615371 1.5564913 -0.17175144 0
-1.1635554 1.5568244 -0.1696649 0
-1.0302858 1.5589461 -0.16709714 0
-0.92676431 1.5345014 -0.16636544 0
-0.86005586 1.5590967 -0.16505252 0
-0.76947147 1.5636053 -0.16392262 0
-0.65242946 1.5450264 -0.16191967 0
-0.55378175 1.5436802 -0.16101116 0
-0.4546304 1.5503769 -0.1589009 0
-0.35866666 1.5630001 -0.15733333 0
-0.28799999 1.596 -0.155 0
0.25749999 1.5705 -0.15099999 0
0.33723128 1.5433677 -0.15073191 0
0.4286437 1.5555494 -0.15022036 0
0.56425488 1.544926 -0.15056261 0
0.6493389 1.5534579 -0.1501001 0
0.73460686 1.5387902 -0.14938274 0
0.85447276 1.5300063 -0.14803328 0
0.94565481 1.5727315 -0.14632763 0
1.0594747 1.5520027 -0.14451364 0
1.113 1.554 -0.14300001 0
1.2170434 1.5630831 -0.14111415 0
1.4924788 1.5320127 -0.13858202 0
1.5557182 1.5970191 -0.13737305 0
2.1716309 1.5359287 -0.13447151 0
2.244957 1.5879143 -0.13396581 0
-1.6435728 1.6374227 -0.17173572 0
-1.5444714 1.6442039 -0.17271952 0
-1.456146 1.6407926 -0.17300431 0
-1.3630993 1.6640316 -0.17133901 0
-1.2736202 1.6483938 -0.16959444 0
-1.1404164 1.6597914 -0.16650873 0
-1.0472056 1.6469065 -0.16484055 0
-0.95827264 1.6447525 -0.16400138 0
-0.83352417 1.6562774 -0.16194622 0
-0.73717785 1.6387361 -0.16145365 0
-0.63982892 1.6512258 -0.15906547 0
-0.54660839 1.6506805 -0.15818407 0
-0.43964222 1.6659659 -0.15627651 0
-0.3684513 1.6752117 -0.1545144 0
-0.24905726 1.6510748 -0.15334144 0
-0.14066666 1.6703333 -0.152 0
0.075499997 1.675 -0.14950001 0
0.16159162 1.647653 -0.14982159 0
0.25488943 1.6553267 -0.14919782 0
0.35964158 1.6488872 -0.14921267 0
0.45025748 1.6430199 -0.14908814 0
0.53781301 1.63311 -0.14725773 0
0.63108236 1.6401477 -0.14752485 0
0.75345564 1.6584129 -0.14619546 0
0.86532211 1.651126 -0.14521663 0
0.95028758 1.6500819 -0.14465076 0
1.0435007 1.6411958 -0.14361833 0
1.1329415 1.6573341 -0.14106627 0
1.2524099 1.6548427 -0.13655256 0
1.3292603 1.6844985 -0.13168488 0
1.6189575 1.6620255 -0.13616405 0
2.3549461 1.665893 -0.13320726 0
2.6159999 1.668 -0.133 0
-1.8238355 1.79335 -0.16456307 0
-1.7366315 1.7616886 -0.16674918 0
-1.6518751 1.7423382 -0.16868295 0
-1.5451083 1.7489979 -0.16703857 0
-1.4503908 1.7588581 -0.16757263 0
-1.3517655 1.7359332 -0.16815683 0
-1.2450982 1.7462535 -0.16659009 0
-1.1543499 1.7708422 -0.16360313 0
-1.0664659 1.7696087 -0.16194814 0
-0.94117564 1.7565744 -0.15989976 0
-0.84494811 1.7487926 -0.1595436 0
-0.74690473 1.7627826 -0.15650021 0
-0.64596379 1.7441218 -0.15675518 0
-0.54250908 1.7503262 -0.15103704 0
-0.43363333 1.7696261 -0.14653385 0
-0.32650855 1.7397699 -0.14897175 0
-0.25835946 1.751611 -0.15060028 0
-0.1642141 1.7587507 -0.14873531 0
-0.047889873 1.7478968 -0.14823097 0
0.04663327 1.7499176 -0.14692293 0
0.16379905 1.7416979 -0.14595941 0
0.24809735 1.7654268 -0.14572242 0
0.33751708 1.7524573 -0.14576797 0
0.45261797 1.7483038 -0.14143677 0
0.53459448 1.7614077 -0.13550793 0
0.64627355 1.7533355 -0.14219518 0
0.76533145 1.7588938 -0.14410889 0
0.84174746 1.7524471 -0.1434181 0
0.94897079 1.7513961 -0.14226772 0
1.0485426 1.7448092 -0.14048997 0
1.13613 1.7556413 -0.14073767 0
1.242304 1.7647959 -0.13556702 0
1.3614744 1.755096 -0.13560762 0
1.6821969 1.7270317 -0.13495506 0
1.7454363 1.7920382 -0.13374607 0
2.4649355 1.7438716 -0.13244872 0
2.5426667 1.7683333 -0.132 0
2.6655955 1.7462438 -0.12345408 0
2.7648044 1.7676766 -0.11838347 0
2.8340001 1.73 -0.12 0
2.9091611 1.7770034 -0.11312686 0
-2.3310001 1.896 -0.18700001 0
-1.8890443 1.8564376 -0.16170385 0
-1.7661985 1.8580259 -0.16313255 0
-1.647344 1.8388757 -0.16194236 0
-1.5392568 1.8534939 -0.16177806 0
-1.457667 1.8400419 -0.16131403 0
-1.3311698 1.8417563 -0.16269599 0
-1.2333779 1.8494117 -0.1601156 0
-1.1641995 1.8586906 -0.16006063 0
-1.0434451 1.848519 -0.15723203 0
-0.95050579 1.8439908 -0.15597148 0
-0.86156178 1.8431906 -0.15705456 0
-0.7425667 1.8445778 -0.15387234 0
-0.65347159 1.8460941 -0.14946598 0
-0.54824948 1.8338134 -0.14890134 0
-0.45320642 1.8541714 -0.14192171 0
-0.35556409 1.8517022 -0.14182511 0
-0.24311455 1.8519192 -0.13938862 0
-0.14308803 1.8437271 -0.14087413 0
-0.040892102 1.8481125 -0.13965826 0
0.057982009 1.8511089 -0.13888554 0
0.15050742 1.8493208 -0.13772722 0
0.24983057 1.8614438 -0.13568756 0
0.34915552 1.8536401 -0.13534714 0
0.45079449 1.8492022 -0.12823613 0
0.55482972 1.8661968 -0.12853427 0
0.65299296 1.840402 -0.13442712 0
0.74564278 1.8474357 -0.14164309 0
0.85183233 1.848352 -0.1407146 0
0.95784426 1.8552808 -0.13645621 0
1.0521998 1.8472055 -0.13589126 0
1.1598587 1.8545429 -0.13395165 0
1.2292423 1.8543262 -0.13826585 0
1.3125615 1.8573971 -0.12966034 0
1.4550052 1.8607088 -0.12727965 0
1.8086756 1.8570446 -0.13253708 0
2.4849999 1.85 -0.131 0
2.5755348 1.8700953 -0.12194145 0
2.6788054 1.8537776 -0.11783335 0
2.7365096 1.8447924 -0.1120979 0
2.8392065 1.8175149 -0.11107521 0
2.9489655 1.84568 -0.10501033 0
3.168 1.845 -0.113 0
3.2420311 1.8884829 -0.10488135 0
-2.3944371 1.9501617 -0.18501242 0
-2.0194621 1.9826125 -0.15598539 0
-1.925263 1.9553772 -0.15783168 0
-1.83664 1.9372816 -0.16044238 0
-1.7460276 1.9834931 -0.15312861 0
-1.6581593 1.9369735 -0.15728588 0
-1.5544381 1.9521813 -0.1550124 0
-1.4388911 1.9316672 -0.15681307 0
-1.3333694 1.9551647 -0.15137464 0
-1.2356365 1.9399871 -0.15125883 0
-1.1260769 1.945399 -0.15578699 0
-1.0532372 1.9345597 -0.15157086 0
-0.96020979 1.955844 -0.14903969 0
-0.84637994 1.9449254 -0.14505841 0
-0.76238281 1.9428517 -0.14857997 0
-0.64524531 1.9535325 -0.14221987 0
-0.55343145 1.9357886 -0.14421174 0
-0.45505083 1.9410043 -0.13092871 0
-0.35154265 1.966706 -0.13226658 0
-0.25847447 1.9466238 -0.13148873 0
-0.14638804 1.935613 -0.13321628 0
-0.048084456 1.9601809 -0.13184063 0
0.052442867 1.9477825 -0.13125807 0
0.15694506 1.951282 -0.12982975 0
0.24882165 1.9434177 -0.12924625 0
0.35500565 1.9507812 -0.12474396 0
0.45452589 1.9409282 -0.12315655 0
0.54903239 1.9485631 -0.12875029 0
0.64252788 1.9263152 -0.11923738 0
0.73916161 1.9520813 -0.13120854 0
0.83524382 1.9621989 -0.13767931 0
0.9601838 1.9523424 -0.13227941 0
1.0646045 1.9493949 -0.12565476 0
1.1467856 1.980618 -0.13666353 0
1.2464262 1.94872 -0.13272639 0
1.3466977 1.9489931 -0.12898625 0
1.4505991 1.9571185 -0.12388349 0
1.5443492 1.9815556 -0.12554485 0
1.8719151 1.922051 -0.13132811 0
1.9351544 1.9870573 -0.13011912 0
2.4119999 1.975 -0.127 0
2.6519105 1.9747818 -0.10612389 0
2.7379165 1.9408331 -0.10450003 0
2.8298819 1.9135723 -0.10552591 0
-2.5213113 2.058485 -0.18103725 0
-2.4578743 2.0043235 -0.18302484 0
-2.0642035 2.0708728 -0.1512026 0
-1.9510348 2.0530453 -0.15441944 0
-1.83636 2.023155 -0.15191913 0
-1.7768734 2.0682535 -0.14781508 0
-1.6628125 2.0400364 -0.1496278 0
-1.5546228 2.0531261 -0.14807925 0
-1.4537067 2.0147998 -0.15150346 0
-1.3488979 2.0638962 -0.13940549 0
-1.251338 2.0316429 -0.14373335 0
-1.1488098 2.0622718 -0.14215322 0
-1.038528 2.0466914 -0.15151736 0
-0.95519561 2.0540168 -0.14299048 0
-0.84428722 2.0397446 -0.14232343 0
-0.75088108 2.0548513 -0.14970843 0
-0.65092909 2.0547636 -0.13928604 0
-0.54086107 2.0502541 -0.12348897 0
-0.44532448 2.031426 -0.12366249 0
-0.34749737 2.0450132 -0.12477084 0
-0.24059664 2.0485091 -0.12672441 0
-0.15422918 2.0473299 -0.1233067 0
-0.050402768 2.0635221 -0.12299831 0
0.047290903 2.0455408 -0.12316713 0
0.14185293 2.0457475 -0.12305898 0
0.25011808 2.0478718 -0.12314977 0
0.3352316 2.0479906 -0.11755287 0
0.43483752 2.0369372 -0.11897804 0
0.55142522 2.0291283 -0.12178621 0
0.65594518 2.0518641 -0.12471959 0
0.7453422 2.0488563 -0.13258605 0
0.83291441 2.0604808 -0.13288794 0
0.94233596 2.0550389 -0.13402055 0
1.0547729 2.0307612 -0.13559501 0
1.1521393 2.0549741 -0.1240594 0
1.2464634 2.0419896 -0.12744513 0
1.3501488 2.0721703 -0.1342313 0
1.449613 2.0557053 -0.12411476 0
1.5931059 2.0622725 -0.1330736 0
1.6046944 2.0403295 -0.11282633 0
1.9983938 2.0520637 -0.12891012 0
2.4700232 2.0218086 -0.11432266 0
2.5280464 2.0686173 -0.10164533 0
-2.6481855 2.1668084 -0.17706208 0
-2.5847483 2.1126468 -0.17904966 0
-2.2150886 2.171875 -0.14740771 0
-2.1278539 2.1349196 -0.14816543 0
-2.0556858 2.1593463 -0.1528718 0
-1.9689678 2.1443727 -0.14883889 0
-1.8443824 2.1243236 -0.14471443 0
-1.749287 2.1514719 -0.14815605 0
-1.6790264 2.1415565 -0.14041397 0
-1.5550413 2.150856 -0.1431502 0
-1.4480129 2.1402748 -0.13468555 0
-1.3528858 2.158751 -0.12712996 0
-1.2519538 2.1428835 -0.14067861 0
-1.1514133 2.1641753 -0.13399066 0
-1.045105 2.1386425 -0.1240187 0
-0.94461697 2.1451187 -0.13404633 0
-0.85152614 2.1599443 -0.13754143 0
-0.73944408 2.1379545 -0.1374885 0
-0.65674627 2.1446998 -0.13457221 0
-0.55761397 2.1532688 -0.13168088 0
-0.45069575 2.1406872 -0.11908749 0
-0.34798816 2.1397808 -0.12484606 0
-0.25582176 2.1707234 -0.11141527 0
-0.14917417 2.1725657 -0.11250388 0
-0.050430555 2.1666586 -0.11496308 0
0.04652939 2.1674099 -0.11568531 0
0.14156297 2.1709833 -0.11591016 0
0.2472565 2.1601951 -0.11517724 0
0.34650573 2.1554787 -0.11591703 0
0.44891801 2.1651733 -0.11838717 0
0.54832572 2.1604362 -0.11865237 0
0.67575562 2.1841145 -0.1164604 0
0.77996379 2.1596735 -0.1270925 0
0.85533315 2.1586907 -0.12765309 0
0.9542343 2.1772556 -0.13206728 0
1.0435768 2.1565425 -0.12594961 0
1.1383493 2.1615794 -0.1317936 0
1.2245616 2.1702137 -0.13120519 0
1.36 2.1689999 -0.131 0
1.4204202 2.1500888 -0.1303319 0
1.5171633 2.1334851 -0.10147638 0
1.6468906 2.1127479 -0.12052731 0
1.7176226 2.1862204 -0.10509429 0
2.046 2.1010001 -0.12800001 0
-3.1061499 2.2708817 -0.17110318 0
-3.0448837 2.239984 -0.17779878 0
-2.987 2.2130001 -0.18799999 0
-2.8137598 2.2742517 -0.14001499 0
-2.7192535 2.2366083 -0.16466032 0
-2.6389999 2.2249999 -0.17 0
-2.5391092 2.2781177 -0.14386272 0
-2.4538019 2.2521071 -0.14944799 0
-2.3652432 2.2440283 -0.15276691 0
-2.2820001 2.2249999 -0.1525 0
-2.1515 2.2280002 -0.1455 0
-2.0665989 2.2156351 -0.14633946 0
-1.9466441 2.2308555 -0.13639268 0
-1.8406568 2.2332523 -0.13530262 0
-1.7474884 2.2175901 -0.13243508 0
-1.6301634 2.2124476 -0.14086503 0
-1.5263653 2.2371037 -0.11790036 0
-1.4313332 2.2186668 -0.12766667 0
-1.3602022 2.2196705 -0.12815131 0
-1.237 2.2163334 -0.13533333 0
-1.1670904 2.2438483 -0.12414141 0
-1.033 2.224 -0.134 0
-0.921 2.224 -0.14399999 0
-0.85049999 2.20875 -0.132 0
-0.73749995 2.2055001 -0.133 0
-0.67650002 2.207 -0.131 0
-0.56340843 2.2262576 -0.12468348 0
-0.45521462 2.2055247 -0.12157445 0
-0.36174572 2.2034793 -0.12650101 0
-0.2525 2.2059999 -0.11849999 0
-0.17399999 2.201 -0.115 0
-0.07 2.201 -0.11 0
0.015592758 2.2849131 -0.1090548 0
0.11799823 2.2803266 -0.11186627 0
0.44719294 2.2762578 -0.10191038 0
0.72888446 2.2712801 -0.10625111 0
0.82687837 2.2579365 -0.11832663 0
1.2684094 2.2543797 -0.11649425 0
-3.2484493 2.3766448 -0.14930955 0
-3.163379 2.3315351 -0.15473135 0
-2.9452796 2.3767552 -0.11604497 0
-2.8558474 2.356946 -0.12886521 0
-2.7677834 2.3339255 -0.14313363 0
-2.6523583 2.3703382 -0.12404983 0
-2.5478587 2.3579204 -0.12905255 0
-2.4433734 2.3413289 -0.1368967 0
-2.0458579 2.3490362 -0.11508432 0
0.12099647 2.3696535 -0.10473254 0
0.85675675 2.3408728 -0.10365325 0
1.3078188 2.3307595 -0.1019885 0
-3.3453948 2.4565921 -0.12730546 0
-3.2580695 2.4088736 -0.13039017 0
-3.0110393 2.4280069 -0.10405996 0
-2.9609585 2.497314 -0.10283407 0
-2.8585577 2.4710631 -0.11085005 0
-2.7329371 2.4449701 -0.1089509 0
-2.6542587 2.4577391 -0.11378402 0
-2.5762291 2.4401233 -0.11789162 0
-2.4821908 2.4052551 -0.1309022 0
-2.1032867 2.4120545 -0.10362647 0
-3.5330486 2.5881712 -0.10572228 0
-3.4618988 2.5352898 -0.1166191 0
-3.393604 2.5068102 -0.10158527 0
-2.7183232 2.5154238 -0.10448003 0
-2.6390166 2.5554676 -0.10665405 0
3.3843966 -2.3186922 -0.027366713 0
3.2613273 -2.2344871 -0.048777852 0
3.0788848 -2.109658 -0.080518566 0
3.1518619 -2.1595898 -0.067822278 0
3.005908 -2.0597265 -0.093214855 0
0.077 -0.917 -0.028000001 0
0.075433254 -0.85746372 -0.021733018 0
2.027 0.97000003 -0.097999997 0
2.7863674 1.8739481 -0.09964928 0
3.0594835 1.8710103 -0.099380583 0
0.51780331 1.9698117 -0.095638081 0
2.8331892 1.9573541 -0.092099547 0
2.940093 1.9507656 -0.090609886 0
3.0624132 1.9670298 -0.089150414 0
3.1346445 1.9180137 -0.092507437 0
3.2098055 1.9650171 -0.085634306 0
3.3530774 1.9537072 -0.092703395 0
-0.24192536 2.0627573 -0.093884274 0
0.47411835 2.0684459 -0.099530049 0
0.54532701 2.0586512 -0.093014717 0
0.62681651 2.0293632 -0.094303504 0
0.73061186 2.0638227 -0.091412529 0
1.0739377 2.0716124 -0.088501111 0
2.7520568 2.0496507 -0.091198236 0
2.8476744 2.0704761 -0.083707258 0
2.9582982 2.0509055 -0.08302594 0
3.0411546 2.0512908 -0.068209447 0
3.1368153 2.0168681 -0.081842147 0
3.2480922 2.0393634 -0.07664752 0
3.3601279 2.0590239 -0.07188803 0
3.4641242 2.0189316 -0.080525428 0
3.5381551 2.0624144 -0.072406784 0
-0.93659401 2.197614 -0.092980467 0
-0.71251756 2.1461978 -0.098678365 0
-0.60953236 2.1679499 -0.098702833 0
-0.52228737 2.1617494 -0.094115488 0
-0.40311122 2.1213496 -0.089011721 0
-0.25240672 2.1456966 -0.079605348 0
0.16100001 2.1935 -0.098999999 0
0.27197596 2.189501 -0.094022356 0
0.37101579 2.1785481 -0.091696516 0
0.4576149 2.1761839 -0.089222722 0
0.55152947 2.1661909 -0.083075494 0
0.64844984 2.1667018 -0.078963637 0
0.7697379 2.1750424 -0.077827096 0
0.94999999 2.1919999 -0.071000002 0
1.007 2.1849999 -0.068999998 0
1.1578147 2.1726367 -0.078758009 0
1.2876303 2.1175063 -0.096266538 0
1.3279999 2.1860001 -0.089000002 0
1.5469999 2.1830001 -0.077500001 0
2.2349999 2.1819999 -0.046 0
2.4419999 2.1789999 -0.043000001 0
2.5535347 2.1457131 -0.058983993 0
2.6470466 2.1646173 -0.075645328 0
2.8855855 2.1494761 -0.071297362 0
2.901 2.161 -0.068999998 0
3.0220692 2.1469719 -0.066916704 0
3.1572614 2.1352286 -0.06166245 0
3.2508099 2.1417723 -0.051612809 0
3.349 2.1589999 -0.061000004 0
3.4352889 2.1060271 -0.065014884 0
3.511225 2.1535153 -0.058070876 0
3.6492019 2.1276388 -0.060228825 0
3.7060001 2.161 -0.054000001 0
-1.104 2.2349999 -0.083999999 0
-1.077 2.224 -0.097000003 0
-0.93046004 2.2391336 -0.084082641 0
-0.73199999 2.2090001 -0.090999998 0
-0.63968873 2.2299497 -0.090671927 0
-0.54430163 2.2422514 -0.087071538 0
-0.43518338 2.2362547 -0.07680352 0
-0.26322258 2.266453 -0.068246 0
-0.13249999 2.273 -0.049999997 0
-0.052000001 2.2720001 -0.046 0
0.43544066 2.2675545 -0.069944724 0
0.58200812 2.2304428 -0.063467361 0
0.65515733 2.2583506 -0.06204354 0
0.80334961 2.268322 -0.06526877 0
0.984478 2.2682312 -0.061668791 0
1.0428332 2.258271 -0.059016608 0
1.1753122 2.267344 -0.052012995 0
1.2354813 2.2697508 -0.071031697 0
1.5924152 2.253582 -0.042041864 0
1.7727683 2.2526124 -0.092800468 0
2.2976496 2.2452729 -0.035922036 0
2.5574815 2.2576008 -0.024722343 0
2.6544106 2.2917662 -0.0033937488 0
-1.8591791 2.3571851 -0.099916525 0
-1.6029229 2.3638296 -0.086202912 0
-1.2337227 2.3737879 -0.09713126 0
-1.1635122 2.3545136 -0.076988958 0
-0.96776038 2.3598022 -0.063495852 0
-0.71589428 2.3448324 -0.082591265 0
-0.63692844 2.3681054 -0.070343852 0
-0.56617093 2.3636768 -0.078010179 0
-0.44912398 2.355077 -0.058790088 0
-0.2537218 2.3655431 -0.06297861 0
-0.13693844 2.3600898 -0.038162094 0
-0.05358097 2.3622084 -0.036700174 0
0.018185515 2.3748262 -0.097109601 0
0.45633414 2.3551574 -0.066800013 0
0.59804869 2.3686559 -0.06880416 0
0.63985914 2.3605239 -0.051368698 0
0.7336548 2.3551593 -0.074056581 0
0.83169931 2.3466439 -0.054537542 0
1.0488112 2.3380022 -0.050685398 0
1.2462934 2.3440948 -0.048544694 0
1.6665382 2.357955 -0.019604661 0
1.8534207 2.3495307 -0.074501179 0
2.3602991 2.3085458 -0.025844069 0
2.4229488 2.3718188 -0.015766107 0
2.6427388 2.3599198 -0.014970157 0
-3.0767992 2.4792585 -0.092074953 0
-2.1607158 2.4750726 -0.092168637 0
-1.9433134 2.4615741 -0.07810393 0
-1.6533843 2.4362445 -0.070804372 0
-1.2490544 2.4611046 -0.077837408 0
-0.99714053 2.4322035 -0.051743779 0
-0.75378859 2.4726646 -0.072182529 0
-0.64356208 2.4499683 -0.067077793 0
-0.57312566 2.4428687 -0.056604557 0
-0.46524799 2.4401538 -0.051580172 0
-0.26352397 2.4511526 -0.052217126 0
-0.14137687 2.4471793 -0.02632419 0
-0.055161942 2.4524167 -0.027400352 0
0.02077827 2.4647393 -0.085164398 0
0.1239947 2.4589801 -0.097598806 0
0.46240354 2.4389908 -0.053886127 0
0.50994772 2.4453647 -0.060997158 0
0.64788347 2.447185 -0.048770782 0
0.75998223 2.4382389 -0.062084876 0
0.8733421 2.4243875 -0.066393092 0
1.0706731 2.4588094 -0.038340762 0
1.1324162 2.4414482 -0.034058131 0
1.2710929 2.4532039 -0.017045483 0
1.3521032 2.4379704 -0.069184951 0
1.9340731 2.4464493 -0.05620189 0
2.4855983 2.435092 -0.0056881383 0
2.7096519 2.4202266 -0.0056268759 0
-3.434 2.536 -0.093000002 0
-3.1537795 2.5392551 -0.078044966 0
-3.052675 2.5748885 -0.083700441 0
-2.8671038 2.5684702 -0.078784235 0
-2.7589302 2.5491574 -0.089982092 0
-2.6567156 2.5137191 -0.097479865 0
-2.2181447 2.5380907 -0.080710799 0
-2.0274477 2.5659628 -0.056291327 0
-1.7290764 2.5448666 -0.047706552 0
-1.3371261 2.559773 -0.068545341 0
-1.2626995 2.5537033 -0.065303892 0
-1.0377604 2.5323024 -0.035495855 0
-0.7410357 2.5405402 -0.054997131 0
-0.6328423 2.5290124 -0.05358376 0
-0.5799585 2.533814 -0.048664592 0
-0.48137197 2.5252309 -0.044370256 0
-0.27332616 2.5367625 -0.041455638 0
-0.14581531 2.5342689 -0.014486287 0
-0.05674291 2.542625 -0.018100528 0
0.023371028 2.5546522 -0.073219195 0
0.12699294 2.5483069 -0.090465084 0
0.47561255 2.5470035 -0.023439029 0
0.51768434 2.5275917 -0.054318856 0
0.66984463 2.5311358 -0.040361043 0
0.75022793 2.5678141 -0.018704103 0
0.85346818 2.515204 -0.055039775 0
0.92655128 2.559346 -0.052094501 0
1.1542782 2.5622556 -0.021713495 0
1.2079999 2.596 -0.013 0
1.3659247 2.5000033 -0.035126794 0
1.4177265 2.5683267 -0.040814877 0
1.9878414 2.5110617 -0.044002362 0
2.0416098 2.5756741 -0.031802833 0
-3.6397734 2.6674938 -0.089377046 0
-3.0120001 2.6589999 -0.081 0
-2.953968 2.6105845 -0.088406011 0
-2.8518174 2.6552646 -0.077290684 0
-2.7580569 2.638401 -0.082888477 0
-2.3375013 2.6690636 -0.056897562 0
-2.2755735 2.6011088 -0.06925296 0
-2.0835373 2.6355555 -0.041749597 0
-1.8047686 2.6534886 -0.024608739 0
-1.3507712 2.6523714 -0.056011826 0
-0.80431432 2.6431077 -0.05830422 0
-0.73088741 2.6289964 -0.028219305 0
-0.65036184 2.6522753 -0.036070649 0
-0.55540907 2.6552012 -0.033265583 0
-0.49749595 2.6103079 -0.037160344 0
-0.31618103 2.6654685 -0.022350619 0
-0.26987043 2.6265047 -0.028299948 0
-0.1816043 2.6233065 -0.01015364 0
-0.058323879 2.6328332 -0.008800704 0
0.025963785 2.6445653 -0.061273996 0
0.12999117 2.6376336 -0.083331347 0
0.47236404 2.6313758 -0.048175618 0
0.547566 2.6528761 -0.036250927 0
0.67783362 2.6268649 -0.035995416 0
0.74230027 2.6724353 -0.012435682 0
0.86336434 2.6550398 -0.062381133 0
0.95778942 2.670517 -0.021857463 0
1.1624341 2.6616936 -0.013506372 0
1.29 2.6110001 -0.014 0
1.3270965 2.6731834 -0.0025240956 0
1.4591718 2.644892 -0.027577851 0
2.076 2.6170001 -0.023999996 0
-3.701 2.7130001 -0.079999998 0
-2.7920001 2.7019999 -0.082999997 0
-2.1676717 2.7399445 -0.019936997 0
-1.8552301 2.7259035 -0.0092101991 0
-1.4422648 2.748879 -0.039479714 0
-1.3618867 2.752893 -0.053618822 0
-0.83216357 2.7484367 -0.026177429 0
-0.71489668 2.7555659 -0.019889085 0
-0.6402986 2.74019 -0.018691 0
-0.52974391 2.7804618 -0.022740517 0
-0.31934288 2.7797835 -0.018520026 0
-0.29201329 2.7090569 -0.031945594 0
0.028556541 2.7344785 -0.049328797 0
0.13298941 2.7269602 -0.076197617 0
0.48803684 2.7202511 -0.040010743 0
0.57744765 2.7781606 -0.018182997 0
0.68614608 2.717968 -0.038412489 0
0.73400611 2.7383449 -0.013116366 0
0.90819097 2.7829597 -0.047757804 0
1.0061487 2.7555552 -0.030286387 0
1.5204329 2.7428293 -0.023729883 0
-1.421399 2.872407 -0.046607781 0
-0.86503649 2.8530064 -0.030746395 0
-0.70899999 2.8039999 -0.024000004 0
-0.6856817 2.8649716 -0.0045561679 0
-0.54270005 2.8536413 -0.0080810031 0
-0.32566667 2.8359997 -0.019000001 0
0.031149298 2.8243916 -0.037383601 0
0.13598764 2.816287 -0.069063887 0
0.53203076 2.8430424 -0.01950895 0
0.60399997 2.8269999 -0.019999996 0
0.72712177 2.8409731 -0.021677071 0
0.93807542 2.8682396 -0.038008921 0
1.0360271 2.8384917 -0.015613019 0
-1.4650369 2.9600413 -0.041466877 0
-0.90536582 2.9839935 -0.030547597 0
-0.88558334 2.9248481 -0.019663265 0
-0.55599999 2.9189999 -0.011 0
0.033742055 2.9143047 -0.025438398 0
0.14048499 2.9502773 -0.058363289 0
0.53505528 2.9868765 -0.01551611 0
0.75221914 2.9799519 -0.015618727 0
0.96795988 2.9535196 -0.028260045 0
1.0659055 2.921428 -0.00093965232 0
-5.7789998 3.095 -0.016000001 0
-5.6993618 3.0525079 -0.0063217515 0
-0.91100001 3.003 -0.028999999 0
0.037631191 3.0491743 -0.0075206049 0
0.14399999 3.0550001 -0.049999997 0
0.55072808 3.0757515 -0.0073512271 0
0.77424347 3.0672798 -0.0080208108 0
0.99784428 3.0387995 -0.018511161 0
0.56099999 3.1340001 -0.0019999966 0
0.78299999 3.102 -0.0050000013 0
1.027 3.122 -0.0090000015 0
0.121 3.632 -0.0060000001 0
0.25600001 2.391 0.077 0
2.7211161 2.3496492 0.0094093755 0
-0.29300001 2.4549999 0.027000001 0
0.26045322 2.4374561 0.072766714 0
0.86000001 2.4394999 0.048500001 0
0.90493512 2.4744596 0.042775575 0
1.740661 2.4623282 0.0028325394 0
2.5482481 2.4983649 0.0043898262 0
2.7821932 2.4440327 0.012964454 0
2.8545268 2.4654152 0.035015628 0
-0.75699997 2.5725002 0.014 0
-0.47499999 2.539 0.039999999 0
-0.3011879 2.5268302 0.018067757 0
0.095156133 2.5656052 0.072379418 0
0.26895842 2.5261834 0.064681523 0
0.843068 2.5372429 0.068159945 0
0.9337793 2.5545497 0.036479644 0
1.3285612 2.5647199 0.0039350241 0
1.7900763 2.5319102 0.017790671 0
2.6108978 2.5616379 0.014467794 0
2.843478 2.5408397 0.013059687 0
2.9545848 2.5522399 0.054220315 0
-4.9488091 2.6520395 0.084891252 0
-0.80933332 2.6903925 0.0083469376 0
-0.77748227 2.6394758 0.014168723 0
-0.50659668 2.6872313 0.020105796 0
-0.4901289 2.6099751 0.030474395 0
-0.31014094 2.6053727 0.0083008185 0
-0.1189032 2.6194105 0.004856877 0
0.099388689 2.6886315 0.062785625 0
0.27746361 2.6149104 0.056596331 0
0.50953317 2.6779354 0.011445295 0
0.7996223 2.6772757 0.0051671788 0
0.87119174 2.6196666 0.058186829 0
0.93741417 2.6615686 0.032180615 0
1.3816246 2.6676881 0.023307344 0
1.8641992 2.6362832 0.040227871 0
2.6735473 2.6249108 0.024545763 0
2.736197 2.6881838 0.034623723 0
2.9438474 2.6312997 0.027074609 0
3.0546429 2.6390643 0.07342501 0
3.1213484 2.6969473 0.086228132 0
-5.2215328 2.7975552 0.051747747 0
-5.1418943 2.7550631 0.061425999 0
-5.0622563 2.7125709 0.071104251 0
-1.9056915 2.7983181 0.0061883405 0
-0.79209578 2.7394218 0.018307555 0
-0.56103218 2.7752438 0.020868599 0
-0.26697305 2.7165048 0.0022508018 0
-0.14491306 2.7353375 0.016721452 0
-0.07445243 2.7460208 0.03824956 0
0.10246511 2.7780526 0.055812422 0
0.29022139 2.7480011 0.044468548 0
0.52583981 2.7637224 0.02373435 0
0.85171294 2.7273417 0.039124958 0
0.94878191 2.7612524 0.033456326 0
1.0203117 2.7948198 0.017591856 0
1.3641931 2.7353668 0.0089518093 0
1.4387178 2.7567031 0.01693696 0
1.913 2.7049999 0.055000003 0
2.7988467 2.751457 0.044701692 0
2.8380001 2.7909999 0.051000003 0
3.0442169 2.7217598 0.041089531 0
3.1260648 2.748033 0.07021641 0
-5.3409901 2.8612933 0.037230376 0
-2.251806 2.8443332 0.0018756092 0
-1.9561529 2.8707328 0.02158688 0
-0.82844514 2.8649921 0.031525481 0
-0.75199997 2.849 1.3198259e-13 0
-0.62957692 2.8384175 0.025447793 0
-0.28383791 2.8475692 0.024094857 0
-0.16226114 2.8630536 0.030750055 0
-0.076867461 2.8310618 0.038567327 0
0.071000002 2.858 0.048 0
0.10554152 2.8674736 0.048839219 0
0.3029792 2.8810916 0.032340761 0
0.54214644 2.8495095 0.036023404 0
0.95556271 2.8669372 0.02826748 0
1.0491558 2.8749099 0.011295929 0
1.4583699 2.8438785 0.034006324 0
1.5703932 2.8609216 0.021153705 0
3.151 2.8180001 0.056000005 0
-5.5400853 2.9675236 0.013034746 0
-5.4604473 2.9250317 0.022712996 0
-2.3244479 2.9344628 0.02070868 0
-1.987 2.915 0.031000003 0
-0.78052795 2.9557872 0.014263993 0
-0.30070281 2.9786334 0.045938909 0
-0.2042086 2.980613 0.030692719 0
-0.074474044 2.9436731 0.035203483 0
0.075415477 2.9263515 0.043231294 0
0.10861793 2.9568946 0.041866016 0
0.3114844 2.9698188 0.024255574 0
0.56222653 2.9551482 0.051156234 0
0.98368633 2.9493608 0.01829436 0
1.0779999 2.9549999 0.0049999976 0
-5.6197233 3.0100157 0.0033564977 0
-0.80905592 3.0625744 0.028527984 0
-0.31194609 3.0660098 0.060501605 0
-0.20985967 3.0699396 0.040904313 0
-0.16899875 3.0238438 0.077726975 0
-0.082697406 3.0513954 0.043294445 0
0.08111354 3.0145576 0.037077378 0
0.11169434 3.0463157 0.034892812 0
0.31998962 3.0585458 0.016170381 0
0.99888515 3.0407367 0.0052499818 0
1.024735 3.0228324 0.011392507 0
-0.82599998 3.1259999 0.037 0
-0.32509467 3.1681929 0.077532157 0
-0.21575537 3.1631331 0.051557951 0
-0.14122602 3.1527643 0.046037156 0
-0.067809701 3.174083 0.046998244 0
0.073440425 3.1532447 0.021231005 0
0.11477076 3.1357369 0.027919609 0
0.32849482 3.1472731 0.0080851903 0
0.80129898 3.1860397 0.003675065 0
1.0669336 3.1482081 0.0028481267 0
-0.14787026 3.276727 0.029902099 0
-0.068999998 3.2420001 0.054000001 0
0.098207742 3.2791758 0.018615644 0
0.11784717 3.225158 0.020946406 0
0.33700001 3.2360001 1.3424033e-13 0
0.8195979 3.2700794 0.01235013 0
-0.15229975 3.3593688 0.019145396 0
0.1124147 3.3409805 0.013217468 0
0.83789688 3.3541191 0.021025192 0
-0.197 3.4400001 0.014 0
0.11680193 3.4297938 0.006653911 0
0.85619581 3.4381588 0.029700261 0
0.11530194 3.5437939 0.00015391083 0
0.87449479 3.5221984 0.038375322 0
0.89279377 3.6062379 0.047050387 0
0.91109276 3.6902776 0.055725452 0
0.91799998 3.7219999 0.059000004 0
0.80800003 2.4890001 0.102 0
