# .PCD v0.7 - Point Cloud Data file format
VERSION 0.7
FIELDS x y z intensity
SIZE 4 4 4 4
TYPE F F F F
COUNT 1 1 1 1
WIDTH 1389
HEIGHT 1
VIEWPOINT 0 0 0 1 0 0 0
POINTS 1389
DATA ascii
-1.5527341 -1.521858 -0.17261916 0
-1.4304283 -1.5700946 -0.17367128 0
-1.3523093 -1.5505705 -0.1768662 0
-1.2750696 -1.535578 -0.17667565 0
-1.1521158 -1.5338693 -0.17688638 0
-1.0549488 -1.5519807 -0.17771405 0
-0.995 -1.5829999 -0.177 0
1.3815 -1.556 -0.1945 0
1.4616288 -1.5578307 -0.19646068 0
1.518 -1.594 -0.198 0
2.8885238 -1.5408169 -0.19977999 0
2.9681549 -1.5812711 -0.19722497 0
-1.9335873 -1.4561505 -0.16184703 0
-1.8485236 -1.4541517 -0.16445109 0
-1.7314949 -1.4586759 -0.17086934 0
-1.6286192 -1.4402901 -0.17241602 0
-1.4456463 -1.4428177 -0.17540085 0
-1.3437996 -1.4650651 -0.17422478 0
-1.2338308 -1.4525304 -0.17738801 0
-1.1469796 -1.453766 -0.17740497 0
-1.066 -1.4563333 -0.17800002 0
1.414 -1.482 -0.19499999 0
3.4300001 -1.419 -0.19499999 0
-1.8239522 -1.3885416 -0.16526048 0
-1.7501357 -1.3615409 -0.16888927 0
-1.6648128 -1.3541286 -0.17193043 0
-1.5643349 -1.3586826 -0.17475212 0
-1.4774084 -1.336013 -0.17683113 0
-1.3603649 -1.357646 -0.17609531 0
-1.2472556 -1.3362664 -0.17669779 0
-1.1417627 -1.3676249 -0.17846163 0
3.37708 -1.3508253 -0.19616845 0
3.4059999 -1.314 -0.19400001 0
-1.6704005 -1.2614461 -0.17296746 0
-1.5385634 -1.240571 -0.17665525 0
-1.4460964 -1.2486801 -0.17619115 0
-1.3420013 -1.2651161 -0.17717992 0
-1.2437884 -1.2412152 -0.17703177 0
-1.1633333 -1.2469999 -0.17800002 0
3.1449134 -1.220706 -0.19980952 0
3.2287323 -1.2506571 -0.19794443 0
3.3452969 -1.2463769 -0.19709131 0
3.4230001 -1.227 -0.19599999 0
-1.723134 -1.149511 -0.17337239 0
-1.6383206 -1.1452137 -0.17427556 0
-1.5385373 -1.1470664 -0.17573501 0
-1.4517368 -1.1807766 -0.17741869 0
-1.3615298 -1.1480438 -0.17728217 0
-1.2561361 -1.1482543 -0.17769371 0
-1.1900001 -1.16 -0.177 0
3.3501573 -1.1111248 -0.19349885 0
-2.053 -1.013 -0.138 0
-1.806 -1.0325 -0.17749999 0
-1.7423744 -1.0514501 -0.17352851 0
-1.6500285 -1.0530454 -0.17545882 0
-1.569634 -1.057011 -0.17620572 0
-1.4357965 -1.0477079 -0.17541876 0
-1.3152989 -1.0550212 -0.17855741 0
-1.2529265 -1.0569317 -0.17819619 0
3.161236 -1.0551872 -0.19824825 0
3.2635369 -1.0420184 -0.19738919 0
3.359199 -1.0247123 -0.19427027 0
-2.2802777 -0.93273747 -0.15232322 0
-1.9483646 -0.96187437 -0.1419735 0
-1.8274179 -0.90277886 -0.14656641 0
-1.7581533 -0.9831022 -0.18261418 0
-1.651585 -0.96684051 -0.18090986 0
-1.4649175 -0.96488869 -0.17638215 0
-1.3345186 -0.97228318 -0.17636751 0
-1.267 -0.92199999 -0.177 0
3.2652423 -0.91459227 -0.19850689 0
3.345495 -0.93439484 -0.19433793 0
-2.4449999 -0.86799997 -0.161 0
-2.3414845 -0.8293221 -0.14556451 0
-2.1579168 -0.88435626 -0.15923482 0
-2.0412779 -0.83823752 -0.16582322 0
-1.9303681 -0.8581484 -0.17727174 0
-1.8314395 -0.84621525 -0.17944983 0
-1.75404 -0.83892941 -0.16396412 0
-1.6661557 -0.82398492 -0.15269029 0
-1.360567 -0.89475548 -0.17735286 0
-1.291 -0.84799999 -0.178 0
-2.841846 -0.70895916 -0.15909889 0
-2.6400557 -0.743204 -0.15837264 0
-2.5493691 -0.73294747 -0.14279526 0
-2.4503198 -0.75352854 -0.13256606 0
-2.3663919 -0.72762328 -0.14031263 0
-2.2428818 -0.77273923 -0.13995627 0
-2.1619186 -0.74501234 -0.14942689 0
-2.0516832 -0.72506714 -0.16237907 0
-1.9445879 -0.7149955 -0.17601645 0
-1.8536679 -0.75850922 -0.17705746 0
-1.7550107 -0.73235351 -0.17810823 0
-1.6560451 -0.75436449 -0.17738332 0
-1.5452089 -0.76488942 -0.1572832 0
-1.4242623 -0.70579398 -0.16187611 0
3.2554166 -0.74352968 -0.19665205 0
3.3310001 -0.759 -0.19400001 0
-2.9367509 -0.66175175 -0.16701615 0
-2.8597507 -0.64725178 -0.17601614 0
-2.7712922 -0.64476484 -0.17756951 0
-2.6547074 -0.63243222 -0.17317912 0
-2.5755847 -0.64224285 -0.16543846 0
-2.4710035 -0.66081119 -0.15591095 0
-2.3432894 -0.65854144 -0.15789339 0
-2.2499118 -0.6464923 -0.16141182 0
-2.1578169 -0.63330233 -0.16574077 0
-2.0465298 -0.63864201 -0.166912 0
-1.929 -0.65349996 -0.178 0
-1.8624436 -0.64924031 -0.17848691 0
-1.7521857 -0.64832097 -0.1787809 0
-1.652238 -0.64923573 -0.17960308 0
-1.5423682 -0.67784691 -0.17900001 0
-1.4287473 -0.62633878 -0.17900001 0
-1.3436311 -0.66639698 -0.16493806 0
-1.263 -0.62699997 -0.168 0
2.2866447 -0.60509539 -0.19420923 0
2.3723083 -0.62768042 -0.19352484 0
2.438 -0.64499998 -0.193 0
4.2330189 -0.60910511 -0.18814576 0
-3.3592844 -0.52271891 -0.11020578 0
-3.2666829 -0.54697925 -0.11388322 0
-3.1746247 -0.54995155 -0.12141773 0
-3.0487185 -0.52696371 -0.1368133 0
-2.9228125 -0.50397581 -0.15220886 0
-2.5580764 -0.58042639 -0.183 0
-2.4352689 -0.57929111 -0.17629945 0
-2.3473921 -0.55819356 -0.17733955 0
-2.2595153 -0.53709602 -0.17837967 0
-2.1385715 -0.56037557 -0.16867298 0
-2.0542822 -0.55407256 -0.17752449 0
-1.9509733 -0.56005168 -0.18020122 0
-1.8562857 -0.55041164 -0.18072934 0
-1.7515268 -0.53613949 -0.18038149 0
-1.686 -0.56849998 -0.17950001 0
-1.5563173 -0.59198093 -0.18113744 0
-1.4771587 -0.56249046 -0.18206872 0
-1.3755 -0.5625 -0.18099999 0
1.763291 -0.51205826 -0.19891788 0
1.850582 -0.53711659 -0.19983578 0
1.9439906 -0.51475513 -0.19694681 0
2.029654 -0.53734022 -0.19626242 0
2.1149437 -0.5329932 -0.19437337 0
2.2288876 -0.55195647 -0.19277741 0
2.3812673 -0.55036688 -0.19053096 0
2.411 -0.51800001 -0.191 0
3.3180001 -0.50700003 -0.19599999 0
3.4527056 -0.52203155 -0.19484372 0
3.5874114 -0.53706306 -0.19368745 0
3.6772151 -0.54708409 -0.1929166 0
3.7670188 -0.55710512 -0.19214575 0
3.8568225 -0.5671261 -0.19137491 0
3.9466262 -0.57714713 -0.19060406 0
4.0364299 -0.58716816 -0.18983321 0
4.1262336 -0.59718919 -0.18906237 0
-3.1494398 -0.44860613 -0.15704533 0
-3.0212436 -0.46733046 -0.15074781 0
-2.9371624 -0.45355365 -0.16083187 0
-2.845978 -0.46421367 -0.16669425 0
-2.7619686 -0.44966263 -0.17686814 0
-2.671 -0.458 -0.183 0
-2.2045381 -0.49921319 -0.183 0
-2.1161537 -0.47890991 -0.183 0
-2.0183845 -0.42980331 -0.18349999 0
-1.9538683 -0.46245968 -0.18093674 0
-1.8546778 -0.4253692 -0.18254673 0
-1.7495685 -0.45505697 -0.18079701 0
-1.6200532 -0.44441661 -0.17925152 0
-1.5370355 -0.42161107 -0.17883435 0
1.6833334 -0.44600001 -0.19833334 0
1.7725887 -0.44699866 -0.19767466 0
1.8581775 -0.46849728 -0.19684935 0
1.9454004 -0.44151887 -0.19529867 0
2.0312004 -0.46102518 -0.19439822 0
2.1204977 -0.42871767 -0.19379196 0
2.2497969 -0.455033 -0.19252956 0
2.3805029 -0.45189381 -0.19121134 0
2.402 -0.456 -0.191 0
-3.119 -0.333 -0.175 0
-3.0564687 -0.36114627 -0.1778354 0
-2.9594698 -0.33791292 -0.17878854 0
-2.8612432 -0.33758134 -0.18083191 0
-2.7901993 -0.36179018 -0.18316059 0
-2.6841984 -0.34721828 -0.18509492 0
-2.5515988 -0.32898986 -0.18751462 0
-2.4189992 -0.31076142 -0.18993433 0
-2.0354304 -0.33171019 -0.18957022 0
-1.9718891 -0.37863508 -0.1888314 0
-1.893 -0.38 -0.18799999 0
-1.7539999 -0.38600001 -0.185 0
-1.4540178 -0.39880553 -0.17841718 0
-1.3710001 -0.37599999 -0.178 0
1.6895001 -0.34099999 -0.198 0
1.7756996 -0.35854352 -0.1971584 0
1.8627075 -0.35315499 -0.19656567 0
1.9499626 -0.34569824 -0.19577469 0
2.0364501 -0.36126429 -0.19486625 0
2.124311 -0.35122713 -0.19415854 0
2.2532084 -0.34558821 -0.1925604 0
2.3871968 -0.35709801 -0.19112648 0
2.4070001 -0.39899999 -0.191 0
-3.088604 -0.25772297 -0.17409977 0
-2.953156 -0.24108443 -0.17539966 0
-2.828104 -0.22572295 -0.17659977 0
-2.755868 -0.25424099 -0.17919992 0
-2.6613681 -0.20524098 -0.17819993 0
-2.5609629 -0.25397196 -0.18106543 0
-2.4156494 -0.2410446 -0.18561395 0
-2.3303595 -0.26602241 -0.18991929 0
-2.2433946 -0.25614181 -0.19206448 0
-2.1564298 -0.24626121 -0.19420967 0
-2.0694649 -0.23638061 -0.19635482 0
-1.9823333 -0.25100002 -0.19833334 0
1.6895 -0.25650001 -0.19850001 0
1.7761382 -0.24842751 -0.19743592 0
1.8622524 -0.23813707 -0.19627601 0
1.9491285 -0.24995561 -0.19541401 0
2.0360045 -0.26177412 -0.19455202 0
2.1228809 -0.27359265 -0.19369003 0
2.2542779 -0.26465976 -0.19237934 0
2.3888633 -0.28148293 -0.19104113 0
-3.1355889 -0.15311566 -0.17752337 0
-3.0487421 -0.14748505 -0.17793739 0
-2.9683065 -0.1422388 -0.17832804 0
-2.86461 -0.14636171 -0.17894904 0
-2.7379999 -0.15899999 -0.18000001 0
-2.6652842 -0.15420204 -0.1809596 0
-2.5517685 -0.16539584 -0.17999059 0
-2.4357514 -0.14765462 -0.18408959 0
-2.3316777 -0.14405784 -0.18703699 0
-2.2460883 -0.13881479 -0.18970679 0
-2.1604989 -0.13357173 -0.1923766 0
-2.0749092 -0.12832867 -0.19504641 0
1.6855 -0.153 -0.198 0
1.7692198 -0.11899757 -0.1971253 0
1.8564395 -0.12599514 -0.1962506 0
1.9436592 -0.13299271 -0.1953759 0
2.030879 -0.13999029 -0.19450122 0
2.1180987 -0.14698786 -0.19362652 0
2.2489283 -0.1574842 -0.19231448 0
2.379879 -0.16799027 -0.19100121 0
-3.1210001 -0.045000002 -0.177 0
-3.0648773 -0.042153198 -0.17923677 0
-2.9549387 -0.036576599 -0.18361838 0
-2.845 -0.030999999 -0.18799999 0
-2.7625549 -0.074044101 -0.18202637 0
-2.6862712 -0.028147364 -0.18861127 0
-2.5374601 -0.048141658 -0.18396901 0
-2.4196072 -0.045622192 -0.18649654 0
-2.3331246 -0.043738503 -0.18853137 0
-2.2466421 -0.041854821 -0.19056618 0
-2.1601598 -0.039971132 -0.192601 0
-2.0736773 -0.038087446 -0.19463581 0
1.6720001 -0.030999999 -0.197 0
1.7592889 -0.034162641 -0.19624096 0
1.8465778 -0.037325282 -0.19548193 0
1.9338666 -0.040487923 -0.19472289 0
2.0211556 -0.04365056 -0.19396387 0
2.1520889 -0.048394524 -0.19282532 0
2.2830222 -0.053138483 -0.19168676 0
2.362 -0.056000002 -0.191 0
2.855 -0.026000001 -0.2 0
2.9451029 -0.025309935 -0.1974369 0
3.0352056 -0.02461987 -0.19487379 0
3.1253085 -0.023929805 -0.19231071 0
3.2154114 -0.023239739 -0.1897476 0
3.3505654 -0.022204639 -0.18590295 0
3.4857199 -0.021169541 -0.18205829 0
3.5758228 -0.020479476 -0.1794952 0
3.6659255 -0.019789411 -0.1769321 0
3.7625141 -0.019049672 -0.1741845 0
-3.1357553 0.02719648 -0.18000001 0
-3.0402083 0.028514367 -0.18000001 0
-2.9589064 0.029635776 -0.18000001 0
-2.8776042 0.030757183 -0.18000001 0
-2.755651 0.032439295 -0.18000001 0
-2.5209999 0.046999998 -0.178 0
-2.44596 0.044396572 -0.17968456 0
-2.3649397 0.069766782 -0.18154798 0
-2.2557051 0.073469438 -0.18428205 0
-2.1437347 0.050797343 -0.18676592 0
-2.0345001 0.054500002 -0.1895 0
1.647 0.088 -0.19599999 0
1.7285285 0.049354222 -0.19661307 0
1.8420516 0.035381023 -0.19586258 0
1.9618134 0.066561759 -0.19390617 0
2.0683877 0.0036349101 -0.19418055 0
2.1547346 0.002543638 -0.19322568 0
2.2410815 0.0014523654 -0.19227082 0
2.3417141 0.00018054643 -0.19115797 0
-2.7610726 0.16480938 -0.18612212 0
-2.6500025 0.1590414 -0.18671371 0
-2.5334296 0.13023204 -0.18259159 0
-2.4614277 0.12632854 -0.18354401 0
-2.3855729 0.14530937 -0.18812212 0
-2.2570179 0.15894024 -0.18682647 0
-2.1354935 0.16850376 -0.18745244 0
-2.027 0.1505 -0.19 0
1.638 0.167 -0.19599999 0
1.7244949 0.17336772 -0.19507137 0
1.8542371 0.18291929 -0.19367844 0
1.9839795 0.19247088 -0.19228549 0
2.0763798 0.15019041 -0.19174382 0
2.1693425 0.10425065 -0.19135696 0
2.2563996 0.1069591 -0.19058311 0
2.322 0.109 -0.19 0
2.8255 0.1415 -0.19850001 0
2.9155936 0.14660832 -0.19645543 0
3.0342343 0.14110668 -0.19345947 0
3.1573284 0.17254329 -0.19127315 0
3.2715473 0.12847787 -0.18726106 0
3.3616567 0.13277344 -0.18511328 0
3.451766 0.13706902 -0.18296549 0
3.5418756 0.14136459 -0.18081769 0
3.6319849 0.14566016 -0.17866991 0
3.733047 0.15047787 -0.17626107 0
-2.741075 0.29391876 -0.18711251 0
-2.6323814 0.28310782 -0.18769687 0
-2.5446126 0.27437815 -0.18816875 0
-2.4484692 0.23462392 -0.18122841 0
-2.3572628 0.23274872 -0.1847741 0
-2.2813063 0.24818908 -0.18958437 0
-2.1539714 0.25432798 -0.18822694 0
-2.0351012 0.25679913 -0.18934941 0
2.1569693 0.20520633 -0.19042824 0
2.266732 0.21328703 -0.18924981 0
3.2803903 0.20560539 -0.18929331 0
3.3704681 0.21152648 -0.18735197 0
3.4605463 0.21744755 -0.18541065 0
3.5506244 0.22336864 -0.18346931 0
3.6407025 0.22928971 -0.18152797 0
3.7443902 0.2361054 -0.17929332 0
-2.4037604 0.33049354 -0.17512059 0
-2.3515358 0.3656112 -0.17745373 0
-2.233444 0.33107197 -0.18150935 0
-2.1529107 0.36726093 -0.18424731 0
-2.0703862 0.36498412 -0.18323028 0
-1.9560654 0.36189908 -0.18234295 0
-1.8503933 0.35725364 -0.18092705 0
-1.732 0.331 -0.184 0
2.7820001 0.31099999 -0.198 0
2.8719182 0.32021251 -0.1963686 0
2.9618363 0.32942507 -0.19473723 0
3.0517547 0.33863759 -0.19310583 0
3.1416728 0.34785014 -0.19147445 0
3.231591 0.35706267 -0.18984306 0
3.3215091 0.36627519 -0.18821168 0
3.4114273 0.37548774 -0.18658029 0
3.5463047 0.38930655 -0.1841332 0
-2.7249999 0.49000001 -0.18799999 0
-2.644485 0.47601432 -0.18741725 0
-2.5123994 0.45307061 -0.18646127 0
-2.4243424 0.43777481 -0.18582395 0
-2.336153 0.4556354 -0.17633668 0
-2.2453859 0.43290833 -0.1783645 0
-2.1618223 0.45237306 -0.17786954 0
-2.0488284 0.46054703 -0.17638178 0
-1.9348803 0.45242879 -0.17767529 0
-1.8380353 0.45388982 -0.17375088 0
-1.7399436 0.45282945 -0.17119895 0
-1.6595 0.4355 -0.171 0
2.7880001 0.447 -0.199 0
2.8773727 0.45980909 -0.19764146 0
2.9667454 0.47261822 -0.19628292 0
3.056118 0.48542732 -0.19492437 0
3.1454906 0.49823645 -0.19356583 0
3.6811819 0.40312535 -0.18168613 0
3.7190001 0.40700001 -0.18099999 0
-2.6029468 0.5971505 -0.1860383 0
-2.5151749 0.57746714 -0.18503404 0
-2.427403 0.55778372 -0.18402979 0
-2.3203156 0.54005015 -0.17801276 0
-2.2546167 0.5566929 -0.17526034 0
-2.1558177 0.53518212 -0.17311987 0
-2.0715346 0.56384754 -0.17353325 0
-1.9629947 0.54108977 -0.17171401 0
-1.8281122 0.51815259 -0.16851826 0
-1.7363837 0.58262205 -0.15717778 0
-1.6611918 0.55581105 -0.15858889 0
-1.549 0.5575 -0.1575 0
-1.451 0.59500003 -0.163 0
3.2348633 0.51104558 -0.19220729 0
3.3242359 0.52385467 -0.19084875 0
3.4136086 0.53666377 -0.18949021 0
3.5476677 0.55587745 -0.18745239 0
3.6817267 0.57509112 -0.18541458 0
3.7090001 0.579 -0.185 0
-2.687 0.616 -0.18700001 0
-2.411 0.69 -0.184 0
-2.3384488 0.66861039 -0.18207301 0
-2.2533927 0.64353406 -0.17981389 0
-2.1683366 0.61845779 -0.17755476 0
-1.959 0.662 -0.153 0
-1.8491714 0.62283862 -0.15506113 0
-1.7389785 0.6783303 -0.15390083 0
-1.6477294 0.66906971 -0.1569473 0
-1.5537835 0.65166992 -0.15881389 0
-1.4412235 0.66100347 -0.16014045 0
-1.388 0.69099998 -0.15899999 0
1.467 0.69 -0.192 0
-2.9560883 0.79448766 -0.17995189 0
-2.869 0.76999998 -0.18099999 0
-1.925 0.75400001 -0.153 0
-1.8564513 0.7516616 -0.15306929 0
-1.7505817 0.7493434 -0.15573457 0
-1.6494558 0.75150156 -0.15638554 0
-1.5404161 0.76571697 -0.15692891 0
-1.4461749 0.75244033 -0.15559959 0
-1.3629999 0.75599998 -0.161 0
1.443 0.76599997 -0.193 0
1.5460745 0.72906518 -0.192 0
1.625149 0.7681303 -0.192 0
-3.3044419 0.89243823 -0.17575945 0
-3.2173536 0.86795062 -0.17680755 0
-3.1302652 0.84346294 -0.17785567 0
-3.0332184 0.85402715 -0.17926797 0
-2.9371302 0.86253953 -0.18081608 0
-2.8510001 0.83600003 -0.182 0
-2.0120001 0.88499999 -0.15099999 0
-1.9452856 0.85543859 -0.15226527 0
-1.8279176 0.83647639 -0.15275587 0
-1.7516241 0.84465981 -0.15262993 0
-1.6575069 0.85795325 -0.15294628 0
-1.5467879 0.85562181 -0.15676156 0
-1.4266859 0.84236568 -0.15989619 0
-1.346 0.84100002 -0.16 0
-1.118 0.89499998 -0.18099999 0
1.393 0.87400001 -0.192 0
1.4420009 0.85737681 -0.19184777 0
1.5545034 0.82851291 -0.19255665 0
1.666007 0.89102578 -0.1921133 0
1.7437606 0.82672799 -0.192 0
1.8623724 0.88532579 -0.192 0
-3.6527958 0.99038887 -0.17156701 0
-3.5657072 0.96590126 -0.17261513 0
-3.4786189 0.94141358 -0.17366323 0
-3.3796556 0.95608151 -0.17480391 0
-3.2816505 0.96869761 -0.17608041 0
-3.1524553 0.92888832 -0.17785628 0
-2.8275356 0.97428596 -0.17898028 0
-2.743 0.94400001 -0.18000001 0
-1.9375887 0.96431959 -0.14916837 0
-1.8383617 0.94119477 -0.15091604 0
-1.7500607 0.95442981 -0.15114288 0
-1.6555023 0.95281631 -0.1598056 0
-1.5667925 0.95097744 -0.15998685 0
-1.4540818 0.96064258 -0.15945283 0
-1.364 0.94700003 -0.16599999 0
-1.1874486 0.95227516 -0.1804013 0
-1.091 0.96399999 -0.182 0
1.369 0.92949998 -0.1925 0
1.4472157 0.95887893 -0.19192342 0
1.5449557 0.94653738 -0.1914427 0
1.6220053 0.96926123 -0.19108666 0
1.7403427 0.93270111 -0.19181773 0
1.8146784 0.97437632 -0.19152215 0
1.9414469 0.92439091 -0.192 0
2.0205214 0.96345603 -0.192 0
-3.7614422 1.0209383 -0.17025945 0
-3.6261709 1.0748557 -0.17134473 0
-3.5400407 1.0483161 -0.17252865 0
-3.4539108 1.0217767 -0.17371257 0
-3.1656775 1.0954297 -0.17490137 0
-3.0811419 1.0651438 -0.1759211 0
-2.9543388 1.0197148 -0.17745069 0
-2.5439999 1.0779999 -0.175 0
-1.91225 1.0081577 -0.1492337 0
-1.8173273 1.0677764 -0.1682328 0
-1.720803 1.0471568 -0.159097 0
-1.6511319 1.03985 -0.15228599 0
-1.5516489 1.0817223 -0.15500227 0
-1.4599326 1.0618954 -0.16666989 0
-1.360782 1.0562752 -0.17406797 0
-1.2407035 1.0471246 -0.18040089 0
-1.141268 1.0598114 -0.18194512 0
-1.061 1.0319999 -0.183 0
1.284 1.092 -0.193 0
1.3413297 1.0513872 -0.19271193 0
1.4976599 1.0463715 -0.19167972 0
1.5547686 1.0511314 -0.1911453 0
1.6647285 1.0310003 -0.19100408 0
1.7660089 1.0587687 -0.19047776 0
1.8890141 1.0160517 -0.19122659 0
1.946 1.048 -0.191 0
2.0995958 1.0025213 -0.192 0
2.1370001 1.021 -0.192 0
2.743 1.0930001 -0.19 0
-3.7181504 1.1031976 -0.17008041 0
-3.4192839 1.1862875 -0.17184217 0
-3.3347483 1.1560016 -0.1728619 0
-3.2502129 1.1257156 -0.17388164 0
-2.7499986 1.1681871 -0.17399512 0
-2.6263993 1.1140748 -0.17459805 0
-2.46 1.179 -0.175 0
-1.9727697 1.1607019 -0.17031041 0
-1.8950484 1.1142392 -0.1692716 0
-1.6255991 1.1348147 -0.15066817 0
-1.5358216 1.171371 -0.17405058 0
-1.4645301 1.1519963 -0.17395169 0
-1.3913972 1.1435504 -0.18130261 0
-1.2912643 1.1450486 -0.18049876 0
-1.1885622 1.1585464 -0.18178125 0
-1.0584103 1.1350169 -0.18464223 0
-0.99599999 1.175 -0.186 0
1.2396666 1.1613332 -0.19233334 0
1.3486239 1.1476099 -0.19216998 0
1.435012 1.1637377 -0.19136561 0
1.5209677 1.1754851 -0.19040734 0
1.6433862 1.1222062 -0.19054624 0
1.7441037 1.161797 -0.19023773 0
1.8502449 1.1300749 -0.19021873 0
2.8528008 1.1427488 -0.18793939 0
2.9626014 1.1924977 -0.18587878 0
-3.5379097 1.2287867 -0.17041123 0
-3.0383968 1.2944493 -0.1725883 0
-2.9559972 1.2583745 -0.17299026 0
-2.8735979 1.2222996 -0.17339221 0
-2.6598749 1.2778571 -0.17364949 0
-2.5399499 1.2185428 -0.1744598 0
-2.1511059 1.2673137 -0.172694 0
-2.0504909 1.2071646 -0.1713492 0
-1.6381578 1.2760988 -0.17536102 0
-1.5519156 1.2481257 -0.17741264 0
-1.4471803 1.2379827 -0.18146156 0
-1.3460478 1.2508303 -0.18252029 0
-1.2523432 1.2218198 -0.18117188 0
-1.149641 1.2340674 -0.18356892 0
-1.0547255 1.2430934 -0.18479124 0
-0.93550003 1.248 -0.1855 0
1.1666666 1.2623333 -0.19133334 0
1.2741156 1.252546 -0.191055 0
1.3712926 1.2548484 -0.19067985 0
1.4590971 1.2733238 -0.19030878 0
1.5558691 1.2415376 -0.19022393 0
1.6509463 1.2778087 -0.18867891 0
1.7709899 1.2425572 -0.18901956 0
1.814 1.211 -0.19 0
1.9405891 1.2264929 -0.190115 0
2.6719999 1.216 -0.189 0
2.7421553 1.2508612 -0.18791735 0
2.8123109 1.2857224 -0.18683471 0
3.0358019 1.2256637 -0.18450506 0
3.1125011 1.2604147 -0.18306565 0
-3.2031958 1.3665991 -0.17178442 0
-3.1207962 1.3305242 -0.17218636 0
-2.8597498 1.376714 -0.17229898 0
-2.7797997 1.3371712 -0.17283919 0
-2.4528301 1.3961124 -0.17230742 0
-2.376415 1.3515562 -0.1726537 0
-2.3 1.307 -0.17299999 0
-1.904 1.398 -0.177 0
-1.759104 1.3468795 -0.17581333 0
-1.6482439 1.3710636 -0.17894165 0
-1.5661598 1.3450842 -0.18025446 0
-1.4545972 1.3509524 -0.1832353 0
-1.3511811 1.3416733 -0.18539062 0
-1.2408719 1.333118 -0.18249562 0
-1.1428139 1.3452334 -0.18297809 0
-1.0284792 1.3387549 -0.18490106 0
-0.93844056 1.3514279 -0.18536332 0
-0.84699994 1.3533334 -0.185 0
1.0745001 1.3789999 -0.19049999 0
1.158216 1.3577662 -0.19054347 0
1.246576 1.3478837 -0.1898531 0
1.3432755 1.3411726 -0.18976669 0
1.445073 1.3548712 -0.18878901 0
1.5454559 1.3385054 -0.18912208 0
1.637018 1.361702 -0.18876022 0
1.7049215 1.3513424 -0.18841228 0
2.431 1.318 -0.189 0
2.5386002 1.3792614 -0.1882146 0
2.8824663 1.3205836 -0.18575206 0
2.9743109 1.3662224 -0.18433471 0
-3.3640001 1.437 -0.171 0
-3.2855954 1.4026741 -0.17138247 0
-3.0596247 1.475571 -0.17094848 0
-2.9396996 1.4162568 -0.17175879 0
-2.60566 1.4852248 -0.17161483 0
-2.5292451 1.4406686 -0.17196111 0
-1.9412909 1.4668101 -0.17674612 0
-1.8316416 1.4444305 -0.17561905 0
-1.7359242 1.4451319 -0.17778434 0
-1.6384789 1.4557315 -0.17840201 0
-1.5373966 1.4584968 -0.1812876 0
-1.4528567 1.4379629 -0.1832761 0
-1.3614795 1.4597384 -0.18426611 0
-1.254451 1.4401867 -0.18458247 0
-1.1099584 1.4455099 -0.18380211 0
-1.032086 1.4381433 -0.18452446 0
-0.95027864 1.4839119 -0.18483758 0
-0.86378074 1.4574817 -0.18419862 0
-0.76733333 1.4476666 -0.18533333 0
0.96799999 1.483 -0.18799999 0
1.0558672 1.4579577 -0.18989886 0
1.1460478 1.4566894 -0.18993564 0
1.2331483 1.4332985 -0.18963039 0
1.344584 1.4537344 -0.18860272 0
1.433794 1.4433498 -0.18816483 0
1.53777 1.4557709 -0.18742494 0
1.602 1.433 -0.18799999 0
1.7808249 1.4439828 -0.18806431 0
2.6462002 1.4405228 -0.18742919 0
2.7179337 1.4813638 -0.18690559 0
-3.1897748 1.5399425 -0.1700691 0
-2.7584901 1.5743372 -0.17092225 0
-2.682075 1.529781 -0.17126854 0
-2.1197841 1.5585979 -0.17482977 0
-2.0464649 1.5502197 -0.1775201 0
-1.9691749 1.5570897 -0.17427266 0
-1.8659621 1.5540243 -0.17670089 0
-1.7753623 1.5339258 -0.1770837 0
-1.6601226 1.5457162 -0.17936391 0
-1.5631871 1.566339 -0.17964193 0
-1.4643152 1.5505335 -0.18230785 0
-1.3669329 1.5706728 -0.18161123 0
-1.2610643 1.5469031 -0.18336174 0
-1.1356583 1.552038 -0.18330406 0
-1.0356028 1.5287206 -0.18367997 0
-0.9435991 1.5475578 -0.18294761 0
-0.84037131 1.5564661 -0.18445307 0
-0.73091078 1.5532227 -0.18348143 0
-0.63833332 1.5443333 -0.18166666 0
-0.57300001 1.596 -0.18099999 0
0.87800002 1.581 -0.18799999 0
0.95166141 1.5613017 -0.19003074 0
1.0125104 1.548627 -0.18799999 0
1.1432787 1.5373861 -0.18939407 0
1.2396182 1.548205 -0.18907994 0
1.3387966 1.5545969 -0.18826076 0
1.452511 1.5551046 -0.18708976 0
2.7896671 1.5222046 -0.186382 0
2.842 1.552 -0.186 0
-2.9366601 1.6782248 -0.17011485 0
-2.8349051 1.6188934 -0.17057596 0
-2.2636402 1.6656632 -0.17338294 0
-2.156014 1.6392362 -0.17535156 0
-2.0343075 1.6776092 -0.17697854 0
-1.9448293 1.6460139 -0.17590372 0
-1.8399261 1.6622988 -0.17546684 0
-1.7317296 1.634544 -0.17911942 0
-1.6581478 1.6360165 -0.17904539 0
-1.5430956 1.656932 -0.17917758 0
-1.4352576 1.6546679 -0.18094836 0
-1.3372617 1.6220162 -0.1831637 0
-1.2370881 1.6761479 -0.18310331 0
-1.1506716 1.6537015 -0.18258698 0
-1.0397196 1.6376173 -0.18277875 0
-0.93635529 1.6208159 -0.18188736 0
-0.84414262 1.6539284 -0.18375687 0
-0.7550621 1.6551445 -0.18204987 0
-0.66645223 1.6477886 -0.18010177 0
-0.55236411 1.6588594 -0.18011276 0
-0.46799999 1.67 -0.17900001 0
0.75549996 1.677 -0.1855 0
0.81300002 1.6440001 -0.18700001 0
0.95401984 1.6502981 -0.18814091 0
1.0459946 1.6385324 -0.18859223 0
1.1383673 1.648814 -0.18869659 0
1.2569712 1.6465582 -0.18873014 0
1.360756 1.6565289 -0.1880141 0
1.414 1.603 -0.18700001 0
-2.407496 1.7727284 -0.17193611 0
-2.335568 1.7191958 -0.17265952 0
-2.2688956 1.7525429 -0.17253326 0
-2.1607952 1.7514958 -0.17341886 0
-2.0516584 1.7440296 -0.17272247 0
-1.9282856 1.7549407 -0.17393497 0
-1.8380876 1.748301 -0.17651752 0
-1.7555209 1.7401444 -0.17886317 0
-1.6547154 1.7521907 -0.17643502 0
-1.5564666 1.7660207 -0.17781071 0
-1.4477266 1.7371492 -0.17876029 0
-1.3507638 1.7168927 -0.18070924 0
-1.257642 1.7477987 -0.17896685 0
-1.1331134 1.7705311 -0.18238837 0
-1.0571159 1.7311842 -0.18103033 0
-0.94538307 1.7628313 -0.18174104 0
-0.85065132 1.7465091 -0.18129063 0
-0.76142865 1.7526079 -0.17921638 0
-0.66117764 1.7528986 -0.17892666 0
-0.5563587 1.7594376 -0.17806965 0
-0.45931196 1.7440511 -0.17848487 0
-0.35866666 1.7516667 -0.17800002 0
0.58499998 1.786 -0.182 0
0.66100001 1.7373333 -0.18333334 0
0.73733461 1.7710665 -0.18503101 0
0.84753197 1.7442392 -0.18575726 0
0.97635937 1.7468386 -0.18742815 0
1.0553342 1.7391374 -0.18796408 0
1.1324892 1.7690647 -0.18768448 0
1.2543334 1.752 -0.189 0
1.3409338 1.7347205 -0.18486072 0
1.4662845 1.7469468 -0.1821757 0
2.257 1.77 -0.18799999 0
-2.551352 1.8797938 -0.17048928 0
-2.4449759 1.8444924 -0.17146185 0
-2.3397114 1.8076333 -0.17212214 0
-2.2648339 1.8362446 -0.17294453 0
-2.1527805 1.8302908 -0.17186841 0
-2.0439045 1.848215 -0.17286997 0
-1.9372051 1.8644142 -0.17854892 0
-1.8596611 1.863758 -0.17513244 0
-1.7553352 1.854125 -0.17500885 0
-1.6629009 1.8316358 -0.17540285 0
-1.55975 1.8552499 -0.17550001 0
-1.4681202 1.8538408 -0.17799485 0
-1.3621969 1.849946 -0.17751828 0
-1.2492687 1.8394871 -0.17711805 0
-1.1445866 1.8989384 -0.17658827 0
-1.0638227 1.8391163 -0.17882355 0
-0.94881487 1.8544692 -0.17910846 0
-0.8335436 1.8535234 -0.17810476 0
-0.75454974 1.8639942 -0.17806102 0
-0.65443236 1.843431 -0.17615192 0
-0.54274845 1.8496788 -0.17663696 0
-0.43986085 1.847303 -0.17741621 0
-0.36895955 1.8491912 -0.17623502 0
-0.2557072 1.851486 -0.1771163 0
-0.13699999 1.8900001 -0.17550001 0
0.4445 1.8735 -0.17950001 0
0.50599998 1.8329999 -0.18000001 0
0.65755165 1.8518349 -0.18207735 0
0.75039673 1.8799397 -0.18218742 0
0.82660884 1.8458811 -0.18357448 0
0.91994977 1.8421937 -0.1862521 0
1.0569994 1.8552505 -0.18689816 0
1.1640036 1.8261755 -0.18548468 0
1.2530301 1.8594563 -0.18061967 0
1.3460233 1.8500073 -0.17594239 0
1.42549 1.8372545 -0.17962861 0
1.5310259 1.8699231 -0.17062515 0
2.187 1.896 -0.18700001 0
2.2709999 1.886 -0.184 0
2.3641291 1.8543094 -0.18636027 0
-2.5664999 1.937 -0.17050001 0
-2.4597874 1.9476534 -0.17172693 0
-2.3450947 1.9475263 -0.17145759 0
-2.2361894 1.9464321 -0.17107153 0
-2.152694 1.9178392 -0.17196748 0
-2.0482018 1.9639877 -0.17150842 0
-1.9490743 1.9411868 -0.17535776 0
-1.8326725 1.9621732 -0.17219728 0
-1.733948 1.9506623 -0.1663678 0
-1.6647985 1.9505777 -0.16701853 0
-1.5584342 1.9694406 -0.1721178 0
-1.448 1.9234998 -0.177 0
-1.3382218 1.959404 -0.17447993 0
-1.2690001 1.995 -0.175 0
-1.1915275 1.9736438 -0.17552945 0
-1.024714 1.9799716 -0.17422318 0
-0.94433343 1.9353056 -0.17549402 0
-0.87335193 1.95508 -0.17031537 0
-0.72187328 1.9426583 -0.17477207 0
-0.56195074 1.9435819 -0.17535625 0
-0.45056853 1.9393078 -0.17589827 0
-0.3248665 1.9510602 -0.17402507 0
-0.24882242 1.9434657 -0.17252764 0
-0.15087727 1.9451531 -0.16996183 0
-0.057599999 1.948 -0.1688 0
0.048333336 1.9580001 -0.16616668 0
0.131 1.965 -0.16766667 0
0.25133333 1.9639999 -0.17533334 0
0.35769808 1.938728 -0.17816831 0
0.46375158 1.9430928 -0.17922264 0
0.53745902 1.9549936 -0.17951971 0
0.65197599 1.9724545 -0.18081516 0
0.74859321 1.9643786 -0.18156338 0
0.8433876 1.9379141 -0.18281181 0
0.94729662 1.9384347 -0.18297927 0
1.067637 1.9551432 -0.1758537 0
1.1558728 1.9590499 -0.17571515 0
1.2516919 1.9576252 -0.17127424 0
1.3517148 1.9536623 -0.16622102 0
1.4510962 1.931419 -0.17333572 0
1.5343267 1.9782089 -0.16838558 0
1.6368535 1.9588406 -0.17052709 0
2.1589999 1.964 -0.18700001 0
2.2540941 1.9536573 -0.18481341 0
2.3392818 1.9428295 -0.17600498 0
2.4394107 1.9691389 -0.17636526 0
2.5426774 1.9948251 -0.18362738 0
-2.5401144 2.0571356 -0.16116668 0
-2.4719999 2.0050001 -0.17200001 0
-2.3293333 2.043 -0.17 0
-2.2435343 2.0615194 -0.17020243 0
-2.1314723 2.0442283 -0.16876309 0
-2.0448222 2.0470159 -0.17276487 0
-1.9370111 2.0431173 -0.1713801 0
-1.8245169 2.0488596 -0.15938848 0
-1.7285632 2.0720348 -0.16022187 0
-1.6513529 2.0272765 -0.16560444 0
-1.5540066 2.0575194 -0.1662426 0
-1.4813144 2.0027766 -0.16980922 0
-1.3398393 2.0504508 -0.16955206 0
-1.215 2.0109999 -0.175 0
-1.163 2.0320001 -0.175 0
-1.0683591 2.0334189 -0.17253043 0
-0.95221502 2.0415535 -0.16538464 0
-0.85010135 2.0297117 -0.16368201 0
-0.74760741 2.0327404 -0.16974357 0
-0.63081855 2.0397022 -0.16923468 0
-0.55104285 2.0579567 -0.17526448 0
-0.43589121 2.0532532 -0.17240423 0
-0.33896604 2.0328777 -0.16925718 0
-0.23904926 2.0527108 -0.1638393 0
-0.13716047 2.029952 -0.16110009 0
-0.059217006 2.0477719 -0.15631461 0
0.049826086 2.0394013 -0.15732032 0
0.13798934 2.0455523 -0.15800719 0
0.25316224 2.0568206 -0.16883619 0
0.35139331 2.0475996 -0.16901508 0
0.45099297 2.0434394 -0.17884856 0
0.54656118 2.0579555 -0.17728223 0
0.65581775 2.0494576 -0.17478432 0
0.77077991 2.0547569 -0.17327137 0
0.85267287 2.028352 -0.17474885 0
0.95087874 2.062083 -0.17212114 0
1.0551815 2.050591 -0.16597974 0
1.1696481 2.0430851 -0.16986953 0
1.2452403 2.06551 -0.16858272 0
1.344609 2.0598674 -0.16472828 0
1.4513029 2.0463398 -0.15336667 0
1.5720483 2.0589023 -0.169397 0
1.650052 2.0635796 -0.145648 0
1.7221378 2.0647874 -0.16470279 0
2.0840001 2.0840001 -0.185 0
2.1530421 2.0561247 -0.1794259 0
2.2557864 2.0505457 -0.18238156 0
2.3547354 2.040143 -0.1815335 0
2.4758453 2.0564885 -0.16001494 0
2.6140966 2.0510316 -0.18253423 0
-2.6422863 2.1353385 -0.1449167 0
-2.4329655 2.1632419 -0.14246479 0
-2.3699827 2.1091211 -0.1562324 0
-2.2486017 2.1743412 -0.15164101 0
-2.1470203 2.1423182 -0.1681782 0
-2.0581281 2.1691122 -0.16896093 0
-1.9708475 2.140892 -0.1624711 0
-1.8525624 2.1379302 -0.15361561 0
-1.7617056 2.1605527 -0.15520889 0
-1.6574225 2.1438503 -0.15951678 0
-1.5839435 2.13833 -0.15942769 0
-1.4366543 2.1403022 -0.16203457 0
-1.3606337 2.1329615 -0.16478062 0
-1.2265327 2.1353123 -0.17013487 0
-1.1410568 2.1441455 -0.16570497 0
-1.0253984 2.1481364 -0.15876219 0
-0.93585491 2.1464906 -0.14288701 0
-0.83906555 2.1493096 -0.15195267 0
-0.73490685 2.1672754 -0.14786577 0
-0.66885352 2.1427803 -0.15175951 0
-0.54299998 2.131 -0.176 0
-0.46786967 2.1393123 -0.16853994 0
-0.34170404 2.1484931 -0.15733786 0
-0.26013124 2.1447482 -0.15564018 0
-0.13794215 2.1578321 -0.14795242 0
-0.063030533 2.1537147 -0.14568405 0
0.0493013 2.1387911 -0.14470083 0
0.14050862 2.1431808 -0.14505845 0
0.26104015 2.1456337 -0.16265401 0
0.35342151 2.1531138 -0.15301791 0
0.45430017 2.1308908 -0.17022865 0
0.54994327 2.1674008 -0.16582775 0
0.65595514 2.1507907 -0.16369464 0
0.73315054 2.1594429 -0.1651762 0
0.84372741 2.137593 -0.16439897 0
0.94930333 2.1678777 -0.15930618 0
1.0420816 2.1453133 -0.16082606 0
1.1432981 2.1519234 -0.1481498 0
1.2557534 2.1562889 -0.16002996 0
1.3430806 2.1514482 -0.14390486 0
1.4420999 2.1588547 -0.16039892 0
1.5540853 2.138027 -0.1411221 0
1.6453747 2.1484449 -0.16536421 0
1.7563937 2.1524873 -0.14745869 0
2.1426699 2.1406593 -0.17988239 0
2.222254 2.170409 -0.16723418 0
2.3525732 2.1370914 -0.1777631 0
2.4362371 2.1607089 -0.17646886 0
2.533299 2.148802 -0.16404346 0
2.6489625 2.1386924 -0.16273299 0
2.7569354 2.163444 -0.18034792 0
-2.8125725 2.265677 -0.11783339 0
-2.744458 2.2135415 -0.12866671 0
-2.5589314 2.2714839 -0.11492959 0
-2.4959483 2.2173629 -0.12869719 0
-2.3438821 2.2659435 -0.1425333 0
-2.2318504 2.2852845 -0.14248314 0
-2.1419239 2.2364533 -0.15762621 0
-2.0338273 2.2286272 -0.15971492 0
-1.9221941 2.249311 -0.14607415 0
-1.8444703 2.26051 -0.14741221 0
-1.7394609 2.2432148 -0.15116683 0
-1.6609151 2.239995 -0.15164152 0
-1.5084469 2.2436838 -0.1548553 0
-1.429359 2.2364328 -0.15711609 0
-1.2557608 2.2396541 -0.16276002 0
-1.1776935 2.2666423 -0.15797833 0
-1.0640743 2.2447405 -0.14673303 0
-0.94403911 2.2571268 -0.1304729 0
-0.85869086 2.2685421 -0.13227493 0
-0.76193953 2.2658854 -0.13111946 0
-0.67682278 2.2424245 -0.13481611 0
-0.44645232 2.2540102 -0.13489816 0
-0.36002335 2.2480302 -0.13811687 0
-0.22753337 2.2473412 -0.14265287 0
-0.14419651 2.2626848 -0.13666947 0
-0.040996093 2.2511728 -0.13516022 0
0.058170125 2.2596145 -0.13060395 0
0.14484394 2.2535262 -0.13595821 0
0.26524046 2.2562726 -0.14270465 0
0.33745986 2.2596192 -0.1431115 0
0.44602761 2.2460158 -0.15810758 0
0.55632585 2.266156 -0.15231597 0
0.64543515 2.2431586 -0.15521131 0
0.76308078 2.2533979 -0.15151966 0
0.85730875 2.2489491 -0.15619673 0
0.94843602 2.2637384 -0.15226066 0
1.0603577 2.2258339 -0.15911348 0
1.1420375 2.2686718 -0.16472262 0
1.2321851 2.2537155 -0.13326842 0
1.33938 2.2581544 -0.15814507 0
1.4505345 2.2456682 -0.15179285 0
1.5418068 2.2590497 -0.14400519 0
1.65323 2.2293255 -0.14103368 0
1.7519999 2.2601178 -0.14589953 0
1.8642786 2.2413654 -0.15499562 0
2.2600095 2.253978 -0.16964716 0
2.3332949 2.2308736 -0.13998127 0
2.4816222 2.2524858 -0.17160517 0
2.5895648 2.2419434 -0.1738804 0
2.6686749 2.2632887 -0.15386184 0
2.7489727 2.2838063 -0.12803486 0
2.8640642 2.2477536 -0.1787082 0
-4.2364078 2.3840594 -0.1418796 0
-4.1577039 2.3425298 -0.15443981 0
-4.079 2.3010001 -0.167 0
-2.880687 2.3178122 -0.10700007 0
-2.6219141 2.3256047 -0.10116198 0
-2.4630542 2.3805153 -0.13114187 0
-2.2561302 2.3701365 -0.1447224 0
-2.146394 2.3600194 -0.1422836 0
-2.049542 2.3619335 -0.1378475 0
-1.953876 2.3567209 -0.13934512 0
-1.855615 2.3839004 -0.13934451 0
-1.7693467 2.3477058 -0.14315183 0
-1.6490853 2.3872628 -0.14364147 0
-1.5563087 2.3126047 -0.15006912 0
-1.4980843 2.3399038 -0.14945155 0
-1.3413248 2.3708692 -0.15597861 0
-1.2390579 2.3487828 -0.15348034 0
-1.1416817 2.3725035 -0.14358029 0
-1.0411875 2.3323131 -0.11949478 0
-0.9528569 2.3590441 -0.11580367 0
-0.85139596 2.3396528 -0.11872604 0
-0.73850286 2.3689094 -0.11362995 0
-0.697097 2.3192327 -0.12175482 0
-0.47252375 2.3662162 -0.11443706 0
-0.35860422 2.3572671 -0.1137416 0
-0.23866038 2.3477836 -0.12560755 0
-0.13941203 2.3498762 -0.12074611 0
-0.047676988 2.3532557 -0.12453 0
0.057156917 2.3756905 -0.11349841 0
0.15771501 2.3769159 -0.11824977 0
0.26289085 2.3590012 -0.12562408 0
0.32661328 2.3653133 -0.127468 0
0.45038009 2.3541059 -0.13494126 0
0.55441475 2.3323133 -0.15190908 0
0.63173091 2.3330851 -0.15312576 0
0.75034046 2.363625 -0.15177518 0
0.85278308 2.3618946 -0.14932278 0
0.94674772 2.3496773 -0.14162867 0
1.0668039 2.3360758 -0.15535209 0
1.1671966 2.3629091 -0.14389972 0
1.2435111 2.3390114 -0.12111393 0
1.3449539 2.3611431 -0.12403988 0
1.4403675 2.3475652 -0.1416015 0
1.5416552 2.3538249 -0.14782116 0
1.6578442 2.3712535 -0.14704609 0
1.7699819 2.3569906 -0.13759722 0
1.8468041 2.3516283 -0.13611859 0
1.9254197 2.3644102 -0.13008384 0
2.0126462 2.354022 -0.17954148 0
2.3480144 2.3389671 -0.16197073 0
2.437309 2.3629153 -0.12812324 0
2.5461466 2.3101828 -0.1685262 0
2.6258354 2.3814402 -0.16472362 0
2.7468765 2.3771291 -0.16875359 0
2.8513951 2.3690505 -0.11604233 0
2.9711933 2.332063 -0.17706847 0
3.0409999 2.3870001 -0.176 0
-4.3544636 2.4463539 -0.12303931 0
-2.5378878 2.4530177 -0.11901213 0
-2.3487005 2.4045691 -0.11296628 0
-1.9135131 2.4585404 -0.12828113 0
-1.7446806 2.459132 -0.12763019 0
-1.617 2.4000001 -0.14399999 0
-1.538 2.4000001 -0.145 0
-1.105 2.405 -0.11 0
-1.038 2.405 -0.109 0
-0.93799996 2.4005001 -0.1085 0
-0.84200001 2.4000001 -0.108 0
-0.74066669 2.4056666 -0.10733333 0
-0.65899998 2.404 -0.107 0
-0.542 2.414 -0.107 0
-0.44749665 2.435087 -0.10747596 0
-0.33162272 2.4382036 -0.10529047 0
-0.23949999 2.4099998 -0.1225 0
-0.17052978 2.4182694 -0.12452029 0
-0.041500002 2.411 -0.12050001 0
0.054000001 2.4119999 -0.131 0
0.138 2.4085002 -0.1285 0
0.26749998 2.4050002 -0.118 0
0.34263447 2.4327612 -0.11699184 0
0.45280829 2.4420998 -0.12743178 0
0.54456645 2.4268887 -0.12340009 0
0.65532511 2.4417939 -0.11419417 0
0.74140596 2.4389086 -0.1160979 0
0.84387755 2.44576 -0.1134994 0
0.94540155 2.4275157 -0.13582489 0
1.0420135 2.4085963 -0.12932023 0
1.168 2.405 -0.13249999 0
1.2494649 2.4070702 -0.13486415 0
1.3559999 2.411 -0.111 0
1.4284999 2.4054999 -0.1455 0
1.5227145 2.408673 -0.11812881 0
1.665 2.4100001 -0.109 0
1.73 2.408 -0.14 0
1.8355 2.4035001 -0.147 0
1.9595001 2.4070001 -0.127 0
2.0339999 2.401 -0.171 0
2.9030001 2.4119999 -0.11 0
-4.4725189 2.5086484 -0.10419901 0
-2.600776 2.5140355 -0.10802427 0
-2.0225394 2.5996213 -0.10684338 0
-1.9680262 2.5290809 -0.11756225 0
-1.7953613 2.525264 -0.11326039 0
-0.18518859 2.5798914 -0.11375842 0
0.33082718 2.5747769 -0.10924415 0
0.44892085 2.5739908 -0.11516412 0
0.54651296 2.5395677 -0.10973087 0
0.66084099 2.5523672 -0.10620803 0
0.75872159 2.5751779 -0.10526602 0
0.82860279 2.5640383 -0.10369685 0
0.90601176 2.5764892 -0.10809956 0
-0.1922829 2.669337 -0.10263763 0
0.46338129 2.6559863 -0.10324618 0
0.59389472 2.6626575 -0.10640181 0
0.65895826 2.6628983 -0.10580363 0
0.9350177 2.660234 -0.10414934 0
0.96402359 2.7439785 -0.10019912 0
1.836 -3.902 -0.088 0
2.1860001 -3.9100001 -0.093000002 0
1.8191912 -3.8671086 -0.089232914 0
2.7074664 -3.8160748 -0.0081524998 0
1.4600413 -3.7543712 -0.082625076 0
1.7603626 -3.7449923 -0.093547978 0
2.2198746 -3.7672005 -0.095166691 0
2.3206987 -3.768822 -0.080084011 0
2.6585999 -3.7423062 -0.022114374 0
1.4224069 -3.6556599 -0.092889018 0
1.7015339 -3.6228759 -0.097863041 0
2.2655644 -3.6603992 -0.095109187 0
2.6542182 -3.6455383 -0.027812459 0
2.7489371 -3.6950521 -0.0057315566 0
2.3288853 -3.5622745 -0.091355026 0
2.5282888 -3.5455894 -0.059346046 0
2.6484687 -3.5500259 -0.033365779 0
2.7493916 -3.5380557 -0.0094409026 0
2.369 -3.447 -0.090000004 0
2.4653652 -3.4576125 -0.077130213 0
2.5731173 -3.4412565 -0.054091446 0
2.6636424 -3.4343858 -0.03294969 0
2.3970659 -3.3647788 -0.096360125 0
2.5811095 -3.3346045 -0.055576682 0
2.8456151 -3.3243511 -0.0085485205 0
1.7925774 -3.253932 -0.093784854 0
2.4710658 -3.2015626 -0.085746005 0
2.5260878 -3.2680836 -0.070661351 0
2.641 -3.201 -0.064999998 0
2.7920768 -3.2572339 -0.023032349 0
-0.252 -3.1659999 -0.061500002 0
1.748493 -3.1761184 -0.082541816 0
2.5526335 -3.1050727 -0.084846988 0
2.6434751 -3.1408045 -0.062885247 0
2.7385383 -3.1901169 -0.037516177 0
-0.2746655 -3.0669994 -0.011887338 0
1.6603239 -3.0204911 -0.060055748 0
1.7044084 -3.0983047 -0.071298786 0
2.5033169 -3.0515363 -0.095923498 0
-0.26633102 -2.977999 -0.00077467598 0
-0.14201616 -2.936013 -0.09909606 0
1.6162393 -2.9426775 -0.048812717 0
-0.13835488 -2.8473508 -0.083461419 0
1.5690774 -2.859432 -0.036784839 0
-1.462 -2.7249999 -0.092 0
-0.81396717 -2.76578 -0.097430617 0
-0.12205786 -2.7404637 -0.082127735 0
3.5162704 -2.7039931 -0.011751745 0
-1.808 -2.6099999 -0.078000002 0
-1.507 -2.6619999 -0.088 0
-1.4919066 -2.6374559 -0.091853619 0
-1.0774055 -2.675344 -0.096205175 0
-0.78745079 -2.6801698 -0.084645927 0
-0.11916943 -2.6518567 -0.066553295 0
3.4695001 -2.6434999 -0.0605 0
-1.993 -2.543 -0.068999998 0
-1.7678696 -2.5506563 -0.085514769 0
-1.5039999 -2.5209999 -0.081 0
-1.4585843 -2.5337937 -0.078833863 0
-1.0297096 -2.5526021 -0.075359046 0
-0.74767625 -2.5517545 -0.065468892 0
-0.116281 -2.5632496 -0.050978839 0
-1.9382689 -2.4715872 -0.058128748 0
-1.8835378 -2.4001741 -0.047257498 0
-1.6924164 -2.4390793 -0.099644013 0
-1.5416225 -2.4255087 -0.092590876 0
-1.4568777 -2.4412818 -0.083589599 0
-1.3701531 -2.4275632 -0.065883324 0
-1.2093983 -2.4501863 -0.090546861 0
-0.98201358 -2.4298601 -0.054512933 0
-0.7079016 -2.4233394 -0.046291851 0
-0.1156112 -2.451108 -0.025365653 0
3.5569999 -2.441 -0.1 0
-1.8288066 -2.3287613 -0.036386248 0
-1.452958 -2.3581371 -0.071842425 0
-1.3245374 -2.3494177 -0.058511101 0
-1.1712478 -2.3704827 -0.075183578 0
-0.95021635 -2.3480322 -0.040615521 0
-0.68138522 -2.3377295 -0.033507161 0
-0.10095978 -2.3680305 -0.034371674 0
-1.7740755 -2.2573485 -0.025515001 0
-1.5280824 -2.2373748 -0.096820615 0
-1.445245 -2.2730174 -0.070181757 0
-1.337762 -2.2379105 -0.071512565 0
-1.2870591 -2.2665381 -0.069801614 0
-1.1330974 -2.2907791 -0.059820294 0
-1.0949469 -2.2110758 -0.044457011 0
-0.91841906 -2.2662041 -0.02671811 0
-0.65486884 -2.2521193 -0.020722471 0
-0.098999999 -2.286 -0.019999996 0
3.636256 -2.2254467 -0.090526924 0
3.7460041 -2.2844644 -0.070184618 0
-1.7193444 -2.1859357 -0.014643751 0
-1.6646132 -2.1145227 -0.0037724972 0
-1.478699 -2.16225 -0.083584741 0
-1.3527936 -2.1521814 -0.064056508 0
-1.244909 -2.1562746 -0.056900401 0
-1.1876905 -2.1149809 -0.036394432 0
-1.0567966 -2.1313722 -0.029093727 0
-0.88662177 -2.1843762 -0.012820698 0
-0.6283524 -2.1665092 -0.0079377815 0
-0.233 -2.1300001 -0.093000002 0
-2.3050001 -2.0380001 -0.015 0
-1.4293154 -2.0871248 -0.070348866 0
-1.3403053 -2.0281401 -0.046840526 0
-1.2383289 -2.0684795 -0.053551227 0
-1.1585697 -2.0243175 -0.03957722 0
-1.018646 -2.0516686 -0.013730437 0
-0.50562906 -2.0277634 -0.091328248 0
-2.2408898 -1.9803008 -0.0042713406 0
-2.0687525 -1.9245228 -0.099636972 0
-1.3305484 -1.9368749 -0.043877117 0
-1.2371647 -1.9796898 -0.04267554 0
-1.1524549 -1.9328164 -0.029113078 0
-1.0964592 -1.9586897 -0.021649979 0
-0.99199998 -1.9960001 -0.0030000061 0
-2.0044408 -1.8639034 -0.084046222 0
-1.9401288 -1.803284 -0.068455465 0
-1.8882535 -1.8036824 -0.09080001 0
-1.2427331 -1.8767694 -0.022400085 0
-1.1561127 -1.8155432 -0.0029543638 0
-1.0545933 -1.8558165 -0.012976047 0
-1.8508606 -1.7429419 -0.064112358 0
-1.234 -1.79 -0.017999992 0
-1.0549999 -1.7920001 -0.010000005 0
-1.8115051 -1.6820455 -0.037273951 0
-1.7373177 -1.6421579 -0.042027742 0
-1.6849999 -1.5845001 -0.023500003 0
-2.5223875 -0.82323021 -0.090064913 0
-2.4317861 -0.85571492 -0.090087831 0
-2.7404103 -0.7574265 -0.092639446 0
-2.6259675 -0.79101896 -0.090690069 0
-2.9619007 2.3799739 -0.094083369 0
-2.7049999 2.3970001 -0.082999997 0
-2.6848969 2.3797257 -0.087394379 0
-2.4071257 2.4642115 -0.098207861 0
-1.0380478 2.4812064 -0.097679555 0
-0.93813431 2.482347 -0.099852219 0
-0.8691082 2.4838305 -0.098546319 0
-0.7472952 2.4909298 -0.099756286 0
-0.680291 2.4901369 -0.097921588 0
-0.55578202 2.4906626 -0.097524866 0
-0.449 2.418 -0.072999999 0
-0.31903315 2.4611239 -0.073039949 0
-0.25599998 2.4105 -0.0735 0
-0.10691568 2.4350364 -0.088650554 0
0.061999999 2.4319999 -0.092 0
0.36255914 2.4968953 -0.096216753 0
2.516 2.408 -0.1 0
-4.6299267 2.5917077 -0.079078622 0
-4.5512228 2.5501781 -0.091638818 0
-2.6636639 2.5750532 -0.097036406 0
-2.4822755 2.5409269 -0.079224721 0
-1.8460419 2.5913961 -0.098890573 0
-1.1110715 2.5537295 -0.083457306 0
-1.0321199 2.5650961 -0.089260913 0
-0.97126859 2.5646939 -0.091704443 0
-0.89621633 2.5676606 -0.089092627 0
-0.73808622 2.5760667 -0.09067788 0
-0.56956404 2.5673249 -0.088049732 0
-0.46112046 2.5477085 -0.074692279 0
-0.32978234 2.5502841 -0.073898606 0
-0.22939833 2.5528502 -0.067660436 0
0.37711832 2.5787907 -0.089433514 0
0.44262642 2.5816991 -0.093342528 0
0.56953889 2.587719 -0.094137684 0
0.67214417 2.5848188 -0.088052586 0
0.75038815 2.5790067 -0.090480685 0
0.8670119 2.5761945 -0.088954359 0
0.91616911 2.5709584 -0.092238516 0
1.0040163 2.5791571 -0.091249056 0
-4.7479825 2.6540022 -0.060238335 0
-2.7579961 2.6665797 -0.080554612 0
-2.0770524 2.6701617 -0.096124507 0
-1.8967226 2.6575282 -0.084520765 0
-1.1476073 2.6280944 -0.07068596 0
-1.0335413 2.6470923 -0.081474014 0
-0.92332447 2.6514909 -0.079638943 0
-0.80188549 2.6607895 -0.085268863 0
-0.72287309 2.6624105 -0.079764768 0
-0.5443576 2.6592884 -0.066270433 0
-0.44499105 2.6378984 -0.08626923 0
-0.33251026 2.6543894 -0.063021868 0
-0.23879665 2.6867008 -0.054320876 0
0.36545908 2.6584256 -0.08950825 0
0.45793965 2.6682987 -0.081513792 0
0.54577518 2.6643479 -0.090214677 0
0.65345371 2.6705551 -0.078294717 0
0.74907988 2.6596131 -0.089940332 0
0.85154915 2.6529787 -0.082946636 0
0.94675368 2.6524374 -0.078857765 0
1.0350245 2.6617355 -0.079373583 0
-4.8559999 2.711 -0.042999998 0
-2.8523278 2.7581062 -0.064072818 0
-2.1315656 2.7407019 -0.085405633 0
-1.9727435 2.7567263 -0.062966049 0
-1.2206788 2.776824 -0.045143262 0
-1.1841431 2.7024593 -0.057914611 0
-1.0653884 2.72929 -0.07246536 0
-0.95043266 2.735321 -0.070185259 0
-0.8291806 2.7457194 -0.078025147 0
-0.74416411 2.7485473 -0.070686355 0
-0.60600001 2.77 -0.063000001 0
-0.56064343 2.7403843 -0.058360584 0
-0.46499497 2.7471304 -0.072713941 0
-0.33989802 2.7459018 -0.042463884 0
-0.2450622 2.7759342 -0.045427833 0
-0.19937719 2.7587829 -0.091516837 0
0.34765431 2.7375538 -0.0834883 0
0.43924248 2.7451236 -0.078148626 0
0.54586345 2.7495279 -0.075452879 0
0.64268631 2.749861 -0.088096 0
0.74194384 2.7468004 -0.071333706 0
0.84164971 2.7326272 -0.080914408 0
0.93362302 2.7569673 -0.06754262 0
1.0660326 2.7443142 -0.067498103 0
-2.94666 2.8496327 -0.047591023 0
-2.2405918 2.8817828 -0.063967884 0
-2.1860785 2.8112423 -0.074686758 0
-2.0220001 2.8210001 -0.048999995 0
-1.2606072 2.8580945 -0.031185959 0
-1.1273217 2.8662031 -0.056182783 0
-1.0706716 2.8117344 -0.0672611 0
-0.97754085 2.8191514 -0.060731571 0
-0.83216095 2.8512082 -0.045578904 0
-0.77922761 2.828342 -0.037303977 0
-0.54294854 2.8456488 -0.041277118 0
-0.3723408 2.8540542 -0.081356935 0
-0.22889963 2.856698 -0.058465421 0
0.35953397 2.8524711 -0.065305188 0
0.45413646 2.8286545 -0.068185784 0
0.56343448 2.838995 -0.062924571 0
0.64465487 2.8361158 -0.073176973 0
0.74901325 2.8296247 -0.067501865 0
0.85378128 2.8472633 -0.071578316 0
0.95235318 2.8304033 -0.071378268 0
1.0478238 2.8463879 -0.048811477 0
-3.013 2.914 -0.035999998 0
-2.295105 2.9523232 -0.053249016 0
-1.1609298 2.9758821 -0.04543937 0
-1.018203 2.9448967 -0.046551041 0
-0.85782135 2.9339428 -0.047925688 0
-0.7867462 2.920821 -0.052529532 0
-0.56173825 2.9311786 -0.034932543 0
-0.38520893 2.943665 -0.076228321 0
-0.23557955 2.9460378 -0.048458505 0
0.44544289 2.914861 -0.056392152 0
0.52018243 2.9186523 -0.059557199 0
0.65394431 2.9420407 -0.059808485 0
0.75208861 2.9341571 -0.067164883 0
0.84442145 2.9587295 -0.050533682 0
0.96203423 2.9599335 -0.025627965 0
1.0473895 2.9616783 -0.068660639 0
1.1435531 2.9507604 -0.037809417 0
-2.3713088 3.0509319 -0.038265072 0
-2.2939999 3.05 -0.0080000004 0
-1.2217396 3.074192 -0.028021835 0
-1.1700745 3.0587752 -0.042817749 0
-1.0588653 3.070642 -0.032370515 0
-0.92471361 3.042974 -0.052672163 0
-0.83108765 3.0442991 -0.040691581 0
-0.5805279 3.0167084 -0.028587967 0
-0.3980771 3.0332761 -0.071099706 0
-0.24225947 3.0353775 -0.038451586 0
0.48063594 3.0149136 -0.03368859 0
0.55774909 3.0144813 -0.034709103 0
0.65199649 3.0090714 -0.049886242 0
0.75609016 3.0326328 -0.036146425 0
0.861 3.046 -0.0090000033 0
0.94930017 3.081949 -0.009817481 0
1.0662413 3.0649302 -0.034450758 0
1.1505327 3.082314 -0.013498101 0
-1.2066045 3.1495609 -0.033834986 0
-1.08 3.1359999 -0.024999999 0
-0.93480253 3.1821456 -0.054966029 0
-0.85537738 3.1376362 -0.030153394 0
-0.60299999 3.119 -0.020999998 0
-0.59931761 3.1022382 -0.022243392 0
-0.41094527 3.1228869 -0.065971091 0
-0.24893941 3.1247172 -0.02844467 0
0.49629825 3.1016154 -0.022501245 0
0.5562377 3.1519928 -0.015412991 0
0.65456736 3.1248674 -0.014369991 0
0.7341249 3.1428313 -0.018696602 0
0.80400002 3.1129999 -0.0099999979 0
1.105 3.151 -0.081 0
1.2225368 3.1611032 -0.0075603649 0
-0.95398718 3.2447305 -0.059031364 0
-0.85600001 3.201 -0.023000002 0
-0.42381343 3.2124979 -0.060842481 0
-0.24796507 3.2426555 -0.017286036 0
0.74900001 3.201 -0.011 0
-0.95200002 3.355 -0.092 0
-0.4413408 3.3345544 -0.053856932 0
-0.245 3.3340001 -0.019999998 0
2.9809999 -4.2290001 0.07 0
2.9273658 -4.1480341 0.054675937 0
2.8540659 -4.0373812 0.03373313 0
3.0085545 -4.0698085 0.065676995 0
2.8524199 -3.9381018 0.027745513 0
2.9498744 -3.9851041 0.04953688 0
3.049 -3.934 0.066 0
2.7563329 -3.8898435 0.0058093816 0
2.8494058 -3.8400781 0.021902662 0
2.9746249 -3.8356652 0.047281429 0
2.7991714 -3.7675653 0.0080855526 0
2.9000833 -3.7371101 0.028520949 0
2.8255415 -3.638555 0.0097604748 0
3.099 -3.642 0.060000002 0
3.0329998 -3.5592606 0.04214488 0
3.143445 -3.5280199 0.055353075 0
2.952692 -3.458585 0.020419136 0
3.0554314 -3.4291499 0.03519135 0
2.8991537 -3.391468 0.0059353039 0
2.9789727 -3.34326 0.01767654 0
2.928 -3.286 0.0060000001 0
-0.23199999 -3.1730001 0.018999999 0
-0.2237338 -3.0830112 0.025575383 0
-0.2113345 -2.9480281 0.035438456 0
3.7681756 -2.9254825 0.043620642 0
-0.2579965 -2.8889985 0.010337988 0
-0.19893521 -2.8130448 0.045301534 0
3.6669459 -2.8364754 0.021368895 0
-0.24549477 -2.7554975 0.027006976 0
-0.19066902 -2.7230558 0.051876917 0
3.5765405 -2.7569861 0.0014965106 0
-0.23299302 -2.6219969 0.043675974 0
-0.18240282 -2.6330671 0.058452301 0
-0.22465852 -2.5329964 0.054788634 0
-0.17413662 -2.5430782 0.065027684 0
-0.21632403 -2.443996 0.065901302 0
-0.16587043 -2.4530895 0.071603067 0
-0.20798953 -2.3549953 0.077013969 0
-0.12999715 -2.3281591 0.033508301 0
-0.17299826 -2.2532766 0.087720111 0
-0.85500002 -2.1029999 0.001000002 0
-1.6098821 -2.0431099 0.0070987567 0
-0.60183609 -2.0808992 0.0048469082 0
