# .PCD v0.7 - Point Cloud Data file format
VERSION 0.7
FIELDS x y z intensity
SIZE 4 4 4 4
TYPE F F F F
COUNT 1 1 1 1
WIDTH 155
HEIGHT 1
VIEWPOINT 0 0 0 1 0 0 0
POINTS 155
DATA ascii
-5.9188604 -1.0358832 0.088241667 4
-5.7090654 -1.260276 -0.062752828 3
-5.7282867 -1.3215003 0.46426174 6
-5.1956906 -2.7392385 2.2214417 15
-4.8956261 -2.8177307 1.1724033 10
-4.9532671 -2.7737553 1.659405 13
-4.4138951 -2.9121642 0.82633287 8
-4.5252552 -2.912564 1.2623537 11
-4.4921689 -2.9187627 1.5123488 12
-4.5900106 -2.8990271 2.4373629 17
-4.2695875 -1.4742203 -0.051965922 3
-4.3125229 -1.4817486 0.10904315 4
-4.2825232 -1.4883167 0.29003894 5.5
-4.2136722 -3.0246792 0.95731753 9
-4.0241432 -3.0549433 -0.055712949 3
-4.0255842 -2.0308495 -0.057909999 3
-4.0439339 -2.0710289 0.045100912 4
-4.1053758 -1.6389619 0.18103345 5
-4.1267734 -3.038197 0.62930351 7
-3.9306877 -2.0575991 0.16907702 5
-3.9685202 -2.0972841 0.40809157 6
-3.9485292 -3.113457 1.7732841 14
-3.8436093 -3.122514 2.110265 17
-3.7074957 2.5490654 1.453431 13
-3.7751932 -3.164758 1.8702602 15
-3.7895725 -3.1487875 2.0552595 16
-3.4501274 -3.2532234 1.0667129 10.5
-3.4662578 -3.2293932 1.2932113 12
-3.4992361 -3.2482374 3.878222 25
-3.3272877 2.5616314 0.12439567 4.5
-3.2629876 -3.3231368 1.4361882 13
-3.261265 -3.3243337 1.6601882 15
-3.1229813 -3.3683133 1.5351679 14
-3.0957673 -3.4340198 3.8011758 26
-2.9710615 -3.4145572 1.731145 15
-2.8210738 -3.6942637 3.5571685 24
-2.9021614 2.1536613 3.6783938 28
-2.8204887 -3.4987752 4.141129 27
-2.609365 -3.5156355 0.16408597 4
-2.6761878 2.8210227 0.18032904 5
-2.7733996 -3.4800057 2.6951151 21
-2.7362328 -3.5013688 4.2661114 28
-2.5485063 -3.5250814 -0.093925811 3
-2.4470088 4.5647688 0.22918876 5
-2.4540727 -3.5899296 1.402066 14
-2.4481456 -3.5946782 2.3360653 19
-2.2039485 -3.6990194 3.8710301 27
-1.9767925 -3.757031 2.4674878 20.5
-1.6807717 -3.8612952 2.2569358 19
-1.7995241 -3.9835551 3.5829909 25
-1.4280826 2.2395084 2.8403296 28
-1.5754238 -3.9219744 3.8309221 26
-1.4555609 -3.7765722 4.0638604 28
-1.3010342 -2.8217077 -0.10737798 2
-1.391018 -3.9395204 0.145878 4
-1.1291586 2.8030038 0.22629856 6
-1.0028745 2.416338 2.8353269 28
-0.93682474 2.8235714 0.14230183 5
-0.48911116 2.9350915 0.603311 9
-0.41430515 2.8188682 2.9713237 27
-0.32294706 2.2867494 2.1843724 26
0.070145503 3.6697698 1.1552756 12.5
0.035392426 2.7168891 2.5873613 26
0.015544327 2.5987027 2.7613711 27
0.43210274 -2.7273376 -0.13129856 1.5
0.57069308 -3.8763855 3.2851093 24
0.94833118 -1.769058 -0.040246006 2.5
0.95768106 -3.9066195 0.37812543 6
0.82176715 -3.8936687 3.4651196 25
0.85290176 -3.931541 4.1571169 27
0.89848864 -3.9169583 4.2951212 28
1.1133991 -3.924475 0.2051308 5
1.1290048 -3.9370797 1.9871305 17
1.0580463 -3.9503424 2.4391258 19
1.2135175 -1.7782757 0.04124083 4
1.3309385 -3.9729185 1.6491359 14
1.3983827 -3.9760478 1.8631386 16
1.3870655 -3.9893348 2.4831367 19
1.3523114 -3.988452 4.439136 28
1.5851095 -3.9989944 0.66714364 8
1.4272237 -3.9742718 1.6681395 15
1.4638137 -3.7270677 4.5001559 29
1.7161101 -4.0112891 0.48014727 6.5
1.7005713 -4.0176411 1.0916464 10.5
1.7064723 -4.0219817 1.2771461 12
1.6847163 -4.0078173 4.4971457 27
1.7164403 -3.9644308 4.5071497 28
2.0720215 -3.4770207 1.0391841 11
2.1944413 5.5789642 1.8731856 12
2.1510398 -4.1090856 2.7811551 20
2.2369292 5.8211565 0.1741616 4
2.3739352 5.6258249 0.31418869 5
2.2221534 -3.1868427 0.47719669 7
2.3655245 5.7382536 0.51117611 6
2.2022572 5.596652 2.1691837 13
2.2263856 -4.1364303 2.7921557 19
2.4673872 -3.327101 1.0691938 11
2.4922431 -3.3180768 1.2831945 12
2.7511308 -2.5913928 4.146203 28
2.8389733 -2.4661465 4.1502018 29
3.0950286 -2.4304945 4.209197 28
3.2900882 -4.2847314 3.2606733 19.5
3.203428 -2.5332365 4.1551976 27
3.4237399 -4.3001494 3.5581756 21
3.6068227 -4.3199444 0.51417816 6
3.6897643 -3.0392179 0.5511989 7
4.1165171 -2.6075931 0.105191 4
4.1190996 -2.7215879 0.39419329 6
4.1243515 -2.5786443 0.25119027 5
4.1222119 -2.5757542 0.54519022 7
4.1081591 -2.598912 0.70619088 8
4.1029596 -4.5874963 2.5701785 15
4.5870423 -1.7266822 0.52915156 6
4.587697 -1.7209415 0.77415109 8
4.5857277 -1.6854775 1.1871493 10
4.5762043 -1.6912012 1.2711498 11
4.5932341 -1.6787889 1.4221488 12
4.7046905 -0.95592469 -0.0099025611 3
4.6157608 -1.738732 0.28415194 4.5
4.7478395 4.6844745 0.49240971 5
4.615499 -1.7430543 0.64815217 7
4.6438498 4.7908516 0.72039217 6
4.6445146 -1.4595999 1.0111349 9
4.839221 0.092532702 -0.10300354 3
4.9370947 0.80866617 0.098914757 4
4.9346495 0.77521884 0.24791874 5
4.9410672 0.81154579 0.51291442 6
4.9253411 0.79145443 0.77891654 8
4.9382458 0.80007362 0.64891583 7
4.9473906 0.79339349 0.91691661 9
4.875329 0.47811258 1.1839532 10
4.890027 0.40555975 1.2119616 11
4.8553152 0.39026475 1.5439631 12
4.9825287 -2.6715343 2.4661868 16
4.9236269 -1.4335237 6.0241299 29
4.9937611 -1.1399804 6.0541086 29
5.0085449 -2.6648319 2.2821863 15
5.0848107 -0.93176287 4.5020924 25
5.0512214 -1.2892956 4.733119 26
5.2087383 9.4058924 2.1398914 9
5.4578133 -2.6894841 0.34818465 5
5.4641876 -2.7251532 0.89068556 7.5
5.5834389 1.3570054 1.5498577 11
5.4684572 -3.1748292 3.4921958 19
5.7298293 1.5987895 0.069831453 4
5.6448183 1.0104597 3.0628986 18
5.6248951 0.91663665 3.2359092 19
6.3949351 4.0535536 1.8665482 10
6.5063992 3.9903245 0.15955926 4
6.4955678 4.1289725 0.54154199 5
6.4351912 4.0233874 0.63155311 6
6.5715117 3.9960845 1.0265604 7
6.4745383 4.2105117 1.2555314 8
6.5270271 4.5113301 1.5244964 9
7.0106883 3.9162953 3.135582 14
