# .PCD v0.7 - Point Cloud Data file format
VERSION 0.7
FIELDS x y z intensity
SIZE 4 4 4 4
TYPE F F F F
COUNT 1 1 1 1
WIDTH 550
HEIGHT 1
VIEWPOINT 0 0 0 1 0 0 0
POINTS 550
DATA ascii
-22.622707 -0.98021173 1.3369619 5
-22.766832 -0.65236372 1.9529177 6
-22.64043 -0.9556545 2.0839596 6
-22.045992 -1.6290395 -0.67999667 2
-9.7855225 4.2851143 -0.13344163 0
-9.6793995 4.4666157 -0.13778391 0
-9.820672 -1.2466452 3.4609303 14
-9.3501844 3.5889571 -0.13517889 0
-9.5029297 4.6603384 -0.1485571 0
-9.1253281 3.863647 -0.1428656 0
-9.0274162 4.0132647 -0.14563422 0
-8.8840065 -1.691314 3.1668637 14
-8.137641 0.06960579 0.33840638 5
-6.6768804 -0.81670743 -0.19067153 2
-6.1317234 0.052787535 -0.23591347 2
-6.0986485 2.6188812 -0.068296112 3
-5.6461835 -2.5645349 -0.20251252 2
-5.8592501 -1.701669 -0.13564417 2.5
-5.7749166 -1.4462619 -0.062706947 3
-5.794982 -1.1033823 -0.079017006 3
-5.8915548 -1.7462533 0.26795328 4.6666665
-5.7700253 -1.4130677 0.18186945 4.1666665
-5.770484 -1.1105291 0.20223014 4.1999998
-5.918242 -1.7907891 0.49113306 6
-5.7895312 -1.4378181 0.49812734 6
-5.783617 -1.1185538 0.49223378 6
-5.7070026 -2.5861177 2.1905029 14
-5.7430711 -2.5667949 2.7415047 17
-5.6586118 -2.5870245 2.8074942 17
-5.262537 -2.694495 1.5794449 12
-5.2683921 -2.6833799 1.6989439 12.5
-5.2126064 -2.7292614 2.0584431 14
-5.2378244 -2.7111964 2.5534439 17
-4.9587603 -2.7754033 -0.10159363 3
-4.888948 -1.2552432 -0.22589511 2
-4.8917794 -2.8041582 1.421733 11.5
-5.0933695 -2.7334304 1.5434225 12
-4.9065809 -2.8137565 1.7464045 13.5
-5.0254893 -2.7641759 1.7069162 12.75
-4.914721 -2.8210533 2.1424069 15
-5.0283523 -2.7765243 2.2819192 15.5
-5.0007882 -2.8090622 2.7964208 18
-5.0945301 -2.7498875 2.5425506 16.75
-4.5635114 -2.8960438 -0.040142376 3
-4.7022295 -0.9160108 -0.21498649 2
-4.5536299 -2.8986158 0.19931465 4.5
-4.4895477 -2.9203274 0.58494866 6.5999999
-4.4713869 -2.9379203 1.0493487 9.5
-4.6412168 -2.8700092 1.4532418 12
-4.6268182 -2.8942997 1.7127689 13.6
-4.6292696 -2.8941927 2.2375362 16
-4.1699204 -3.0127056 -0.064360149 2.6666667
-4.164741 -2.2961841 -0.20983399 2
-4.1057558 -1.6549072 -0.10713024 2.5
-4.2195778 -1.5049168 -0.10571951 2.5
-4.1698618 2.3257527 -0.14299893 2
-4.2263918 -2.9995284 0.25687027 5
-4.0484242 -2.0481918 0.18659753 4.5
-4.1455984 -1.6769668 0.185781 4.5999999
-4.2697539 -1.5395199 0.22717072 5
-4.2227459 -3.0057178 0.59719026 6.75
-4.0136847 -2.0253322 0.40608671 6
-4.1219878 -1.7521402 0.64705688 8
-4.0978775 -1.5777583 0.50202113 7
-4.1964836 -3.0200391 0.92464644 9
-4.2202024 -3.0158329 1.4351169 12.2
-4.301105 2.7059984 1.4850315 12.333333
-4.14397 -3.0447266 1.6768079 14
-4.2694845 2.6515639 1.6294782 13
-3.7452638 -3.1001647 -0.12142523 2.5
-3.7710564 -2.6163692 -0.20234795 2
-3.8858621 -2.1144423 -0.14142106 2.3333333
-3.6540534 1.6749434 -0.2114913 2
-3.652262 2.3585491 -0.18055664 2
-3.682445 2.519532 -0.049568541 3
-3.6391516 2.8681631 -0.053604033 3
-3.7445889 3.2547019 -0.058629379 3
-3.8018389 -3.1286128 0.23142484 5
-3.9470727 -2.0510767 0.17457895 4.5
-3.8404701 5.0412989 0.25822192 4
-3.8604641 -3.116828 0.65760076 7.5
-3.6040981 -3.2063613 0.90723443 9
-3.8509669 -3.1289794 1.013379 9.833333
-3.9508295 -3.0893204 1.3709462 12
-3.7741389 2.5020485 1.432642 13
-3.7716379 -3.1618559 1.7742587 14.75
-3.7184322 -3.1669583 2.0778744 16.5
-3.9637876 -3.1102254 2.6342862 19
-3.3850429 -3.2486022 -0.088968165 2.6666667
-3.3705871 2.3736136 -0.17058447 2
-3.2630019 3.0544834 -0.053650521 3
-3.3463359 -3.2716994 0.20976652 5
-3.5837195 -3.1889961 0.23422699 5
-3.399682 -3.2626727 0.65131885 8
-3.5851111 -3.1950314 0.69842851 8
-3.3397448 -3.2903306 1.0015974 10.2
-3.3197641 -3.2911322 1.3263937 12.333333
-3.3750787 -3.2815239 1.9014529 16
-3.4827909 -3.239104 2.0378835 17
-3.2968421 -3.5395207 3.5042386 24
-3.3701699 -3.3483765 3.8212154 25.25
-3.0496898 -3.3637526 -0.06734845 3
-3.1215279 2.3956418 -0.1626076 2
-2.8874135 2.4098737 -0.1546267 2
-2.9308474 3.1827705 -0.066182971 3
-3.0683825 5.5183311 -0.090861171 3
-2.9677775 -3.3953435 0.20441112 5
-2.9755929 -3.3977072 0.6291424 8
-2.9423418 -3.4152946 1.0299221 10.8
-2.9727492 -3.4080837 1.3577839 12.8
-3.037184 -3.384125 1.8578814 16.142857
-2.8230879 -3.4705195 2.6981244 21
-2.8435969 4.447866 2.5392137 17
-2.9031045 -3.6687725 3.5801814 24
-2.9485116 -3.6361628 3.6453097 24.5
-3.026886 -3.4767387 3.8037529 25.5
-2.9394903 2.2030699 3.6833928 27.5
-2.9832253 -3.4324896 4.0731502 26.5
-2.5587277 -3.52178 -0.13142434 2.3333333
-2.672365 -2.169004 -0.20815724 1
-2.7257926 -1.8795272 -0.20319615 1
-2.5053782 1.4141468 -0.20508429 1
-2.5555868 2.4491737 -0.15415093 2
-2.5979795 3.2020764 -0.079703011 3
-2.4934373 4.9231167 -0.080837227 3
-2.6085141 -3.5174601 0.24514602 5.1999998
-2.6186762 2.8402262 0.17632444 4.6666665
-2.4387324 4.6089544 0.11418511 4
-2.6013243 -3.5231168 0.60662729 8
-2.6015372 -3.5293152 1.0313619 11
-2.5901525 -3.5354002 1.3533355 13
-2.5742097 -3.5338547 1.8192067 16.166666
-2.4357483 -3.6046855 2.4410648 20
-2.6285522 -3.5331781 2.5905938 20.666666
-2.6202981 1.8846794 3.0413921 27
-2.6603432 -3.7461121 3.520144 24
-2.6279283 -3.6859095 3.743058 25.6
-2.745934 -3.5602078 3.8576257 26
-2.6761463 -3.5278623 4.1842031 27.5
-2.2257512 -3.6377985 -0.082310759 2.6666667
-2.2153587 -3.5236692 -0.20450287 2
-2.3696854 1.5491986 -0.20160317 1
-2.2190034 1.6655364 -0.19761953 1
-2.2767425 2.4660647 -0.15766646 2
-2.1380756 -3.6699584 0.17985824 4.6999998
-2.2802904 4.6798368 0.21167479 4.75
-2.1941273 -3.661711 0.62484866 8
-2.2156162 -3.6610525 1.0423707 11.125
-2.1996212 -3.6811435 1.514425 14.6
-2.2373857 -3.6503222 1.8096945 16.285715
-2.373554 -3.6266599 2.3340549 19
-2.2866344 -3.6429923 2.5527883 20.75
-2.0889282 -3.9331903 3.5790505 25
-2.1788661 -3.8510549 3.6881106 25.5
-1.7610627 -3.7993932 -0.070556954 3
-1.7969935 -2.5888631 -0.20128942 1
-1.9494169 -2.271311 -0.20330916 1
-1.6705872 1.4920064 -0.1814516 0.66666669
-1.8681455 2.5052693 -0.1061819 2
-1.6446143 3.4272683 -0.05674617 3
-1.8034685 -3.789479 0.20823939 4.818182
-1.8009919 -3.7981262 0.59174591 7.8000002
-1.800548 -3.8048592 0.9972809 10.846154
-1.8244882 -3.8062441 1.4478976 13.875
-1.8074687 -3.8011434 1.7849669 16.285715
-1.8069497 -3.8151641 2.5053465 20.5
-1.8614364 -4.0049186 3.5640109 25
-1.9039019 -3.8338974 3.8494854 26.5
-1.5840315 -3.4391191 -0.084175862 3
-1.2500421 -2.8429658 -0.13251811 1.8
-1.469591 -2.7534435 -0.12384484 2
-1.5019932 1.5435194 -0.17963727 1
-1.3571856 1.6390113 -0.17449227 0.66666669
-1.3928052 2.5197191 -0.1421864 1.75
-1.4664713 -3.912426 0.21670857 5
-1.395231 -3.945905 0.53125548 7.25
-1.4674317 -3.9262791 0.97514176 10.6
-1.4622005 -3.9372742 1.4240627 13.666667
-1.458498 -3.9336016 1.7757277 16
-1.4635485 2.3704841 2.7543218 27
-1.394505 2.2082348 2.8433311 28.5
-1.5398475 -3.9363875 3.8979161 27
-1.5301801 -3.8473296 4.0527277 27.5
-0.9507612 2.5869186 -0.1096824 2
-0.96834379 2.8507669 -0.047700919 3
-1.0276157 2.8284914 0.17638256 5
-1.0429 2.3500023 2.7803297 28
-1.0504611 2.4708447 2.738822 27.5
-0.46351159 1.4659579 -0.15591727 0
-0.54051816 1.9118142 -0.16161504 1
-0.79352945 2.0060546 -0.16663851 1
-0.64826858 2.6288691 -0.095923051 2
-0.79512513 3.9710844 -0.00077996671 3
-0.6651451 3.1349268 0.12428813 4
-0.4740136 2.7900968 2.9963231 28
-0.44742638 2.8284721 2.9728212 27
-0.17145532 1.7779644 -0.15681919 1
-0.17990381 2.7031641 -0.10298548 2.3333333
-0.36368403 3.695761 -0.064745449 3
-0.018454604 3.7330384 1.1172657 12
0.2394989 -1.0267426 -0.15865031 0
0.34033504 0.48543879 -0.14753987 0
0.11259528 1.7442911 -0.15103342 1
0.17957741 2.7437499 -0.084380291 2.25
0.22973506 4.1926594 0.061235297 4
0.049464364 4.5445652 0.07619644 4
0.027616426 3.6627605 1.1787741 12.5
0.0104862 3.7306554 1.2922673 13
0.020866143 2.6571622 2.7053657 27
0.43110847 -2.7492118 -0.11413377 2
0.76207906 -2.0006022 -0.11424749 2
0.69523764 -1.7329348 -0.11423208 1
0.70796913 -1.4064147 -0.117722 1
0.4583101 -0.83194202 -0.15260406 0
0.4639878 -0.75860083 -0.15263872 0
0.67846817 -0.092116192 -0.14903487 0
0.64435667 0.02141572 -0.14707749 0
0.40095311 1.4864169 -0.14296255 1
0.70133656 1.714048 -0.139956 1
0.72317332 2.4768512 -0.13655525 2
0.67987007 4.2317457 -0.053747144 3
0.59813374 -3.8426533 0.23325226 5.1666665
0.6066494 -3.8601222 0.50211227 7
0.61100155 -3.8646824 1.0239954 11
0.60527384 -3.8691266 1.4805113 14
0.64253825 -3.8747237 1.7691127 15.875
0.62294966 -3.8952503 3.1931102 24
0.58453244 -3.8748252 3.3396099 24.5
0.63899046 -3.888978 4.3293605 28
0.69549787 -3.8316743 4.4642019 28.666666
0.89618343 -2.6708961 -0.061787736 3
0.93257475 -2.0562961 -0.10075497 2
1.0734545 -1.7758398 -0.056377303 2.5
0.91863066 -1.4840831 -0.11349101 1
1.1272244 1.0491068 -0.14503172 1
1.0256628 2.2228937 -0.13949302 2
0.84477288 2.4374843 -0.13853917 2
1.0371405 -3.9185238 0.29912797 5.5
1.0602775 -2.8391616 0.089203328 4
0.90772259 -2.3369577 0.016231952 3
0.96222574 -1.7319525 0.041587424 4
0.97833115 -3.9093542 0.53442055 7.1666665
0.95345539 -3.9097517 1.0410773 10.714286
0.9908753 -3.9209268 1.4005841 13
0.99941045 -3.9227619 1.7909688 15.714286
0.92403096 -3.9281852 2.3762889 19
0.98221916 -3.9341526 2.467124 19.75
0.9189868 -3.9252744 3.3841219 24.333334
1.0002208 -3.9401524 4.2519851 27.5
1.0431061 -3.7792528 4.4798675 28.6
1.3809857 -1.7037506 -0.10526846 2
1.3059695 -1.4176151 -0.12877025 1
1.5082699 -0.96170777 -0.15481941 1
1.5977949 0.30076915 -0.14406811 1
1.2461511 0.86577368 -0.14472781 1
1.2632395 2.1411276 -0.13845867 2
1.2015378 -1.7978557 0.047241271 4
1.3930693 -3.9709661 0.54873174 7.1999998
1.3757558 -3.9725344 1.0240043 10.333333
1.3562528 -3.9695954 1.2504704 12
1.2650735 -3.9596229 1.7289675 15
1.3313729 -3.9722149 2.0293858 17
1.5600517 -4.0106769 2.5821416 19.5
1.3792813 -3.9882193 2.54002 19.5
1.4835328 -4.011754 4.3156385 27
1.2678204 -3.9737611 4.3349662 27.5
1.3627384 -3.8097315 4.4961472 28.200001
1.8416048 -1.9048609 -0.03978391 3
1.7697293 -1.4224814 -0.1332981 1.5
1.866733 -1.0627177 -0.15383105 1
1.8124526 -0.63652414 -0.14921527 1
1.6612335 0.1592865 -0.14503364 1
1.8355249 0.52641183 -0.14210886 1
1.8456857 1.5150832 -0.13830297 2
1.6712893 1.651214 -0.13934161 2
1.6571118 -4.0100656 0.56503433 7
1.6611055 -4.0192995 1.0726448 10.5
1.6099551 -4.007381 1.355144 12
1.6051397 -4.013546 2.6046431 20
1.7360353 -4.052772 4.4061446 27
1.7604219 -3.949574 4.4861517 27
2.2158282 -1.8339527 -0.068132512 2.6666667
2.1508434 -1.5605733 -0.12080725 2
2.1943824 -0.51768541 -0.14191225 1
2.2576118 0.96057481 -0.14067428 2
2.0481141 1.2691653 -0.13924353 2
2.205564 -3.1663637 0.37019721 6
2.3026249 5.7428861 0.26367286 4.5
2.1641161 -3.2296808 0.58119476 8
2.1948297 -3.1910353 0.47052968 7
2.3058424 5.7020736 0.4691774 5.5
2.219996 -3.3514929 1.0526352 11.111111
2.2720618 5.6483684 1.0181816 8
2.1662593 -3.3365955 1.2361907 12
2.0809987 5.6284676 1.7858419 12
2.1931806 5.5730548 2.1911855 14
2.2090847 5.6451769 2.0291789 13
2.1202002 -4.1398325 2.7921526 19.5
2.184155 -4.1114631 2.8101561 20
2.3258188 8.4747982 4.4278955 17
2.7024145 -2.0080845 -0.074805178 3
2.6548579 -1.6257876 -0.14182013 2
2.7264848 -1.3334855 -0.14650787 2
2.7100441 -1.0468196 -0.1428643 2
2.6275294 -0.11068723 -0.13997939 2
2.5992355 0.21911514 -0.1428656 2
2.4006979 0.83396047 -0.14214455 2
2.4386928 3.5666916 -0.1245655 2
2.5739307 5.4445138 -0.11228201 3
2.594588 6.6332197 -0.16990928 3
2.6082399 7.9135284 -0.18103959 3
2.4659104 -2.0015569 0.018200137 3
2.4287252 -3.3151546 0.62436062 7.6666665
2.5052168 -3.3432341 1.0579437 11
2.6188867 -2.4816661 4.1682043 29
2.4522557 8.5251045 4.2848945 17
2.8699412 -1.9276764 -0.08081165 3
2.911164 -0.89412451 -0.14088416 2
2.9201405 -0.69695139 -0.14090528 2
2.9807138 -2.4524961 0.084199756 4
2.9938478 -2.4847999 4.188199 28.166666
2.8680358 -2.3880951 4.3257003 29
3.4989862 -2.1280289 -0.073815651 3
3.4545815 0.6725288 -0.13408889 2
3.3620837 0.90451741 -0.13212533 2
3.2088768 1.6534197 -0.13124545 2
3.5811677 -4.3084025 0.69917822 7
3.4703999 -4.2992144 1.4113764 11
3.4548974 -4.3076143 1.7071759 12
3.3846998 -4.3014832 3.1631749 19
3.4563904 -4.3078485 3.2915089 19.5
3.2982857 -4.2797637 3.698174 21
3.7655792 -1.8855128 -0.068829663 3
3.6922541 -2.9353838 0.39119843 6
3.7029505 -4.287322 0.60593081 6.5
3.7577264 -3.9261663 0.65141284 7
3.7198384 -2.9734356 0.62175405 7.3333335
3.7251589 -4.3393378 0.95542955 8
3.7294834 -3.9265568 0.93719018 8
3.7409396 -2.9421692 0.80819827 8
3.9123082 -4.3769622 3.4623482 19.333334
3.9395688 -4.3831353 3.8001814 21
4.0373559 -2.2420244 -0.078818642 3
4.0464373 2.6345787 -0.1163522 3
4.381845 7.6944823 -0.16395435 3
4.1059098 -2.6459742 0.28819191 5
4.0890722 -2.8476079 0.53686219 6.6666665
4.1062713 -2.7259581 0.64819342 7.3333335
4.1551466 -4.5309215 1.4815146 10.5
4.1691341 -4.5272479 1.7271814 12
4.1497378 -4.535996 2.644681 15.5
4.1340613 -4.5060115 2.9141815 17
4.0411348 -4.4088211 3.5251825 19
4.6606002 -1.2730819 -0.0018779878 3
4.6789527 -1.1240022 -0.066889122 3
4.7638865 -0.42729449 -0.10195 3
4.7912607 -0.22032867 -0.10197061 3
4.6198802 4.3989468 -0.059560023 3
4.6119828 -1.6132737 0.20193639 4.5
4.6439219 -1.3598129 0.15038992 4.1428571
4.6974678 -0.95091158 0.18690942 4.5
4.7414718 -0.56825048 0.18072994 4.5
4.7867966 -0.23736389 0.13633661 4.3333335
4.7275853 4.6899786 0.2494082 4.5
4.672091 4.8591194 0.15338491 4
4.7010655 9.2835541 0.27488774 4
4.6075387 -1.6131872 0.62464476 7
4.6351709 -1.3592721 0.62161756 7
4.680438 -1.0195097 0.61168164 7
4.7290149 -0.60765165 0.6039837 7
4.7778888 -0.20967087 0.6073615 7
4.7346416 4.6568766 0.58357924 6
4.6432171 4.8016114 0.49639082 5
4.6234264 -1.6276 1.0221454 9
4.6362581 -1.3540622 1.1042943 9.666667
4.6920271 -0.9357124 1.0116624 9.1999998
4.7330613 -0.58049858 0.97160614 9
4.7862716 -0.23482998 1.056864 9.5
4.7191916 -4.5732555 1.4696884 10
4.6201119 -1.4069741 1.3284171 11.428572
4.6806216 -0.97728062 1.2809327 11.333333
4.7156472 -0.6318469 1.3278401 11.5
4.7744203 -0.19434768 1.3677264 11.6
4.7972093 0.025764069 1.3880037 12
4.6783929 -4.6042323 1.6863538 11
4.6183596 -1.4411286 1.8443838 14.5
4.7307005 -4.5653892 2.0156889 12
4.583786 -1.4499023 2.0841348 15.5
4.6896281 -4.6311383 2.6576316 14.666667
4.6713123 -4.5388823 2.9694383 16.5
4.8160324 -0.064378574 -0.052486751 3
4.8645167 0.20703168 -0.069516018 3
5.0110149 4.3334875 -0.066535518 3
5.0252686 7.9303555 -0.17195649 3
4.8063993 -0.060093869 0.14051273 4.5
4.8414068 0.18680169 0.22880547 5
4.9092021 0.59867972 0.24455845 5
4.9082589 4.653141 0.15142031 4
4.8210669 -0.095867582 0.57801646 7
4.8468285 0.20129842 0.60413027 7
4.9045649 0.59289509 0.61321777 7
4.8821769 4.6015515 0.52092558 5.5
5.0796127 9.3913136 0.65438861 5
4.823071 -0.057946075 1.0397624 9.5
4.8497005 0.20381379 1.0272965 9.5
4.8949471 0.47684935 0.98162001 9.333333
4.9564433 4.6626568 1.025421 7.5
5.0685272 9.3757048 0.83288985 6
4.8225307 -0.017169695 1.2080082 11
4.8443966 0.25733188 1.3642782 11.4
4.8560805 0.44276607 1.4249572 12
4.9118419 4.6394911 1.3054222 9
5.1165633 9.4118423 1.5088875 7
4.8443017 -5.6094127 1.8751605 11
4.8842087 -5.5707874 1.9051627 11
4.8396435 -5.6948414 2.2101572 12
4.8747473 -5.5581203 2.0831633 12
5.012661 -2.4986761 2.3306813 15
5.0510454 -2.239943 2.3606715 15.666667
5.0075679 -2.5405073 2.4701827 16
5.0540609 -2.1875703 2.4228361 16
5.1947594 -0.026737493 2.7820096 18
5.1232915 -0.60971308 3.0670648 19.5
5.1432629 -0.059879836 3.0625129 19.5
5.0989513 -0.56503463 3.3410614 21
5.1328979 -0.03052385 3.3700094 21
5.0377707 -1.3751355 4.7025418 25.333334
5.0676842 -0.93430281 4.695426 25.666666
4.9760499 -1.2910554 5.9971199 29
4.9612412 -1.3473288 6.0216236 29
5.4817004 -2.4055462 -0.13982496 3
5.3693256 -2.0843599 -0.13183747 3
5.5598478 1.0686928 -0.10310841 3
5.5483017 1.3550218 -0.12414234 3
5.4383111 4.2655587 -0.073510461 3
5.2439251 7.4884205 -0.16589954 3
5.5262237 -2.7377346 0.2231857 4
5.5608115 -2.2811747 0.24444734 4.3333335
5.5054159 1.1235081 0.20921777 4.3333335
5.5617509 1.3713356 0.25785592 4.5
5.5134954 -2.5850203 0.57584757 6.1666665
5.5664544 -2.3009179 0.61670369 6.1999998
5.5202303 1.1315105 0.58838373 6.3333335
5.5647225 1.399979 0.61860245 6.25
5.5231986 -2.5303431 0.91197908 7.5999999
5.562151 -2.2129607 0.89566678 8
5.4899611 1.1298723 0.87988341 8
5.5340776 1.3828048 0.97985399 8.5
5.440443 -3.3646905 1.5666986 10.5
5.4876409 -3.0122433 1.4028592 10.333333
5.5737243 -2.2019472 1.4198331 10
5.566268 1.3732777 1.2748557 10
5.4478049 -3.2856665 1.8126975 11.5
5.4756074 -2.9688885 1.7186916 11.5
5.5575681 -2.1817577 1.6891652 11.5
5.5366297 1.3775532 1.7708546 12.5
5.235487 9.4696665 1.7928854 8
5.2044024 -2.3493338 2.2921748 15
5.5748253 1.0773557 2.1748903 14
5.2258363 9.4134455 2.2108908 9
5.3190398 -4.5759153 2.681196 14
5.4483776 -4.071722 2.7592018 15
5.2985411 -4.5373697 2.9763627 15.5
5.4233565 -4.0781894 2.957118 15.833333
5.3095288 -4.5788841 3.3211958 17
5.4931135 -4.0231047 3.2072017 17
5.5609956 0.82283521 3.2559192 19
5.3863792 -3.7332122 3.8179514 19.5
5.4296823 -3.0847409 3.7544439 19.5
5.3830719 -3.6004627 4.1941996 21
5.3799634 -3.5975673 4.0661998 20
5.4437804 -3.0174284 4.0781927 21
5.6844926 1.6601202 -0.12917669 3
5.8745422 4.144733 -0.11447985 3
5.6665931 1.3075286 0.24811503 4.5
5.7342167 1.6603698 0.20699081 4.3333335
5.7580538 4.526731 0.27046886 4.5
5.6929235 1.3730142 0.55919093 6.3333335
5.7328048 1.6692756 0.72026742 6.6666665
5.8021955 4.4878201 0.6086418 5.6666665
5.6682453 1.2876637 0.99486732 8.5
5.7162185 1.626629 1.0250778 8.5
5.6937227 1.5030715 1.4191422 10.2
5.730629 1.694281 1.4873198 10.5
5.9656744 8.4880886 1.4410157 7
5.6165643 1.0233204 1.7593974 12.5
5.711194 1.6320618 1.768827 12
5.6265798 1.003727 2.2116497 14.5
5.604413 0.94914353 2.4639056 15
5.7356238 1.7216737 3.1988163 18
5.8609157 0.65917993 3.3247399 18.799999
6.1601968 8.3835049 0.66853374 5.5
6.0645452 8.6225929 0.5470041 5
6.2479053 8.38025 0.82403708 6
6.0292425 8.4441595 0.8220225 6
6.1156096 8.2915583 1.4280424 7
6.0779657 8.1788101 1.6830536 8
6.7672319 3.8941436 -0.11742151 3
6.5047121 3.9816122 0.27606025 4.5
6.4812298 4.2378979 0.14877847 4
6.5621119 4.6311712 0.14998344 4
6.6126976 4.9426389 0.1774476 4
6.6072049 3.9834363 0.54156303 5
6.4920654 4.2104888 0.58578211 5.5
6.5582552 4.5879769 0.57198852 5.5
6.6315389 4.938695 0.51094866 5
6.5561757 3.9805994 0.83456177 6
6.4852076 4.237421 0.92802852 6.5
6.5421576 4.5933561 0.95448726 6.5
6.6159034 4.8799162 0.97445518 6.5
6.581562 3.9631596 1.3595647 8.5
6.4863338 4.1652613 1.5263706 9
6.5244613 4.4511046 1.2855039 8
6.6972284 3.9536748 1.7989025 10
6.4976816 4.0010548 1.8025576 10
6.5451579 4.4403892 1.6155057 9
6.8356051 3.8621986 1.7045841 10
7.0708447 3.924953 3.0395827 14
7.4561577 3.8458095 0.1263523 3.75
7.4940367 3.8523371 0.61185241 5.5
7.4049196 3.8672886 0.9625985 6.6666665
7.328043 3.8898952 1.3385938 8
7.366508 3.8618455 1.8455981 9.5
7.4327855 3.8763392 2.5285983 12
7.6359181 3.8336577 0.442608 5
7.7508445 3.8278756 2.6036115 12
7.7951417 3.8162873 2.9891133 13.5
7.81354 3.8095381 3.4136145 14
7.8755183 3.6916554 4.0996289 16
8.163353 3.7446632 -0.12436979 3
8.3291273 3.7273402 2.2376356 10
8.0778723 3.7727385 2.6806252 12
8.1317492 3.7650266 2.9536271 13
8.1749458 3.7457273 3.4671299 14
8.4778271 3.7080162 1.7506407 9
8.4218855 3.7109289 2.760639 12
8.4829426 3.7138538 3.04564 13
9.0626974 3.627964 -0.12133925 3
9.2803545 3.597213 1.8736677 9
9.3082762 3.5904789 2.3416691 10
9.2326488 3.6184309 2.6906648 11
9.2786779 3.6193991 2.9786651 12
9.2735205 3.6078475 3.2596662 13
9.2845984 3.6126716 3.7656662 14
9.6908436 3.5491402 2.7946796 11
9.7067928 3.5443182 3.0836799 12
9.7259111 3.5530047 3.3856795 13
9.7497787 3.5414705 3.9256816 14
9.6038504 3.550091 4.0646777 15
10.088316 3.5000477 -0.13230896 3
