# .PCD v0.7 - Point Cloud Data file format
VERSION 0.7
FIELDS x y z intensity
SIZE 4 4 4 4
TYPE F F F F
COUNT 1 1 1 1
WIDTH 1399
HEIGHT 1
VIEWPOINT 0 0 0 1 0 0 0
POINTS 1399
DATA ascii
-1.9498041 -2.5063734 -0.21475218 0
-1.899 -2.4349999 -0.215 0
-1.3103546 -2.0163412 -0.20383045 0
-1.2701409 -2.0571113 -0.20177135 0
-1.3397951 -1.9246057 -0.20350458 0
-1.2655319 -1.9467617 -0.20174566 0
-1.3677458 -1.837678 -0.20331687 0
-1.2622571 -1.8428781 -0.20100918 0
-1.4287068 -1.7550079 -0.2043166 0
-1.3427186 -1.7310541 -0.20246643 0
-1.2899508 -1.7923313 -0.20112549 0
-2.3710001 -1.637 -0.223 0
-1.3506435 -1.6447605 -0.20283616 0
-1.2827702 -1.6941791 -0.20108746 0
-2.2612138 -1.5638092 -0.22127631 0
-1.301 -1.558 -0.20200001 0
-1.271 -1.599 -0.20100001 0
-2.1478117 -1.4882077 -0.21949583 0
-2.0722103 -1.4378067 -0.21830885 0
-1.9588079 -1.3622054 -0.21652839 0
-1.8454058 -1.2866039 -0.21474792 0
-1.7698044 -1.236203 -0.21356094 0
-1.6564021 -1.1606015 -0.21178046 0
-1.543 -1.085 -0.20999999 0
-2.6293864 -0.60944819 -0.23259485 0
-2.5226872 -0.58468562 -0.23039086 0
-2.4356012 -0.56447494 -0.22859201 0
-2.3485155 -0.5442642 -0.22679316 0
-2.2614295 -0.52405351 -0.22499429 0
-2.1743436 -0.50384283 -0.22319543 0
-2.0437145 -0.47352678 -0.22049716 0
-1.9130859 -0.44321072 -0.21779886 0
-1.826 -0.42300001 -0.21600001 0
-2.7219999 0.47400001 -0.235 0
-2.6408901 0.4610962 -0.23546085 0
-2.546 0.44600001 -0.236 0
-2.4418185 0.48675609 -0.22347201 0
-2.365 0.472 -0.22 0
-2.7190001 0.54000002 -0.236 0
-2.663518 0.56195098 -0.23375158 0
-2.5491362 0.53871942 -0.22878224 0
-2.4276905 0.54421943 -0.22415377 0
-2.3528841 0.56684381 -0.22085996 0
-2.6628695 0.63870847 -0.23477322 0
-2.5239396 0.65910691 -0.22922218 0
-2.4467931 0.63940465 -0.22548145 0
-2.3374248 0.67102909 -0.22079951 0
-2.2605 0.64950001 -0.21699999 0
-2.6494014 0.74712211 -0.23616923 0
-2.5681996 0.73561621 -0.23219803 0
-2.4430239 0.7529183 -0.22621936 0
-2.3710184 0.77188718 -0.2227805 0
-2.2585044 0.73597181 -0.21769512 0
-2.5480185 0.82838726 -0.23078048 0
-2.3209352 0.8795802 -0.22252212 0
-2.2469676 0.85179007 -0.21876107 0
-2.1589999 0.84799999 -0.215 0
-4.6520853 0.98448026 -0.25604904 0
-4.52562 0.95856017 -0.25688514 0
-4.4413099 0.94128007 -0.25744256 0
-4.3569999 0.92400002 -0.25799999 0
-2.527 0.95700002 -0.233 0
-2.4534249 0.96209192 -0.22967823 0
-2.3798187 0.93356895 -0.22600868 0
-2.2527313 0.93595648 -0.2202732 0
-2.140069 0.94989866 -0.21505666 0
-2.0699999 0.958 -0.212 0
-4.9545851 1.0464802 -0.25404903 0
-4.8628602 1.0276804 -0.25465548 0
-4.7785501 1.0104003 -0.2552129 0
-4.6281843 1.0922449 -0.25648844 0
-4.5431385 1.0729337 -0.25661632 0
-4.4580922 1.0536225 -0.25674424 0
-4.3730464 1.0343112 -0.25687212 0
-4.2880001 1.015 -0.257 0
-2.4724998 1.0369999 -0.23100001 0
-2.357007 1.0446455 -0.22576933 0
-2.2486944 1.0396125 -0.22106808 0
-2.1528649 1.0606469 -0.21439308 0
-2.0358028 1.0417131 -0.21157952 0
-1.6144501 1.0966986 -0.20472392 0
-1.525438 1.0622914 -0.2018185 0
-4.9530001 1.166 -0.25600001 0
-4.8833227 1.1501786 -0.2561048 0
-4.7557535 1.1212118 -0.25629663 0
-4.5578089 1.187565 -0.25421825 0
-4.4743567 1.1664237 -0.25491369 0
-4.3491783 1.1347119 -0.25595683 0
-4.224 1.103 -0.257 0
-2.4164417 1.1554115 -0.22565514 0
-2.3493068 1.1600583 -0.22004822 0
-2.2551978 1.153756 -0.22131865 0
-2.141818 1.1162784 -0.21747707 0
-1.9652035 1.145813 -0.20987701 0
-1.7636751 1.199548 -0.20958591 0
-1.6733966 1.1668191 -0.20669748 0
-1.5706059 1.1514416 -0.20301974 0
-4.816083 1.2529943 -0.25206599 0
-4.7247133 1.2298474 -0.25282741 0
-4.6412611 1.2087061 -0.25352281 0
-2.5457485 1.2594697 -0.22570336 0
-2.3399999 1.2180001 -0.228 0
-2.2046275 1.2845037 -0.22301614 0
-2.1362207 1.2448778 -0.21926211 0
-2.0678139 1.2052519 -0.21550807 0
-1.9421105 1.2589412 -0.20893905 0
-1.8312368 1.2478977 -0.20971765 0
-1.7159088 1.2591623 -0.20777962 0
-1.6151171 1.2450554 -0.20431535 0
-1.53076 1.2088175 -0.2016571 0
-4.1209054 1.3850204 -0.24745709 0
-4.0424528 1.3595102 -0.24972855 0
-3.964 1.334 -0.252 0
-2.6793065 1.3270583 -0.22954823 0
-2.2590001 1.316 -0.226 0
-2.0506105 1.3279412 -0.21243905 0
-1.9505092 1.3513819 -0.21578626 0
-1.8612117 1.366883 -0.21253949 0
-1.7577639 1.3558776 -0.20904149 0
-1.6394874 1.3600291 -0.20565599 0
-1.5232389 1.3582755 -0.2015148 0
-4.4130001 1.48 -0.23899999 0
-4.3562632 1.4615511 -0.24064271 0
-4.2778106 1.4360409 -0.24291417 0
-4.199358 1.4105306 -0.24518563 0
-3.8399999 1.493 -0.252 0
-2.1140001 1.441 -0.221 0
-2.0521953 1.4467586 -0.21926332 0
-1.9525898 1.4708693 -0.21496272 0
-1.8488653 1.4617372 -0.21252134 0
-1.7344449 1.441273 -0.20295008 0
-1.6573343 1.4781859 -0.2063207 0
-1.5737386 1.4376293 -0.20300917 0
-4.0485964 1.5723634 -0.2533406 0
-3.9234385 1.5247453 -0.25253624 0
-3.3399999 1.572 -0.245 0
-2.016 1.5190001 -0.21699999 0
-1.9674501 1.5560218 -0.21657138 0
-1.8257138 1.5404314 -0.20837988 0
-1.7243822 1.5381409 -0.20872366 0
-4.340632 1.6834719 -0.25521743 0
-4.2571936 1.6517266 -0.2546812 0
-4.1737547 1.6199813 -0.25414497 0
-3.5439537 1.6698122 -0.24333411 0
-3.4215813 1.6111249 -0.24433364 0
-1.8643526 1.6500179 -0.2139035 0
-1.7726079 1.619444 -0.21001375 0
-4.618 1.789 -0.257 0
-4.5492287 1.7628351 -0.256558 0
-4.4240708 1.7152172 -0.25575367 0
-3.7479074 1.7676241 -0.24166821 0
-3.6663258 1.7284994 -0.24233456 0
-3.3225698 1.7660449 -0.24092333 0
-3.2449999 1.725 -0.243 0
-2.5409999 1.757 -0.227 0
-3.9518609 1.8654363 -0.2400023 0
-3.8294888 1.806749 -0.24100184 0
-3.5552795 1.8891795 -0.2346933 0
-3.4389246 1.8276122 -0.23780832 0
-3.1819999 1.896 -0.244 0
-2.650193 1.8337481 -0.2228826 0
-2.5492163 1.855962 -0.22519881 0
-4.1764073 1.9731243 -0.23816821 0
-4.0742331 1.9241235 -0.23900276 0
-3.7104192 1.9712691 -0.23053996 0
-3.6328492 1.9302242 -0.23261663 0
-3.3250239 1.9782735 -0.23427993 0
-3.2535119 1.9371368 -0.23913996 0
-2.8321817 1.9616617 -0.2160203 0
-2.7423425 1.9481343 -0.21747902 0
-2.654866 1.9338483 -0.21979521 0
-2.4660001 1.983 -0.227 0
-3.8727794 2.0571795 -0.22619331 0
-3.7604945 2.0556569 -0.22473165 0
-3.4680481 2.0605469 -0.22455984 0
-3.3965359 2.0194101 -0.22941989 0
-2.9413748 2.0384097 -0.21190292 0
-2.8661649 2.0896206 -0.20898804 0
-2.795732 2.0376966 -0.21259043 0
-2.5632234 2.0613739 -0.21807133 0
-3.8101683 2.1426899 -0.20910366 0
-3.5667801 2.1173418 -0.21784991 0
-3.323 2.1919999 -0.206 0
-3.1233635 2.1663234 -0.2050406 0
-3.0287995 2.1543136 -0.20478439 0
-2.9365978 2.1415448 -0.20538564 0
-2.7252624 2.1919971 -0.20319021 0
-2.6604466 2.1397479 -0.20914266 0
-2.4300001 2.155 -0.229 0
-3.204 2.223 -0.20200001 0
-3.1961589 2.2174888 -0.20229568 0
-2.5412664 2.2521052 -0.20624095 0
-2.4856334 2.2035525 -0.21762048 0
-1.7609906 2.3452756 -0.20697908 0
-2.9142768 -3.6293161 -0.10570009 0
-2.7924457 -3.6494784 -0.10383485 0
-2.8582492 -3.5586846 -0.11663008 0
-2.7387295 -3.5785365 -0.11596431 0
-2.6850133 -3.5075943 -0.12809378 0
-2.8022215 -3.4880528 -0.12756008 0
-2.7461939 -3.4174213 -0.13849007 0
-2.6312971 -3.4366524 -0.14022323 0
-2.6901662 -3.3467898 -0.14942005 0
-2.5775809 -3.3657103 -0.15235269 0
-2.6341386 -3.2761581 -0.16035005 0
-2.5509877 -3.2501473 -0.1678811 0
-2.4701486 -3.2238262 -0.17661162 0
-2.522083 -3.1348948 -0.18221003 0
-2.4164324 -3.152884 -0.18874107 0
-2.4660554 -3.0642633 -0.19314002 0
-1.02 -2.8099999 -0.13 0
-1.1496251 -2.7676582 -0.13166299 0
-1.012357 -2.790102 -0.13116589 0
-0.9804284 -2.7069798 -0.13603634 0
-1.102778 -2.6591699 -0.13851199 0
-0.94849986 -2.6238573 -0.1409068 0
-1.0673057 -2.5770237 -0.14369799 0
-0.91657126 -2.5407348 -0.14577726 0
-1.0318335 -2.4948776 -0.148884 0
-0.99636126 -2.4127312 -0.15406999 0
-0.88464272 -2.4576123 -0.15064771 0
-0.96088898 -2.330585 -0.159256 0
-0.85271418 -2.3744898 -0.15551817 0
-0.33205703 -2.3306918 -0.10256578 0
-0.92541677 -2.2484388 -0.164442 0
-0.82078564 -2.2913673 -0.16038862 0
-0.7888571 -2.208245 -0.16525908 0
-0.4295415 -2.2382059 -0.10636026 0
-0.3418394 -2.2274995 -0.10616546 0
-0.21759814 -2.2586331 -0.10048817 0
-0.88994449 -2.1662927 -0.16962801 0
-0.75692856 -2.1251225 -0.17012954 0
-0.44909281 -2.1647294 -0.10988032 0
-0.3397592 -2.1333098 -0.11139839 0
-0.23983842 -2.155375 -0.10735489 0
-0.1705704 -2.1495907 -0.10535893 0
-0.83673614 -2.0430732 -0.177407 0
-0.72500002 -2.0420001 -0.175 0
-0.45369759 -2.0312431 -0.11546011 0
-0.33733332 -2.029 -0.11766666 0
-0.23550235 -2.0456138 -0.11651507 0
-0.1825 -2.0715001 -0.116 0
-1.2252113 -1.9841666 -0.19965701 0
-1.1851408 -1.9191111 -0.19777134 0
-0.44391006 -1.9908987 -0.11858428 0
-0.37617707 -1.9639636 -0.11690789 0
-0.2194839 -1.9484186 -0.11691885 0
-1.2243546 -1.8828411 -0.19983044 0
-1.1641238 -1.836488 -0.19690044 0
-0.3410269 -1.8488694 -0.11804096 0
-0.24150468 -1.8752279 -0.11753016 0
-0.19583893 -1.8353828 -0.11749227 0
0.19363332 -1.825599 -0.10093344 0
0.5466193 -1.8579807 -0.10353152 0
0.61000001 -1.8335 -0.104 0
0.78036606 -1.8057889 -0.10006536 0
1.1667603 -1.8230135 -0.10277366 0
2.0518982 -1.801878 -0.10499274 0
2.4559686 -1.8199989 -0.10046671 0
-1.233552 -1.7565523 -0.19953367 0
-1.1416667 -1.7543334 -0.19599999 0
-0.33239973 -1.7509253 -0.11828588 0
-0.22987616 -1.761057 -0.11788254 0
-0.19 -1.761 -0.118 0
0.19240832 -1.7373997 -0.11073336 0
0.27759644 -1.7319402 -0.10606621 0
0.31721938 -1.7605357 -0.1002738 0
0.4541558 -1.7427539 -0.1053817 0
0.54928714 -1.7447853 -0.10663358 0
0.63580608 -1.7546378 -0.10603135 0
0.75037479 -1.7384167 -0.10141859 0
0.8425222 -1.7335625 -0.1043876 0
0.9302485 -1.7284431 -0.10071748 0
1.067295 -1.7011602 -0.12350297 0
1.1435905 -1.7503232 -0.11112446 0
1.2643161 -1.7377968 -0.10612581 0
1.3187898 -1.7478949 -0.10747708 0
1.7865289 -1.7221634 -0.10705317 0
1.8797534 -1.7293797 -0.11043082 0
1.9653645 -1.7663274 -0.10815403 0
2.0690813 -1.7348171 -0.11798847 0
2.1708555 -1.7481648 -0.11030126 0
2.2623677 -1.7427281 -0.10969748 0
2.3453066 -1.7437029 -0.10907551 0
2.4230461 -1.737397 -0.10235719 0
2.5931082 -1.736284 -0.1071923 0
-1.2214999 -1.654 -0.199 0
-0.33520833 -1.6521889 -0.11869542 0
-0.296 -1.654 -0.119 0
0.28149998 -1.643 -0.1165 0
0.33028886 -1.6646589 -0.1066732 0
0.46084553 -1.6422585 -0.11052489 0
0.54490268 -1.6493034 -0.11112595 0
0.65350759 -1.649922 -0.1070126 0
0.75566101 -1.659586 -0.10731221 0
0.84630656 -1.6595378 -0.107712 0
0.93753564 -1.6591097 -0.10448351 0
1.0667773 -1.6358708 -0.12649086 0
1.152771 -1.6442156 -0.11706614 0
1.2380002 -1.6601419 -0.11840921 0
1.4793077 -1.640321 -0.10515153 0
1.5525881 -1.6483607 -0.10455443 0
1.66 -1.604 -0.123 0
1.7434528 -1.6238163 -0.11740532 0
1.8439225 -1.6387253 -0.11962288 0
1.9319615 -1.6501616 -0.12255125 0
2.0483897 -1.6382592 -0.12620893 0
2.1452966 -1.6539874 -0.12463174 0
2.2551265 -1.6444167 -0.1268438 0
2.3686755 -1.6519836 -0.12293442 0
2.4526896 -1.6773453 -0.11901541 0
2.5230541 -1.695642 -0.12109615 0
2.7869196 -1.6079553 -0.10609267 0
0.34285402 -1.556035 -0.10636563 0
0.42037079 -1.56269 -0.10779539 0
0.55760175 -1.5605356 -0.11408397 0
0.64909935 -1.5412561 -0.11405759 0
0.75714749 -1.5548054 -0.12228767 0
0.85266918 -1.561399 -0.10946608 0
0.96653575 -1.5606025 -0.13451599 0
1.051138 -1.5488731 -0.13153303 0
1.1451687 -1.5487093 -0.13190311 0
1.2585183 -1.5409092 -0.13458821 0
1.3264999 -1.5375 -0.148 0
1.4575 -1.5815001 -0.1135 0
1.5495034 -1.5538715 -0.11065063 0
1.6471722 -1.5564334 -0.11931282 0
1.7484411 -1.5444356 -0.12653491 0
1.8487567 -1.5491929 -0.12495118 0
1.9548368 -1.5524101 -0.13546865 0
2.038147 -1.5521227 -0.13724841 0
2.131108 -1.5523925 -0.13304688 0
2.226434 -1.5523634 -0.133792 0
2.3107405 -1.5886734 -0.12922022 0
2.4276249 -1.5222681 -0.10939592 0
2.503531 -1.571085 -0.10149491 0
2.6369731 -1.5246518 -0.12603089 0
2.7119465 -1.5663036 -0.11606178 0
0.36449999 -1.49 -0.1125 0
0.4585 -1.4909999 -0.119 0
0.55649996 -1.4925001 -0.12650001 0
0.94966668 -1.4493333 -0.15700001 0
1.0468187 -1.4459679 -0.14442693 0
1.1588116 -1.4488126 -0.14531891 0
1.2478074 -1.4475918 -0.1494377 0
1.35268 -1.4509995 -0.14847824 0
1.474774 -1.4493948 -0.13276704 0
1.5563073 -1.4610263 -0.13276544 0
1.6465925 -1.4388356 -0.13492997 0
1.7639999 -1.4461868 -0.12717821 0
1.8625109 -1.461827 -0.13668278 0
1.9555197 -1.4421762 -0.1387372 0
2.0620492 -1.4564526 -0.14063434 0
2.1615794 -1.4860821 -0.13709186 0
2.2758124 -1.424634 -0.12519796 0
2.3517187 -1.473451 -0.11729695 0
2.562 -1.483 -0.13600001 0
0.99250001 -1.336 -0.155 0
1.0504515 -1.3465018 -0.15031901 0
1.1303018 -1.3447958 -0.15063728 0
1.2370631 -1.3574386 -0.15057994 0
1.3693546 -1.3601854 -0.14800593 0
1.4573946 -1.3457724 -0.14378096 0
1.5547146 -1.35376 -0.13839281 0
1.6472909 -1.3528382 -0.13720521 0
1.7499567 -1.356088 -0.13963471 0
1.8430301 -1.3398343 -0.14168893 0
1.9508963 -1.3389512 -0.14096457 0
2.0415602 -1.3686936 -0.14116658 0
2.1402266 -1.3547043 -0.13902475 0
1.052851 -1.2532614 -0.1532422 0
1.159506 -1.2349944 -0.15174954 0
1.2544432 -1.2652295 -0.15012558 0
1.3374718 -1.2518573 -0.14990267 0
1.4446813 -1.2691519 -0.14778639 0
1.5380907 -1.239069 -0.14412537 0
1.6595088 -1.2483041 -0.14293715 0
1.7565135 -1.2376208 -0.14279407 0
1.8407825 -1.2476797 -0.14186981 0
1.954088 -1.2515043 -0.14141628 0
2.0514932 -1.2482563 -0.14086899 0
2.1276288 -1.2601351 -0.14004213 0
2.3353491 -1.2221503 -0.13501617 0
1.0593333 -1.1466666 -0.15333332 0
1.140481 -1.1497431 -0.15237519 0
1.2448845 -1.1473995 -0.15139079 0
1.3823888 -1.1192424 -0.14882113 0
1.44225 -1.15625 -0.148 0
1.5505227 -1.1437315 -0.14525169 0
1.6343077 -1.1562201 -0.14340132 0
1.739597 -1.1398739 -0.14190862 0
1.8644201 -1.1337365 -0.14182141 0
1.9390935 -1.1793448 -0.14145833 0
2.0514894 -1.1513247 -0.1397872 0
2.1424093 -1.1497804 -0.13849987 0
2.2546206 -1.1806006 -0.13580652 0
1.086 -1.069 -0.153 0
1.1755606 -1.0504471 -0.15242323 0
1.2586944 -1.0206212 -0.15091057 0
1.3205416 -1.0699319 -0.14986585 0
1.4534246 -1.0580989 -0.14669393 0
1.5473197 -1.0607343 -0.14336263 0
1.6418219 -1.0437951 -0.14291252 0
1.7639244 -1.0155632 -0.14183624 0
1.839504 -1.0593566 -0.14135188 0
1.9405743 -1.0464419 -0.14018236 0
2.0438561 -1.0634148 -0.13916077 0
2.1484928 -1.0762942 -0.14023866 0
2.3186226 -1.0134133 -0.13401824 0
1.148949 -0.96343684 -0.15265176 0
1.2757715 -0.94182062 -0.14941277 0
1.3518798 -0.94699562 -0.14782855 0
1.4427122 -0.93844897 -0.14512797 0
1.5657265 -0.95130324 -0.14327376 0
1.6497121 -0.95028162 -0.14266813 0
1.7572803 -0.93171346 -0.14224431 0
1.8685943 -0.97045207 -0.14112084 0
1.9562393 -0.98044133 -0.14160798 0
2.0687716 -0.90697861 -0.13732553 0
2.1515961 -0.94226122 -0.13622917 0
2.2380304 -0.94819033 -0.13504934 0
2.322 -0.95099998 -0.134 0
1.148 -0.84500003 -0.15099999 0
1.2239599 -0.85699856 -0.15027618 0
1.3369627 -0.84053057 -0.1472261 0
1.4559364 -0.85117227 -0.14444898 0
1.553201 -0.8501271 -0.14430365 0
1.6320066 -0.84890079 -0.14315802 0
1.7095987 -0.87871039 -0.1422649 0
1.8202981 -0.80113065 -0.14061458 0
1.9600544 -0.84222227 -0.13863911 0
2.0746088 -0.85198408 -0.13697346 0
2.1581244 -0.88541037 -0.13596965 0
2.2527421 -0.80160969 -0.13471046 0
2.3110001 -0.82200003 -0.134 0
1.174 -0.741 -0.15099999 0
1.2419523 -0.74162924 -0.14858674 0
1.3463894 -0.74535537 -0.14733255 0
1.4785621 -0.75992918 -0.14505187 0
1.5593733 -0.78257352 -0.14443466 0
1.654649 -0.73056531 -0.14280729 0
1.7390101 -0.7420634 -0.14134978 0
1.8240622 -0.75170517 -0.13998483 0
1.953203 -0.74893564 -0.138394 0
2.0834661 -0.7423631 -0.13677481 0
2.1681042 -0.77198642 -0.13574263 0
2.313 -0.70200002 -0.134 0
1.197 -0.63999999 -0.15099999 0
1.2691138 -0.63937706 -0.14955336 0
1.3425494 -0.6351853 -0.14808375 0
1.4676057 -0.66078711 -0.14519829 0
1.57267 -0.67335451 -0.14344993 0
1.6570312 -0.6848526 -0.14199241 0
1.7449141 -0.6238699 -0.14090349 0
1.8295521 -0.65349323 -0.13987131 0
1.9547763 -0.64554596 -0.1378811 0
2.078953 -0.63271928 -0.1361538 0
2.179697 -0.63468027 -0.13598046 0
2.2633131 -0.6582936 -0.13506052 0
2.3199999 -0.64499998 -0.13500001 0
1.205 -0.57200003 -0.15099999 0
1.4910001 -0.53500003 -0.14399999 0
1.5333451 -0.52890962 -0.14370452 0
1.6553178 -0.52857447 -0.14077345 0
1.7445906 -0.53374386 -0.13923076 0
1.8452324 -0.54022676 -0.13966015 0
1.9288485 -0.56384015 -0.13874023 0
2.0295668 -0.56693155 -0.13871755 0
2.155951 -0.54614621 -0.13698599 0
2.2831426 -0.52152431 -0.13537921 0
2.3169999 -0.52899998 -0.13500001 0
1.5559148 -0.45623836 -0.14560054 0
1.6769962 -0.45516175 -0.14300963 0
1.7775453 -0.45456463 -0.14149179 0
1.8608979 -0.42829266 -0.14010835 0
1.9453468 -0.44693899 -0.13916253 0
2.0297956 -0.46558529 -0.13821669 0
2.1142447 -0.48423162 -0.13727087 0
2.2255282 -0.41339433 -0.13710785 0
1.5533501 -0.35261446 -0.14568777 0
1.680169 -0.36147365 -0.14294694 0
1.7428856 -0.31952286 -0.14285293 0
1.8720282 -0.3463943 -0.14160784 0
1.9582853 -0.3627429 -0.1405098 0
2.0445423 -0.37909147 -0.13941176 0
2.1307993 -0.39544007 -0.13831373 0
2.334228 -0.30693495 -0.13907677 0
1.5511795 -0.25015399 -0.14541075 0
1.6494348 -0.25408584 -0.14354011 0
1.7526821 -0.22724164 -0.14482042 0
1.8850914 -0.2453866 -0.14351268 0
1.9733644 -0.25748324 -0.14264084 0
2.0616372 -0.26957992 -0.14176902 0
2.14991 -0.28167656 -0.14089718 0
2.238183 -0.29377323 -0.14002535 0
1.5465328 -0.1614546 -0.14591053 0
1.65847 -0.14384189 -0.14253007 0
2.223 -0.148 -0.13699999 0
2.3628728 -0.13850474 -0.13571773 0
2.478189 -0.13612634 -0.13462099 0
2.5648258 -0.14126332 -0.13390589 0
2.6502857 -0.14633888 -0.13320261 0
2.7 -0.18000001 -0.134 0
1.498 -0.02 -0.146 0
1.5518515 -0.065826252 -0.14583917 0
1.6640046 -0.048351474 -0.14266326 0
1.7602435 -0.040628929 -0.14179613 0
1.8502105 -0.043486357 -0.14087613 0
1.9401773 -0.046343785 -0.13995612 0
2.0301442 -0.049201205 -0.13903613 0
2.1201112 -0.052058626 -0.13811612 0
2.2230585 -0.048687041 -0.13739708 0
2.33307 -0.06343919 -0.135259 0
2.4835367 -0.050089076 -0.13369343 0
2.5742631 -0.052765641 -0.13277046 0
2.6500001 -0.055 -0.132 0
1.4890001 0.068499997 -0.147 0
1.5437315 0.041822746 -0.14567842 0
1.641693 0.050940279 -0.14277534 0
1.7453804 0.052248612 -0.14094348 0
1.835761 0.053497229 -0.13988696 0
1.9261414 0.054745842 -0.13883044 0
2.0165219 0.055994458 -0.13777392 0
2.1610615 0.04124492 -0.1361261 0
2.2749839 0.033619739 -0.13521871 0
2.3618259 0.033993632 -0.13460699 0
2.4486682 0.034367528 -0.13399525 0
2.5656354 0.034744676 -0.13323307 0
2.678 0.0049999999 -0.13500001 0
1.4836668 0.15866666 -0.148 0
1.5545515 0.16378109 -0.14662831 0
1.6422187 0.14403613 -0.14488965 0
1.7489768 0.18472002 -0.14469314 0
1.8363024 0.19329336 -0.14359085 0
2.2493296 0.11325426 -0.13851759 0
2.3703179 0.11701706 -0.13707036 0
2.4509766 0.11952559 -0.13610554 0
2.5316355 0.12203412 -0.13514073 0
2.6196473 0.12477133 -0.13408795 0
1.46 0.264 -0.148 0
1.5462011 0.27836683 -0.14686577 0
1.6290138 0.24632794 -0.14495811 0
1.7213744 0.29605794 -0.14412947 0
1.923628 0.2018667 -0.14248857 0
2.0546165 0.21472672 -0.14083514 0
2.1908026 0.24779336 -0.13959086 0
2.2376094 0.25197989 -0.13898826 0
2.3544369 0.28191951 -0.13795301 0
2.4336553 0.28887928 -0.13692953 0
2.5128736 0.29583901 -0.13590603 0
1.448 0.33399999 -0.149 0
1.5437604 0.36325705 -0.14950775 0
1.6185044 0.37020651 -0.14668895 0
1.71118 0.34770516 -0.14506537 0
1.8355194 0.32213917 -0.14301698 0
1.955609 0.33586892 -0.14170031 0
2.0711398 0.35642883 -0.14035389 0
2.1561232 0.36967385 -0.13938841 0
2.2576206 0.37440562 -0.1389063 0
2.3469949 0.38746357 -0.13803577 0
2.5829999 0.30199999 -0.13500001 0
1.478 0.428 -0.149 0
1.5617783 0.45348155 -0.14837851 0
1.6603074 0.44014943 -0.14805728 0
1.7740481 0.41470835 -0.14570713 0
1.8586888 0.43459392 -0.14446875 0
1.9433295 0.45447952 -0.14323038 0
2.0279701 0.47436506 -0.14199202 0
2.112 0.47499999 -0.14 0
2.4363694 0.40052152 -0.13716523 0
2.5408719 0.41578972 -0.13614735 0
1.4537764 0.54131716 -0.14916304 0
1.5384307 0.54857433 -0.14723036 0
1.6277343 0.59278965 -0.1458872 0
1.7293351 0.5044446 -0.1471355 0
1.8550024 0.54266691 -0.14620325 0
1.98067 0.58088923 -0.14527099 0
2.0952039 0.5096752 -0.14175151 0
2.1429999 0.52200001 -0.141 0
2.2596798 0.54389703 -0.14037436 0
2.3763599 0.56579411 -0.13974874 0
2.4541464 0.58039212 -0.13933165 0
2.516 0.59200001 -0.139 0
1.346 0.66100001 -0.15099999 0
1.4446894 0.64811146 -0.14821605 0
1.5089999 0.60900003 -0.146 0
1.686781 0.62603736 -0.14432052 0
1.748986 0.63661671 -0.14364302 0
1.8517036 0.66710573 -0.14204854 0
1.9768785 0.69773793 -0.14041939 0
2.0644484 0.60637081 -0.14464949 0
2.1501131 0.63242614 -0.144014 0
1.291 0.77499998 -0.15000001 0
1.3449273 0.75521833 -0.14938968 0
1.4526842 0.73720044 -0.1480258 0
1.5443636 0.76004934 -0.14846393 0
1.6421456 0.77681828 -0.14801918 0
1.9275621 0.71707475 -0.13964102 0
2.019557 0.72879207 -0.1391274 0
2.1459229 0.76507944 -0.13911159 0
2.2178843 0.79461914 -0.13866737 0
-1.316 0.89099997 -0.19499999 0
1.2690001 0.82599998 -0.1505 0
1.3640524 0.84907359 -0.14847125 0
1.4294217 0.84428912 -0.1484035 0
1.527402 0.83597046 -0.14712706 0
1.6240166 0.85932708 -0.14634943 0
1.7452121 0.85746753 -0.14606351 0
1.8479638 0.87097424 -0.14589003 0
1.939 0.84200001 -0.141 0
2.0098577 0.87614834 -0.14121343 0
2.2898457 0.82415885 -0.13822317 0
2.326 0.83899999 -0.138 0
-1.465225 0.99384928 -0.19986196 0
-1.3774793 0.95776379 -0.1969395 0
-1.2693334 0.95199996 -0.193 0
0.875 0.96100003 -0.153 0
1.2526666 0.96266669 -0.15233333 0
1.3266852 0.94485116 -0.14917804 0
1.4464543 0.96936077 -0.15012422 0
1.5532258 0.93701208 -0.1479122 0
1.6738042 0.91994095 -0.14525411 0
1.7470052 0.96192622 -0.14431764 0
1.840824 0.94301009 -0.14370094 0
1.9302912 0.90863663 -0.14503837 0
2.0627601 0.94685239 -0.14298287 0
2.1515732 0.94444495 -0.14164029 0
2.2224309 0.97859323 -0.14185371 0
-1.425303 1.0437207 -0.19825988 0
-1.3496758 1.0477437 -0.19551824 0
-1.188 1.0585001 -0.1895 0
0.83450001 1.0615001 -0.156 0
0.93807679 1.0631164 -0.15317211 0
1.1688893 1.0550561 -0.15183331 0
1.2522984 1.0656202 -0.15056491 0
1.3830622 1.0247967 -0.15181659 0
1.4535935 1.0776951 -0.15122488 0
1.5559267 1.0439773 -0.14959875 0
1.6472583 1.0500836 -0.14813295 0
1.7405298 1.0527349 -0.14642094 0
1.8285526 1.0413119 -0.14406854 0
1.9574301 1.0046985 -0.14200827 0
2.177273 1.0216238 -0.14248338 0
2.2396667 1.0293332 -0.142 0
2.3045995 1.0814266 -0.14103666 0
-1.4724703 1.1342334 -0.19958922 0
-1.3220956 1.1784103 -0.19430593 0
-1.2448097 1.1368443 -0.19163829 0
-1.1383333 1.145 -0.18966667 0
0.778 1.15 -0.15700001 0
0.86088932 1.1527779 -0.15544099 0
0.95403254 1.152976 -0.15363206 0
1.06075 1.1626713 -0.15148367 0
1.1356938 1.1520417 -0.15197949 0
1.2099149 1.1215703 -0.15019253 0
1.3510268 1.1607521 -0.15113801 0
1.5593902 1.1570426 -0.15033734 0
1.7383808 1.1683379 -0.14872298 0
1.890373 1.1453131 -0.14522792 0
1.919 1.163 -0.145 0
2.098 1.166 -0.142 0
2.3851991 1.1198531 -0.14007333 0
2.4657986 1.1582798 -0.13910998 0
2.5463982 1.1967063 -0.13814664 0
-1.4373202 1.2505686 -0.19864869 0
-1.3629349 1.2753415 -0.19466573 0
-1.250981 1.2378405 -0.19162518 0
-1.1639826 1.2576777 -0.19039778 0
-1.0705 1.245 -0.1895 0
0.685 1.257 -0.15700001 0
0.75300372 1.234807 -0.15675151 0
0.84397519 1.243847 -0.15629438 0
0.93272328 1.2514448 -0.15460245 0
1.0518281 1.253134 -0.15230323 0
1.1375 1.2179999 -0.15149999 0
1.26966 1.2002809 -0.15077013 0
1.3334901 1.2604214 -0.1501552 0
1.4506428 1.2464032 -0.15002082 0
1.6651869 1.2363901 -0.14944978 0
1.735718 1.2892885 -0.14885807 0
1.8684266 1.2569772 -0.14809875 0
2.1757543 1.2098641 -0.14146377 0
2.2535086 1.2537283 -0.14092752 0
2.3312628 1.2975924 -0.14039129 0
2.6269975 1.2351329 -0.13718329 0
2.7075973 1.2735596 -0.13621996 0
-1.651 1.373 -0.2 0
-1.4277465 1.3359554 -0.19638762 0
-1.3561555 1.3631555 -0.19310059 0
-1.2472554 1.3357614 -0.19154346 0
-1.1012768 1.3432498 -0.18954866 0
-0.98150003 1.357 -0.18799999 0
0.58499998 1.368 -0.15800001 0
0.65519607 1.3488407 -0.15787071 0
0.74176341 1.3551457 -0.15700001 0
0.83301854 1.3620358 -0.15575753 0
0.97017813 1.355231 -0.15431775 0
1.0378419 1.337122 -0.15355568 0
1.1537329 1.3888379 -0.15250641 0
1.3973202 1.3205618 -0.14954026 0
1.4611502 1.3807023 -0.14892533 0
1.550259 1.3320545 -0.14890364 0
1.8221246 1.3540936 -0.14813319 0
2.4478941 1.3633885 -0.13958694 0
2.7881966 1.3119862 -0.13525662 0
2.8687963 1.3504127 -0.13429327 0
2.9493957 1.3888394 -0.13332993 0
-1.5410012 1.4767365 -0.19665372 0
-1.4472847 1.4542879 -0.19467986 0
-1.3424306 1.4487107 -0.19309115 0
-1.2414453 1.4406211 -0.19149671 0
-1.1565536 1.4094996 -0.1900973 0
-1.0547022 1.4429106 -0.18862067 0
-0.90899998 1.429 -0.186 0
-0.85000002 1.489 -0.185 0
0.47499999 1.488 -0.16 0
0.505 1.462 -0.16 0
0.61615175 1.4388815 -0.15754853 0
0.75265557 1.4503269 -0.15724142 0
0.89351487 1.4582286 -0.15500602 0
0.9542821 1.4326633 -0.15534505 0
1.0463227 1.4488988 -0.15367384 0
1.2080994 1.4542569 -0.15175962 0
1.5249803 1.4408426 -0.14831041 0
1.6498752 1.4177058 -0.14778645 0
1.718143 1.4764032 -0.14702082 0
2.5645256 1.4291848 -0.13878258 0
2.6422796 1.4730489 -0.13824634 0
2.977 1.402 -0.133 0
-1.6360015 1.5676708 -0.19831714 0
-1.5414317 1.5484316 -0.19575824 0
-1.4613957 1.576066 -0.19488671 0
-1.3692169 1.5494105 -0.19245622 0
-1.2671072 1.5419995 -0.19119461 0
-1.1350168 1.5632355 -0.18949962 0
-1.0361106 1.5419474 -0.18828295 0
-0.95614702 1.5005777 -0.18671435 0
-0.89014173 1.5553795 -0.18544851 0
-0.77250004 1.5634999 -0.18349999 0
0.384 1.582 -0.162 0
0.44111827 1.5493351 -0.16026504 0
0.51591504 1.552887 -0.15978423 0
0.66287935 1.5452039 -0.15687132 0
0.75608826 1.541522 -0.15711212 0
0.83818448 1.5218611 -0.15700001 0
0.98795348 1.5451164 -0.15521395 0
1.0360212 1.5698068 -0.15481666 0
1.2624658 1.5196759 -0.15101284 0
1.3168323 1.5850948 -0.15026604 0
1.5888103 1.5009831 -0.14769547 0
1.6568202 1.5650618 -0.14704028 0
2.7589111 1.5388451 -0.13744199 0
2.823 1.575 -0.13699999 0
-5.8396511 1.6955336 -0.16728011 0
-5.7583256 1.6662668 -0.17764005 0
-5.677 1.637 -0.18799999 0
-1.6515 1.62 -0.198 0
-1.543919 1.6511625 -0.19618969 0
-1.4400313 1.6677117 -0.19290207 0
-1.3529398 1.644948 -0.19173202 0
-1.2436428 1.6406955 -0.18996008 0
-1.1698544 1.6504787 -0.19027442 0
-1.050441 1.6437333 -0.18814304 0
-0.95035422 1.6549488 -0.18612128 0
-0.8402065 1.642442 -0.18403512 0
-0.75230235 1.663841 -0.18212038 0
-0.64166665 1.6276666 -0.17766666 0
-0.54949999 1.6795 -0.175 0
0.26249999 1.681 -0.163 0
0.34531799 1.6476275 -0.16226967 0
0.44683826 1.654166 -0.160849 0
0.55609339 1.6483101 -0.15928076 0
0.71630347 1.6667631 -0.15609705 0
0.97399998 1.609 -0.155 0
1.018746 1.6875455 -0.15461591 0
1.1195641 1.6404204 -0.15444995 0
1.3711988 1.6505138 -0.14951925 0
1.409 1.696 -0.149 0
4.369 1.604 -0.133 0
4.4644089 1.6455418 -0.12523945 0
4.5689092 1.6910418 -0.11673944 0
-6.0429649 1.7687007 -0.14138027 0
-5.9209766 1.7248005 -0.15692016 0
-1.5485369 1.7500601 -0.19381133 0
-1.446898 1.7575423 -0.19327992 0
-1.3328419 1.7420498 -0.19123533 0
-1.2455497 1.7545333 -0.19112733 0
-1.144735 1.7868886 -0.18957174 0
-1.047631 1.7603658 -0.18753029 0
-0.86325598 1.749468 -0.18477188 0
-0.72269309 1.7677987 -0.17994569 0
-0.65670925 1.7380466 -0.17814319 0
-0.55522197 1.7657942 -0.17501934 0
-0.44990295 1.7455676 -0.17058149 0
-0.37 1.742 -0.167 0
0.1495 1.7595 -0.16350001 0
0.24322926 1.7500198 -0.16231206 0
0.35927376 1.7465632 -0.16223308 0
0.46281973 1.7475834 -0.16120382 0
0.53196746 1.7369783 -0.1596927 0
0.61115998 1.7571765 -0.15827383 0
0.88800001 1.737 -0.156 0
1.0634921 1.7660912 -0.15423183 0
1.1710854 1.7152272 -0.1542666 0
1.2543035 1.7875171 -0.15304163 0
1.4634318 1.7618142 -0.14914593 0
3.895 1.76 -0.122 0
3.9769566 1.7960064 -0.12032528 0
4.1890001 1.772 -0.13 0
-6.3049998 1.863 -0.108 0
-6.2462788 1.8418679 -0.11548042 0
-6.1649532 1.8126011 -0.12584035 0
-5.1053514 1.8794947 -0.14536683 0
-5.0291758 1.8482473 -0.15668342 0
-4.9530001 1.817 -0.168 0
-1.6121476 1.8632405 -0.1892453 0
-1.5054859 1.8304892 -0.18684995 0
-1.4372405 1.8782884 -0.1895102 0
-1.335849 1.8421177 -0.19159606 0
-1.277 1.89 -0.191 0
-1.1489477 1.8543329 -0.18993622 0
-1.0503471 1.8759706 -0.18250456 0
-0.95180434 1.822378 -0.18594009 0
-0.85291702 1.8675325 -0.18399473 0
-0.73641586 1.8726794 -0.18056741 0
-0.65805376 1.8484918 -0.17853564 0
-0.55884951 1.8618525 -0.174805 0
-0.44731656 1.8760146 -0.17020763 0
-0.33602238 1.8413955 -0.16971226 0
-0.29800001 1.819 -0.168 0
0.16456233 1.8563989 -0.16333334 0
0.25906682 1.8439614 -0.16208009 0
0.33994409 1.84236 -0.16249903 0
0.43719086 1.8531107 -0.16135569 0
0.5565266 1.8383141 -0.1593935 0
0.61472535 1.8509495 -0.15900001 0
0.82800001 1.832 -0.15800001 0
0.94610977 1.8564765 -0.156 0
1.0470001 1.882 -0.154 0
1.1082381 1.8446369 -0.15384774 0
1.2741281 1.8648409 -0.15389989 0
1.3390169 1.8568981 -0.1515733 0
1.459 1.832 -0.15000001 0
1.5450795 1.8605357 -0.14936483 0
4.0589132 1.832013 -0.11865056 0
4.1408696 1.8680195 -0.11697584 0
4.2670221 1.8036178 -0.12622473 0
4.3450441 1.8352356 -0.12244947 0
4.4230666 1.8668535 -0.1186742 0
4.5010886 1.8984714 -0.11489894 0
-5.333879 1.9732364 -0.1114171 0
-5.2577028 1.9419892 -0.12273367 0
-5.1815271 1.9107419 -0.13405025 0
-1.7322952 1.9994808 -0.18449061 0
-1.6453395 1.951414 -0.18070889 0
-1.5428178 1.9195265 -0.18479577 0
-1.459298 1.9620788 -0.18514913 0
-1.3514473 1.948518 -0.18757218 0
-1.239 1.9299999 -0.191 0
-1.1737156 1.9551585 -0.18909547 0
-1.0477517 1.9820366 -0.17769034 0
-0.96230745 1.924973 -0.18253684 0
-0.8655709 1.9591539 -0.17944476 0
-0.76508665 1.969632 -0.17806204 0
-0.64379996 1.9432436 -0.17591292 0
-0.54756719 1.9475765 -0.17315559 0
-0.44945407 1.9484915 -0.16918373 0
-0.34538883 1.9464737 -0.16844131 0
-0.24733333 1.9673333 -0.16766667 0
-0.19599999 1.962 -0.167 0
0.16855955 1.9663574 -0.163 0
0.23363565 1.9476304 -0.162 0
0.34692553 1.9581347 -0.16192985 0
0.46396491 1.9613396 -0.16108821 0
0.62674075 1.9798788 -0.16 0
0.88176537 1.9544747 -0.15832487 0
0.90799999 1.937 -0.15700001 0
1.0472944 1.9661399 -0.15486056 0
1.1529841 1.9231825 -0.15346365 0
1.3588417 1.934222 -0.15243158 0
1.5424793 1.9367111 -0.14967832 0
1.6267271 1.9592572 -0.14958373 0
4.2228265 1.9040259 -0.11530112 0
4.3457613 1.9580357 -0.11278903 0
4.5791106 1.9300892 -0.11112368 0
4.6710663 1.9673536 -0.10667421 0
-5.4039998 2.0020001 -0.101 0
-1.792369 2.067601 -0.18211326 0
-1.6561358 2.0600529 -0.17659155 0
-1.5457215 2.0218651 -0.18453059 0
-1.4505312 2.0443425 -0.17583039 0
-1.3570902 2.0576038 -0.18299636 0
-1.264725 2.023654 -0.18465756 0
-1.1370413 2.0349116 -0.17451368 0
-1.0419225 2.0869186 -0.17661047 0
-0.95468098 2.0246363 -0.1774382 0
-0.84784377 2.0494235 -0.17426619 0
-0.74934721 2.071229 -0.17641222 0
-0.64842069 2.0476935 -0.17353946 0
-0.53139341 2.0719781 -0.17023033 0
-0.44089279 2.065954 -0.16578662 0
-0.34666342 2.0498841 -0.16720966 0
-0.22704464 2.0603435 -0.16435151 0
0.164929 2.0586748 -0.16354772 0
0.22159043 2.0590868 -0.16249999 0
0.37339139 2.0637455 -0.16169073 0
0.44288471 2.0157063 -0.1610225 0
0.65251541 2.0634294 -0.16 0
0.95633155 2.0623226 -0.15767114 0
1.0429595 2.055604 -0.156 0
1.1657342 2.016191 -0.15326089 0
1.2582381 2.0681367 -0.15234774 0
1.3771708 2.0144544 -0.15353321 0
1.4572701 2.0541828 -0.15145431 0
1.6535587 2.033247 -0.14954314 0
1.7355906 2.0908859 -0.14987558 0
4.4686961 2.0120454 -0.11027696 0
4.550653 2.0480518 -0.10860224 0
4.6326094 2.0840583 -0.10692752 0
-3.8873365 2.1863801 -0.19720733 0
-1.8524427 2.1357212 -0.1797359 0
-1.7596725 2.1476903 -0.15917468 0
-1.6542027 2.165442 -0.17955099 0
-1.5448232 2.1317527 -0.17271344 0
-1.4585881 2.1444473 -0.18614271 0
-1.3571749 2.1739621 -0.17097266 0
-1.2458464 2.1345882 -0.17474282 0
-1.1305032 2.1425734 -0.16938068 0
-1.032362 2.1872721 -0.17037639 0
-0.94280845 2.1479743 -0.17622285 0
-0.84404212 2.132041 -0.17564014 0
-0.77013671 2.1577737 -0.17652431 0
-0.65347803 2.1547391 -0.1725776 0
-0.55847102 2.1463156 -0.16982205 0
-0.44804192 2.1470206 -0.16432299 0
-0.34799781 2.1384869 -0.16350682 0
-0.23708928 2.1500199 -0.16170304 0
0.19021906 2.1789699 -0.1634773 0
0.25286305 2.1078587 -0.162 0
0.35800001 2.1010001 -0.161 0
0.41441917 2.1645837 -0.16204447 0
0.97137439 2.1585989 -0.15886632 0
1.0535815 2.1541367 -0.15668184 0
1.1771072 2.1049809 -0.1531633 0
1.2538493 2.1690636 -0.1525979 0
1.3409692 2.1589038 -0.15172777 0
1.4802134 2.164068 -0.1531665 0
1.5510844 2.1444907 -0.14986652 0
1.6816117 2.1112297 -0.14914216 0
1.7596322 2.1640186 -0.14946385 0
4.678 2.1040001 -0.106 0
-4.0416732 2.2737603 -0.17341466 0
-3.964505 2.2300701 -0.18531099 0
-3.4736195 2.2885251 -0.18709716 0
-3.3983097 2.2402625 -0.19654858 0
-3.0691547 2.2474644 -0.17172696 0
-2.944 2.2809999 -0.116 0
-2.8569643 2.2981653 -0.1910951 0
-2.7900779 2.2442465 -0.19723774 0
-1.9425535 2.2379017 -0.17616987 0
-1.8261127 2.2708426 -0.16428521 0
-1.7509921 2.2182243 -0.180675 0
-1.6658943 2.2562363 -0.1734474 0
-1.557237 2.2405906 -0.1718609 0
-1.4278316 2.229619 -0.16453664 0
-1.3546735 2.2775822 -0.17629293 0
-1.2560958 2.2416496 -0.16986306 0
-1.1395298 2.2507546 -0.17916885 0
-1.0629351 2.2425916 -0.17518844 0
-0.96816587 2.2624879 -0.17219274 0
-0.86076635 2.2445583 -0.17470379 0
-0.75434339 2.2557199 -0.17269039 0
-0.6543535 2.2554669 -0.16716249 0
-0.56084251 2.2441394 -0.17040376 0
-0.45734283 2.2438939 -0.1597645 0
-0.3682619 2.240828 -0.15834564 0
-0.24713393 2.239697 -0.15905453 0
0.1973286 2.269455 -0.16421595 0
1.0359181 2.24597 -0.15828389 0
1.1398091 2.2547312 -0.156 0
1.2638453 2.2536352 -0.15260549 0
1.3319683 2.237365 -0.15192731 0
1.4079384 2.2618077 -0.15145554 0
1.527 2.2320001 -0.153 0
1.6306098 2.2523379 -0.14922649 0
1.7929175 2.2508445 -0.14871323 0
-4.1574254 2.3392954 -0.15557015 0
-3.6242387 2.3850501 -0.16819432 0
-3.548929 2.3367877 -0.17764574 0
-3.1209943 2.3028548 -0.10781552 0
-3.0151024 2.3365457 -0.10538498 0
-2.9288681 2.3548522 -0.1804705 0
-2.6500001 2.3469999 -0.184 0
-2.5968997 2.3006577 -0.19486143 0
-2.0326643 2.3400819 -0.17260385 0
-1.9291302 2.3591576 -0.14072454 0
-1.864656 2.3582988 -0.17656666 0
-1.7175434 2.3297756 -0.17052196 0
-1.6497797 2.3580921 -0.16040115 0
-1.5552707 2.3528121 -0.16698909 0
-1.4496247 2.32427 -0.15728778 0
-1.3524563 2.3499796 -0.17511573 0
-1.2553605 2.3570991 -0.16628788 0
-1.1612744 2.3377659 -0.16812487 0
-1.0375423 2.3647649 -0.16601305 0
-0.93639016 2.3561878 -0.16731961 0
-0.84695148 2.3381629 -0.16512614 0
-0.74390978 2.3513787 -0.17327616 0
-0.64842266 2.3467531 -0.16432191 0
-0.5402084 2.350271 -0.16032879 0
-0.44090542 2.3435833 -0.1547223 0
-0.35713211 2.3523207 -0.15865129 0
-0.25717857 2.3293736 -0.15640606 0
0.20443814 2.3599398 -0.16495462 0
1.0430615 2.3218985 -0.15929946 0
1.150846 2.3522861 -0.15680306 0
1.3419644 2.3219364 -0.15193491 0
1.4570917 2.3746264 -0.15117525 0
1.7101351 2.3601854 -0.14858644 0
1.8485703 2.3206518 -0.14849877 0
1.9042232 2.3904591 -0.1482843 0
-4.4275146 2.4922106 -0.11393298 0
-4.3503461 2.4485207 -0.12582931 0
-4.2731781 2.4048305 -0.13772565 0
-3.7748582 2.4815753 -0.14929149 0
-3.6995485 2.4333127 -0.1587429 0
-3.0706043 2.4665563 -0.1594115 0
-2.9997363 2.4107041 -0.16994101 0
-2.1489999 2.4719999 -0.168 0
-2.0532985 2.4365468 -0.15086296 0
-1.949904 2.4633548 -0.1734854 0
-1.8422489 2.4645369 -0.1794873 0
-1.7501463 2.4255054 -0.15392688 0
-1.6920584 2.4715943 -0.17989762 0
-1.5420747 2.4745781 -0.14360288 0
-1.4412947 2.4245372 -0.16508594 0
-1.3537767 2.4322648 -0.15453649 0
-1.2527063 2.4623442 -0.16688648 0
-1.1658224 2.4301291 -0.15948884 0
-1.0510694 2.446485 -0.16722603 0
-0.94689363 2.4699035 -0.16376011 0
-0.8483876 2.4339702 -0.16902928 0
-0.75023162 2.4331021 -0.16200781 0
-0.64263922 2.4290485 -0.16217309 0
-0.55351466 2.4547601 -0.15729707 0
-0.44533572 2.4427557 -0.14879382 0
-0.34573597 2.4650919 -0.15015975 0
-0.24738236 2.4285719 -0.1566878 0
0.21154766 2.4504249 -0.16569327 0
1.0789051 2.4035482 -0.15951604 0
1.1465862 2.4606483 -0.15843618 0
1.227 2.434 -0.156 0
1.3542917 2.4086447 -0.15202385 0
1.4400001 2.427 -0.15099999 0
1.52 2.434 -0.15099999 0
1.7730761 2.4455419 -0.14807987 0
1.9689381 2.4716334 -0.14803493 0
-4.4660001 2.5139999 -0.108 0
-3.9254777 2.5781004 -0.13038865 0
-3.850168 2.5298378 -0.13984007 0
-3.2123406 2.5782607 -0.1383525 0
-3.1414723 2.5224085 -0.148882 0
-2.046 2.5050001 -0.12800001 0
-1.9514999 2.5225 -0.17300001 0
-1.84 2.5539999 -0.146 0
-1.7630178 2.5454421 -0.16343307 0
-1.6383317 2.5636191 -0.13503665 0
-1.5599356 2.5702262 -0.13544756 0
-1.4584937 2.5388579 -0.16610533 0
-1.337268 2.5541649 -0.15492035 0
-1.2586879 2.5529995 -0.14995424 0
-1.1432667 2.5534077 -0.15902913 0
-1.0654343 2.5347617 -0.15851127 0
-0.9388901 2.5552185 -0.15986331 0
-0.83709586 2.5486629 -0.1563305 0
-0.75005591 2.5205307 -0.15868923 0
-0.6462695 2.5409234 -0.15926953 0
-0.56265879 2.5469153 -0.15448652 0
-0.46657762 2.5425158 -0.14595768 0
-0.37233746 2.5757675 -0.14772104 0
-0.25300506 2.5430641 -0.15875024 0
0.2186572 2.5409098 -0.16643192 0
1.1547961 2.5764236 -0.1599746 0
1.2261183 2.5761914 -0.1579849 0
-4.0363936 2.6491814 -0.11646862 0
-3.3540766 2.6899648 -0.11729351 0
-3.2832086 2.6341128 -0.127823 0
-1.5555 2.6185002 -0.1505 0
-1.4518121 2.6296346 -0.14159834 0
-1.3386997 2.6634657 -0.15007406 0
-1.2297404 2.6893668 -0.13875376 0
-1.1558684 2.6330385 -0.15370396 0
-1.0352621 2.664989 -0.14400524 0
-0.96004176 2.6494038 -0.14860326 0
-0.86200649 2.6578434 -0.15233594 0
-0.75503504 2.6435831 -0.15086627 0
-0.63696659 2.662904 -0.15307969 0
-0.53965086 2.637316 -0.14724228 0
-0.4409419 2.6433725 -0.14211667 0
-0.37268507 2.6670992 -0.14654268 0
-0.26799941 2.6532307 -0.15256292 0
0.22576672 2.6313949 -0.16717057 0
-3.4249449 2.7458169 -0.10676401 0
-1.2359999 2.7030001 -0.138 0
-1.158559 2.7155702 -0.1530471 0
-1.0464451 2.7372251 -0.14194019 0
-0.95955187 2.7471783 -0.14437564 0
-0.85495156 2.7683721 -0.14541501 0
-0.75560343 2.7785976 -0.14895576 0
-0.64746457 2.7554164 -0.14855939 0
-0.54436165 2.7498703 -0.13805209 0
-0.45335189 2.7494552 -0.14462014 0
-0.35962877 2.7576125 -0.13261485 0
-0.27647591 2.7430453 -0.15050048 0
0.23287626 2.7218797 -0.16790922 0
-0.73900002 2.813 -0.153 0
-0.64675403 2.8280694 -0.14611992 0
-0.54764962 2.8526957 -0.13106143 0
-0.4577409 2.859787 -0.13620231 0
-0.34066987 2.8579555 -0.12785538 0
-0.27064109 2.8792996 -0.167 0
0.23998579 2.8123646 -0.16864787 0
-0.74467105 2.962579 -0.13587999 0
-0.68150806 2.9161177 -0.13362424 0
-0.57205886 2.9368107 -0.10894851 0
-0.46180901 2.9671454 -0.12384856 0
-0.31200001 2.9089999 -0.125 0
0.25004765 2.9404249 -0.16969326 0
-0.74642402 3.0817401 -0.11793319 0
-0.68924296 3.004247 -0.12391112 0
-0.47661802 3.0542908 -0.11769712 0
-0.81129843 3.154686 -0.11840555 0
-0.73048586 3.1734939 -0.10882224 0
-0.49142706 3.1414361 -0.11154568 0
-0.83237302 3.2388573 -0.10875693 0
-0.75110734 3.2581172 -0.1012778 0
-0.50623608 3.2285814 -0.10539424 0
-2.836 -3.707 -0.093999997 0
-2.964 -3.6919999 -0.096000001 0
-0.61400002 -2.8540001 -0.044 0
-0.52616596 -2.8533244 -0.030441049 0
-0.43151319 -2.8587716 -0.049146395 0
-0.32385516 -2.8482504 -0.026301038 0
-0.2480813 -2.8795414 -0.034231789 0
-0.60183519 -2.7915637 -0.049422882 0
-0.54776639 -2.7296386 -0.049782198 0
-0.47761416 -2.7334676 -0.028654413 0
-0.36718595 -2.7441895 -0.053960275 0
-0.24718304 -2.7528248 -0.049344245 0
-0.5676496 -2.6161051 -0.06466224 0
-0.47361207 -2.6542394 -0.044543877 0
-0.35684013 -2.6565187 -0.062497195 0
-0.25089094 -2.6531694 -0.042517792 0
-0.55055678 -2.5283759 -0.072281919 0
-0.45855129 -2.5676861 -0.055810869 0
-0.36600932 -2.5538294 -0.079660863 0
-0.27520302 -2.5506659 -0.055107627 0
-0.19563717 -2.5482492 -0.061974112 0
-5.2690001 -2.401 -0.028000001 0
-0.53346401 -2.4406466 -0.079901598 0
-0.43835872 -2.4508197 -0.075303651 0
-0.35328081 -2.4474669 -0.086564586 0
-0.26440465 -2.4481206 -0.06395103 0
-0.18728158 -2.4153628 -0.076435715 0
-5.1900749 -2.3667736 -0.013568706 0
-0.51637119 -2.3529172 -0.087521277 0
-0.43352485 -2.3487258 -0.077735201 0
-0.36062169 -2.3342474 -0.092631757 0
-0.25235364 -2.3458338 -0.082419537 0
-0.1817112 -2.3267722 -0.086076796 0
-0.4527517 -2.2757339 -0.084726684 0
-0.25555462 -2.2576838 -0.09017545 0
-0.1761408 -2.2381816 -0.095717862 0
-0.38848335 -2.1995196 -0.088874936 0
2.721 -2.1059999 -0.053999998 0
1.5319999 -2.0009999 -0.0019999966 0
1.6518377 -2.0146933 -0.037564136 0
1.7590339 -2.0242116 -0.030710239 0
1.8620902 -2.0252571 -0.055980574 0
1.9402494 -2.0313478 -0.051915497 0
2.0296028 -2.0338316 -0.047071226 0
2.1172838 -2.046524 -0.048728693 0
2.2399304 -2.0345728 -0.05381177 0
2.3463454 -2.0496979 -0.052288186 0
2.44801 -2.0635698 -0.057818152 0
2.6442003 -2.0379505 -0.06151532 0
2.7385933 -2.0226641 -0.063755661 0
2.8320918 -2.0577939 -0.031214382 0
0.94099998 -1.9375 -0.0735 0
1.0779999 -1.9450001 -0.081 0
1.1655 -1.9535 -0.055999998 0
1.2431165 -1.9297695 -0.061810683 0
1.3410314 -1.9518279 -0.051282901 0
1.4504013 -1.9637249 -0.030440751 0
1.5425876 -1.9501234 -0.0160155 0
1.6440729 -1.9509187 -0.054520246 0
1.7560313 -1.9510795 -0.05497212 0
1.8546385 -1.9625993 -0.059864279 0
1.942722 -1.9388767 -0.055322636 0
2.0562353 -1.9304698 -0.079618275 0
2.155194 -1.9306507 -0.072393633 0
2.244334 -1.9402013 -0.071355104 0
2.344749 -1.9406538 -0.060372546 0
2.4571264 -1.9651449 -0.053053036 0
2.5601876 -1.9437647 -0.076634504 0
2.6374846 -1.9605407 -0.068534672 0
2.7339692 -1.9585043 -0.050818026 0
2.8463793 -1.9766904 -0.062530816 0
0.19400001 -1.852 -0.097999997 0
0.2245 -1.8545001 -0.0020000001 0
0.33757684 -1.8577337 -0.089742161 0
0.45655409 -1.8624636 -0.070047036 0
0.74458432 -1.8580129 -0.099477053 0
0.86100674 -1.8425452 -0.093198642 0
0.95431447 -1.8437541 -0.091249332 0
1.0370833 -1.8388067 -0.0894619 0
1.1402721 -1.8682561 -0.058412958 0
1.25404 -1.8486335 -0.07860706 0
1.3605379 -1.8503934 -0.081489675 0
1.4484075 -1.8519148 -0.046890978 0
1.5571706 -1.8637137 -0.065065235 0
1.6384013 -1.8632199 -0.058437116 0
1.746758 -1.8504605 -0.073981278 0
1.8451654 -1.8704736 -0.067373201 0
1.9446902 -1.8698677 -0.087119631 0
2.0348871 -1.835883 -0.079596363 0
2.137161 -1.8399707 -0.089720003 0
2.233952 -1.8335835 -0.068420388 0
2.3258197 -1.8338394 -0.092619628 0
2.4417241 -1.8489817 -0.088461652 0
2.5530596 -1.858986 -0.080030382 0
2.6382511 -1.8500212 -0.074328475 0
2.733216 -1.8175681 -0.079384595 0
2.8441107 -1.8521267 -0.061490178 0
2.931 -1.846 -0.056999996 0
0.28919289 -1.7968802 -0.095132425 0
0.36375687 -1.7662089 -0.099882714 0
0.43395194 -1.7461553 -0.076497369 0
0.86298847 -1.7686181 -0.099081576 0
0.94262838 -1.7422769 -0.096900448 0
1.0432768 -1.7508361 -0.084350809 0
1.1512773 -1.7530744 -0.067214549 0
1.2460473 -1.7612417 -0.065424353 0
1.3500594 -1.7304815 -0.066636711 0
1.4523164 -1.7533619 -0.072325282 0
1.5411974 -1.7493445 -0.078353144 0
1.654677 -1.7374436 -0.085789599 0
1.7465029 -1.7507385 -0.082687639 0
1.8310287 -1.7806228 -0.084986284 0
1.9503298 -1.7455399 -0.089693561 0
2.0606086 -1.7257183 -0.085739523 0
2.1415572 -1.7601637 -0.059051588 0
2.4586635 -1.7750473 -0.091299258 0
2.5262551 -1.7516285 -0.09543699 0
2.663162 -1.776926 -0.093288437 0
2.7312498 -1.7175361 -0.077791847 0
2.8071561 -1.7663531 -0.069890827 0
3.0493259 -1.7537365 -0.071200773 0
3.1110001 -1.788 -0.063000001 0
0.38341606 -1.6511403 -0.089462504 0
0.42063764 -1.6385014 -0.09165667 0
0.95843756 -1.6487679 -0.097659081 0
1.0476758 -1.6777519 -0.08324752 0
1.1509466 -1.6519769 -0.082464673 0
1.2422432 -1.6520418 -0.081706904 0
1.3618016 -1.6308007 -0.087743849 0
1.4537781 -1.6571324 -0.084683925 0
1.5722914 -1.648339 -0.089566998 0
1.6536841 -1.6587782 -0.093665622 0
1.9964691 -1.6376483 -0.08738476 0
2.0090001 -1.648 -0.086000003 0
2.5794373 -1.619902 -0.093593888 0
2.6553435 -1.6687191 -0.085692868 0
2.8618927 -1.6496071 -0.096123554 0
2.936866 -1.6912589 -0.086154446 0
1.0395 -1.582 -0.096000001 0
1.1295 -1.5550001 -0.098000005 0
1.2435 -1.576 -0.092999995 0
1.3655 -1.576 -0.096000001 0
1.513 -1.586 -0.093999997 0
1.6 -1.6 -0.098999999 0
1.9290355 -1.5819423 -0.094836667 0
-3.1929884 2.3567095 -0.096631035 0
-3.0862048 2.3920915 -0.094769955 0
-3.336977 2.4644189 -0.074262068 0
-3.2649827 2.4105642 -0.085446551 0
-3.1573069 2.4476376 -0.084154934 0
-3.4449682 2.5452008 -0.057485342 0
-3.2639604 2.5309563 -0.068232402 0
-3.624954 2.6798377 -0.029524133 0
-3.5529597 2.625983 -0.040708616 0
-3.4417162 2.6698208 -0.041694857 0
-3.3706141 2.614275 -0.052309878 0
-3.7689424 2.7875471 -0.0071551725 0
-3.6969481 2.7336922 -0.018339649 0
-3.5483699 2.7531395 -0.025772326 0
-3.6550233 2.8364584 -0.0098497942 0
-3.5666809 2.8575211 -0.08570502 0
-3.4958129 2.8016691 -0.096234515 0
-3.632 2.9089999 -0.075999998 0
-0.58811772 3.0216217 -0.094897017 0
-0.76157844 3.1724465 -0.096171677 0
-0.61220598 3.1488378 -0.073819771 0
-0.7839731 3.2590582 -0.082964599 0
-0.63629425 3.2760541 -0.052742533 0
-0.82990766 3.3343492 -0.084432915 0
-0.77172881 3.3427408 -0.093733363 0
-0.65235311 3.3608649 -0.038691036 0
-0.52104509 3.3157268 -0.099242806 0
-0.86542815 3.4401608 -0.075670049 0
-0.79235029 3.4273641 -0.086188927 0
-0.66841197 3.4456758 -0.024639539 0
-0.54325861 3.4464447 -0.09001565 0
-0.83157849 3.5134466 -0.061171681 0
-0.68400002 3.5280001 -0.011 0
-0.56547213 3.5771627 -0.080788501 0
-0.88474882 3.6488106 -0.023532737 0
-0.57700002 3.645 -0.075999998 0
-0.90600002 3.7309999 -0.010999996 0
-1.1888505 4.4313779 -0.0019904729 0
-1.209 4.5180001 -0.013 0
-0.51933753 -2.8394194 0.018531382 0
-0.32278362 -2.8652329 0.020986632 0
-0.30772641 -2.7539694 0.0021984577 0
-5.1111498 -2.3325472 0.00086258911 0
1.152645 -2.3543057 0.09987063 0
2.8340642 -2.3211339 0.079160474 0
2.9038303 -2.3739176 0.092700593 0
-5.0322247 -2.2983208 0.015293881 0
-4.9532995 -2.2640944 0.029725179 0
-4.8743744 -2.2298677 0.044156473 0
0.25562897 -2.2335985 0.063930705 0
1.0777633 -2.2078705 0.072580419 0
1.1152042 -2.2810881 0.086225525 0
2.6945322 -2.2155669 0.052080236 0
2.7642982 -2.2683504 0.065620355 0
-4.7559867 -2.1785281 0.065803424 0
-4.651 -2.1329999 0.085000008 0
0.25712129 -2.1645732 0.052570321 0
0.38502765 -2.1671467 0.053970426 0
1.0403225 -2.1346529 0.058935314 0
2.5550001 -2.1099999 0.024999999 0
2.6247661 -2.1627834 0.038540117 0
3.0096149 -2.1514921 0.02560702 0
-0.13600001 -2.0510001 0.017999999 0
0.24488831 -2.048296 0.032106452 0
0.36565953 -2.0505586 0.033463035 0
1.0028816 -2.0614352 0.045290209 0
2.4729497 -2.0405726 0.008319445 0
2.5392284 -2.0966547 0.021793656 0
2.9307067 -2.0957861 0.008392632 0
-0.12863667 -1.9434953 0.034935679 0
0.23265532 -1.9320183 0.01164258 0
0.34726381 -1.9398234 0.013985215 0
0.94747782 -1.9299963 0.022410575 0
1.0526701 -1.9297881 0.019817704 0
1.2279984 -1.9557403 0.022962667 0
0.33500001 -1.8660001 0.001 0
-10.813 0.91299999 0.0089999996 0
-10.725417 0.9123202 0.022822937 0
-10.637834 0.91164035 0.036645874 0
-10.550251 0.91096056 0.05046881 0
-10.462667 0.9102807 0.064291745 0
-10.375085 0.90960091 0.078114688 0
-10.287501 0.90892112 0.091937616 0
4.0139999 1.076 0.015 0
4.0967636 1.1019318 0.029177681 0
4.1795273 1.1278636 0.043355361 0
4.262291 1.1537955 0.057533044 0
4.3450551 1.1797273 0.071710721 0
4.4278188 1.2056592 0.085888408 0
-7.328917 1.4994544 0.075386398 0
-7.247889 1.4829392 0.079515189 0
-7.1339307 1.459712 0.085321993 0
-7.572 1.549 0.063000001 0
-7.4504585 1.5242271 0.069193199 0
-3.8150001 2.822 -4.436909e-14 0
-3.721 2.888 2.370234e-13 0
-0.81900001 3.391 0.046 0
-0.82960933 3.4324617 0.039049059 0
-0.85825586 3.5444136 0.020280661 0
-1.015 3.684 0.09300001 0
-0.88690233 3.6563654 0.0015122648 0
-1.0276544 3.7384009 0.086085752 0
-1.0478039 3.8250229 0.075076222 0
-1.0780282 3.9549561 0.058561929 0
-1.1082524 4.0848894 0.042047638 0
-1.128402 4.1715117 0.031038109 0
-1.1485515 4.2581339 0.02002858 0
-1.1687009 4.3447556 0.0090190545 0
4.9770002 4.7410002 0.041999999 0
5.0632529 4.8356128 0.062186778 0
5.1495051 4.9302254 0.082373559 0
5.2070069 4.9933009 0.095831409 0
0.79799998 6.4489999 0.021 0
0.81377363 6.5324154 0.033363149 0
0.83743417 6.6575394 0.051907867 0
0.86109465 6.7826629 0.070452586 0
0.87686831 6.8660784 0.082815737 0
