# .PCD v0.7 - Point Cloud Data file format
VERSION 0.7
FIELDS x y z intensity
SIZE 4 4 4 4
TYPE F F F F
COUNT 1 1 1 1
WIDTH 334
HEIGHT 1
VIEWPOINT 0 0 0 1 0 0 0
POINTS 334
DATA ascii
-17.10866 -1.6519724 -0.61343938 2
-17.191765 -1.8883684 -0.021640817 3
-15.718737 1.496557 3.3359435 10
-15.299433 1.8330892 3.2551856 10
-15.350213 2.1184163 3.4733388 10
-15.290398 1.8951464 3.648222 10
-14.925399 1.6021215 -0.068906583 3
-14.980852 4.5032187 -0.04057844 3
-15.060198 4.1798797 0.36130252 4
-14.980805 4.5342689 0.35043183 4
-14.8554 4.8716459 0.33854729 4
-14.896843 1.7137219 0.42216155 4
-15.063072 4.2965102 0.59034401 4.5
-14.944719 4.5923553 0.70645356 5
-14.878311 1.7899436 1.0228729 5
-14.945624 4.6654539 1.161477 5
-14.867425 4.8276339 0.95653325 5
-14.981503 1.582979 1.5400761 6
-14.888344 1.7692349 1.2891943 6
-14.858171 3.1678157 6.6959109 16
-14.893412 2.9595237 7.1028123 16
-14.841008 3.30901 6.851975 16
-14.714898 2.2288754 -0.36453301 2
-14.585617 2.5602553 -0.03534827 3
-14.46833 2.8616142 -0.37618941 2
-14.674855 2.3059402 0.39551196 4
-14.576113 2.5682609 0.19765659 3.5
-14.590604 2.5925226 0.59516609 4.5
-14.730847 2.3439515 0.8915258 5
-14.733749 3.5103066 6.6730719 16
-14.632311 3.8577912 6.6652207 16
-9.9539366 3.0308185 -0.38865951 2
-9.4894371 -1.7271694 -0.0079353489 3
-9.4545059 -1.7792675 0.20651497 3.5
-9.5085163 -1.6892557 0.51110107 5
-8.0326614 4.6143174 3.7198448 15
-8.0936604 4.622366 4.027844 16
-6.9319029 -1.6323311 -0.14074439 3
-6.9679646 -1.6239306 0.22626412 4
-6.8230743 -1.6444825 0.48624375 5
-6.517242 -1.9945531 -0.19115487 2
-6.3523927 3.9619048 2.9838176 15
-6.2747197 3.9794927 3.2453206 16
-4.9692779 -2.627584 -0.20506628 2
-4.8340797 -1.8711014 0.37991139 5
-4.8011293 -1.8901256 0.42688358 6
-5.1404333 3.346431 2.3457968 14
-5.0529613 3.4686038 2.5448084 15.333333
-4.6427274 -0.21824104 -0.26311377 2
-4.7980123 -1.8729761 0.051905431 4
-4.1438522 -2.4931881 -0.090029955 3
-4.2216649 -2.2730496 -0.096709333 3
-4.1609602 -1.50133 -0.23666514 2
-4.2984533 0.78482175 0.32586148 5
-4.2506189 0.71342158 0.44881189 6
-4.03443 0.74983042 1.1738764 12
-4.0162339 0.81490934 1.1899312 12
-3.6343696 -1.5021549 -0.20872992 2
-3.8737209 -1.1899531 -0.25327227 1
-3.6517262 -0.16492967 -0.25397423 1
-3.7391944 0.93709683 -0.089426421 2.5
-3.861789 0.93307102 0.18254866 4.5
-3.8883469 0.91888708 0.44436675 6.3333335
-3.9872966 0.78638679 1.0174136 10.5
-3.7888248 0.90306467 0.87203902 10
-2.8092511 -1.505829 -0.20290458 1
-2.8807132 0.71906632 -0.20793475 1
-2.865056 1.0665319 -0.13036752 1.75
-2.9736624 1.3511695 -0.068920732 2.5
-2.9817181 1.7092718 -0.061713237 2.75
-2.8191903 2.1022828 -0.073864684 2.5
-3.0165234 -1.8242726 0.073664583 4
-2.8812194 1.1113178 0.19259408 5
-3.015744 1.4357343 0.19833341 4.75
-2.9613469 1.779672 0.24554253 5.1999998
-2.8317304 2.1032887 0.27413341 5.5
-3.0623865 1.5423031 0.45357886 7
-2.9522963 1.8111448 0.48798415 7.4000001
-2.8215609 2.1259394 0.4853605 7.3333335
-2.8232841 1.0564753 1.2033477 15
-3.1778121 -2.1435599 3.1377327 24
-2.7186031 0.96029478 -0.20469789 1
-2.7133811 1.2705367 -0.19148815 1
-2.7468367 2.2541187 -0.065501265 2.6666667
-2.5852082 2.5915344 -0.015063662 3
-2.7521987 2.270509 0.22135837 5.25
-2.5939851 2.5888965 0.21709681 5
-2.7512579 1.11931 0.72775781 10.5
-2.7604089 1.2606406 0.72749496 10
-2.7391703 2.309001 0.52120537 7.5
-2.6238809 2.5662479 0.51943564 7.5
-2.7582839 1.1193651 0.95757312 12.666667
-2.7445042 1.285952 0.98576224 12.5
-2.7578881 1.1592317 1.2835575 15.5
-2.7485011 1.2696204 1.2735027 15.5
-2.092186 -2.0827966 -0.11510541 2
-2.1418531 -1.8442277 -0.10219716 2.5
-2.2997527 -1.3644842 -0.22483911 1
-2.2446237 -0.87462848 -0.21003351 1
-2.0094674 1.3586191 -0.17426021 1
-2.1199644 2.0369749 -0.15661533 2
-2.293618 2.5542743 -0.047136385 3
-2.0692871 -2.0778537 0.010890619 3
-2.1793437 2.5165541 0.15636936 4.5
-2.1652319 2.507426 0.4948706 7.5
-1.8144981 -1.8199648 -0.13083062 2
-1.7909521 -1.4380744 -0.20069912 1
-1.9965663 -1.1713891 -0.2316108 0
-1.8152645 0.56511009 -0.1928038 0
-1.7810518 1.5124204 -0.16739108 1
-1.6129183 1.6306834 -0.16406935 1
-1.7711198 2.2202094 -0.099339329 2.25
-1.7610369 -2.9568658 0.019406494 3
-1.9307694 -2.4644029 0.029717622 3.5
-1.6986644 -2.1651044 0.03954288 3.5
-1.9264567 -1.9286913 0.023052957 4
-1.7861975 2.3718004 0.18389504 5
-1.7769293 2.3672376 0.44239593 7.5
-1.961633 2.4276197 1.1898837 14
-1.990272 2.4111402 1.2508852 15
-1.6523836 -2.2311025 2.9639134 28
-1.4716843 -2.2033329 -0.050660674 3
-1.3684613 -1.4627088 -0.15726787 1
-1.4383487 -1.0283018 -0.21582983 0
-1.5474293 0.73925066 -0.18451925 0
-1.2940447 1.0146128 -0.1731797 0
-1.2314934 1.375468 -0.16500396 1
-1.4095944 2.2463031 -0.070575461 2
-1.3410525 -2.4982924 0.012815977 3
-1.2054187 -1.9790797 0.063496657 4
-1.4270849 -2.0077066 0.61361355 11
-1.3082405 -2.2552307 2.6776512 27.5
-1.0114799 -1.5826575 -0.10403058 2
-1.1522906 1.1553744 -0.16703704 0
-0.99710089 1.3938079 -0.1570527 0.5
-1.0023435 2.0747116 -0.12052406 2
-1.05986 -2.2038934 0.0080491183 3
-0.42705283 -2.103874 -0.0053043631 3
-0.76477176 -1.5873497 -0.093273163 2
-0.58917618 1.8088874 -0.088487446 1.8
-0.56572962 -1.8271358 0.010178113 3.5
-0.41248667 1.8690138 0.17705582 6
-0.4770225 1.8851798 0.60188341 12.333333
-0.44835049 1.8765109 0.85505325 16
-0.51451731 1.7942522 1.9200962 27
-0.70218801 -2.5281017 2.9956872 28.666666
-0.17273454 -1.617278 -0.090932675 2
-0.25486189 -1.5684495 -0.093788937 1.5
-0.12961546 1.4718708 -0.13169245 0.5
-0.17771947 1.7836161 -0.055881832 2.2857144
-0.15817514 1.775576 0.1634661 5.9444447
-0.0888348 1.7549981 0.54471177 12.166667
0.36640543 -1.9359764 -0.035665352 3
0.18312763 -1.5392133 -0.091513023 1.6666666
0.18709148 1.4784056 -0.12808608 1
0.18131676 1.8784459 -0.098568007 2
0.17476065 2.2278707 -0.032362498 3
0.080923215 -1.7970042 0.098146677 5
0.23860593 2.1252098 0.1467447 5.2727275
0.0084648775 1.7317951 0.71810859 15
0.27149704 2.0898449 0.56876552 11.2
0.28042486 2.0900877 0.84371138 14.5
0.5801664 -2.4184158 -0.044182315 3
0.61645329 -1.5242602 -0.10554276 1.3333334
0.51588315 1.5527614 -0.12967041 1
0.63617259 1.9413822 -0.11451466 2
0.43855435 2.0004308 -0.10915156 2
0.5850904 -1.8695532 0.14729995 6
0.76922959 3.7687607 0.026837392 3
0.5936448 -1.8348733 0.42632559 10
0.85213071 -1.6334081 -0.021577019 3
0.94912368 -1.5302607 -0.088834003 2
0.82283443 1.175932 -0.13232988 1
1.1122239 1.4162682 -0.12610956 1
0.91571289 1.8019935 -0.11908443 1.5
0.9948619 -1.9140863 0.015199156 4
1.1432912 4.3386798 4.6431255 27
1.4037488 -2.2567463 -0.051525135 3
1.447529 -1.4488561 -0.095808573 2
1.5179186 0.24550989 -0.13655232 1
1.4430697 0.49409688 -0.1382992 1
1.3073684 1.338999 -0.12587507 1
1.3352451 1.7911571 -0.11622014 2
1.495728 3.0885687 -0.069440991 3
1.3444779 5.2334585 0.041885767 3.5
1.3331927 5.687017 0.020181553 3
1.4686692 3.8434422 0.55713022 7.5
1.4113721 3.7709069 0.82981926 9
1.3392421 -1.9302212 2.3212395 27
1.3280683 -1.8077115 2.5495923 28.75
1.5172151 4.1821389 4.6485395 27.333334
1.7349874 -2.3726411 -0.05701163 3
1.7656716 -1.5364494 -0.060699057 2.5
1.6400706 -0.49913535 -0.1392961 1
1.7193621 -0.23527271 -0.13738146 1
1.7002813 0.094315879 -0.134803 1
1.911002 0.9031446 -0.12514372 1.5
1.7830225 1.7617623 -0.12790993 2
1.8463323 3.0376406 -0.074927643 3
1.8031722 -1.4592886 2.4626503 27.5
1.9102012 3.9091132 4.6566978 27.666666
1.7461843 4.1108909 4.6525445 27
2.171226 -1.523384 -0.057860129 3
2.2448208 -0.14976376 -0.12899472 2
2.2562463 0.18299678 -0.12416646 2
2.2201581 1.0096979 -0.11885266 2
2.0739429 2.9180896 -0.078339741 3
2.381938 -2.8877482 0.023829233 3
2.1843565 -1.746142 3.3222418 29
2.3883073 3.4555235 4.2597179 27
2.2517204 3.2803004 4.4674945 28.5
2.7860751 -0.91066104 -0.12739205 2
2.7997046 -0.56365252 -0.12984422 2
2.4080763 0.76762486 -0.11904021 2
2.7162561 1.6628102 -0.098455183 2
2.6052577 2.6731865 -0.082390048 3
2.684587 -2.6976721 0.11425418 4
2.7656879 -1.6107357 2.6386297 24
2.7820656 -1.5186728 2.6697676 24
2.7272017 4.7822437 4.6810374 24
2.5374227 4.8898034 4.6808562 24
3.0825708 -2.54988 -0.016229412 3
2.9001753 -0.56927222 -0.12520413 2
3.0198925 2.0473621 -0.087968923 2
2.802218 -3.0923505 0.015899802 3
2.8379114 -2.5910227 0.10850247 4
3.1181486 -2.0754616 0.062402166 4
2.9156535 -0.89763141 3.1498041 27.5
3.3674617 1.6473144 -0.086374357 3
3.5780046 4.3441148 0.49243778 5.5
3.5162053 4.4830494 0.7354793 7
3.5433691 4.4459639 0.80841947 7
3.8055942 1.0723289 -0.079008825 3
3.8228893 2.0864985 -0.057512578 3
3.7411897 4.2062106 0.69184649 6.6666665
3.7978451 4.214889 0.99540937 8.5
3.9533856 11.067191 4.2693453 14
3.9916968 10.947746 4.4990559 14
4.1711869 -0.58735234 -0.099888556 3
4.1168432 -0.28667638 -0.098897547 3
4.0144706 0.0078063114 -0.09697441 3
4.3561263 0.67192602 -0.061018858 3
4.2630076 2.8769515 -0.034723867 3
4.2543702 -3.5155149 0.14968337 4
4.2389836 -3.1712763 0.13512827 4
4.010674 4.1162219 0.2332536 4
4.023088 4.103209 0.59240592 6
4.2387395 10.858994 4.4991875 14
4.700326 0.5030449 -0.058840875 3
4.7695308 3.8720825 0.27680027 5
4.4972572 4.1552281 0.2531482 4
4.4930487 5.626596 0.053303421 3
4.7249956 3.8208332 0.70308959 6.5
4.71803 3.8482621 0.93598843 7.6666665
4.9838896 3.038944 -0.023120645 3
4.9873142 -1.8018336 0.013120546 3
4.9932871 -1.3686922 0.22100779 4.5
5.0293632 3.8040822 0.27869585 4.6666665
4.9189844 5.5267682 0.29069236 4
4.992013 3.7490478 0.62931991 6
4.9942861 3.7414532 0.92133749 7.5999999
5.327477 -1.070513 -0.054087233 3
5.3781414 3.5942316 0.3140122 5
5.2155547 3.6430469 0.34438589 5
5.3646841 3.5673697 0.64691925 6
5.5798612 8.7608738 0.78509635 5
5.3331695 3.5858052 0.83892 7
5.3248396 3.639936 0.99955505 7.6666665
5.9143515 -1.4696901 -0.057980444 3
5.7090497 -1.7773746 0.22616465 4.5
5.7528448 8.7998571 0.32747403 4
5.6867914 8.9435358 0.35779345 4
5.8072882 -1.8205913 0.52822638 6
5.8503814 -1.737947 0.86343706 7
5.6305528 8.733367 1.0630951 6
5.6527324 8.8813066 1.5285648 7
6.1871161 -1.8470588 -0.062285032 3
6.014523 -2.0260942 0.2991502 5
6.2213044 3.4155235 0.27586958 4
6.3059683 8.5871248 0.36769798 4
6.1673517 10.448169 0.38894793 4
6.0197792 -2.0435066 0.52762705 6
6.1124129 3.2932675 0.58286959 5.5
6.3966274 12.109652 0.42319667 4
6.0303102 3.3567111 0.924411 7
6.0258021 3.3525126 1.2173938 8
6.2180514 -2.3876216 2.4948025 14
6.5070872 3.1714053 0.28066945 4
6.9188495 3.0168428 0.2929129 4
6.9579716 3.0215168 0.50848836 5
7.2005 5.3826408 0.079835072 3
9.2871065 -3.2801838 0.27548254 4
10.300442 -2.0208714 0.3034324 4
10.271336 -0.51334745 0.37862113 4
10.325002 -0.46822837 0.45180565 5
10.141977 -0.46221468 1.0980375 6.5
10.775705 -1.0219996 0.38627639 4
10.635293 0.40147078 0.72428602 5
10.701768 0.21542874 1.0124569 6
10.694078 0.45418379 1.0090032 6
10.772523 0.17559108 1.2939758 7
10.763331 0.41181332 1.3005133 7
10.948072 -2.6571412 0.33910736 4
11.018962 -1.8578217 3.4218674 12
11.16264 -1.5155641 3.2378113 12
10.960726 -1.800817 3.8549013 13.333333
11.150511 -1.4616784 3.81991 13
11.262092 -1.2397089 3.4005604 12
11.329473 -1.0122588 3.4241624 12
11.240343 -1.219108 3.8305731 13
11.675565 1.242052 0.46693146 4
11.994455 0.39631468 1.9364084 8
11.996713 0.34298062 2.5702889 10
11.852513 0.60932219 3.7406981 12
12.003763 0.44785053 2.2115457 9
12.106858 0.91245192 3.8268235 12
12.515295 1.8960034 0.51186711 4
13.204558 0.088985629 0.29957262 4
20.593615 -6.7962279 3.6890869 8
20.854601 -7.242764 4.8535919 10
26.141058 6.7471461 0.33576283 4
27.124069 2.1664324 4.3654394 8
26.965923 2.3738008 4.4817128 8
27.368301 2.2535512 3.3590353 7
27.327608 2.2650321 5.0000081 9
27.287138 2.5026429 5.2355418 9
28.321962 4.8626819 3.5851896 7
28.263918 4.9575267 4.5473514 8
28.572592 8.9417982 0.46544605 4
28.575129 4.2712288 3.9660532 7
28.401026 4.2943168 4.5648446 8
28.415285 4.5952744 4.7656455 8
28.716644 4.3662591 5.2195244 9
28.787535 4.686089 5.5934653 9
