# .PCD v0.7 - Point Cloud Data file format
VERSION 0.7
FIELDS x y z intensity
SIZE 4 4 4 4
TYPE F F F F
COUNT 1 1 1 1
WIDTH 98
HEIGHT 1
VIEWPOINT 0 0 0 1 0 0 0
POINTS 98
DATA ascii
-18.583628 -3.4760664 0.40235883 4
-18.484846 -3.3029764 1.4026233 5
-18.033962 -1.2076001 17.085569 26
-17.659313 -0.99187714 4.4058886 11
-17.686895 -1.1337236 6.4437056 14
-17.139475 2.1045635 17.400324 27
-16.805689 4.0668917 15.98487 26
-16.682592 4.3188224 17.091034 27
-16.537294 3.3304989 8.0704041 17
-16.324389 4.1648297 8.8839836 18
-16.011808 3.5688655 17.186636 28
-6.9157481 2.9563911 3.3903477 16
-4.2372503 0.33669427 0.068452805 4
-3.2976501 -1.5827888 3.5213962 26
-3.1005909 0.97304124 -0.066358685 3
-3.078819 1.0300577 0.05671693 4
-3.0284593 0.95906121 0.25364733 6
-3.0677929 1.027079 0.2167169 5
-3.0927782 0.86708987 0.47100878 7.5
-2.9758878 1.1501002 0.44988582 7
-2.9927182 1.1681441 0.60389942 9
-2.686893 1.7262965 1.446437 16
-2.6830339 1.7083538 1.6034285 17
-2.2432506 1.7750535 0.070581637 4
-2.2059789 1.7611457 0.36158699 7
-2.2657864 -2.3072391 3.089849 26.5
-2.0823154 1.729823 0.15061215 5
-2.0045867 -2.4568152 3.2822182 28
-1.9314123 1.6424801 2.6936283 27.5
-1.7535464 1.684033 -0.012299062 3
-1.6960171 1.7064303 0.09672337 4.5
-1.7728243 1.6663413 0.39069009 8
-1.6950324 1.8878708 0.25673917 6
-1.7533041 1.6686412 0.96369678 15
-1.7455819 1.6357732 1.1746904 17
-1.6709491 1.836448 1.1357435 16
-1.6572403 1.8744408 1.209747 17
-1.6505603 2.0201766 1.6692362 20.5
-1.650021 1.9794036 2.6487417 27
-1.4820014 -1.8626474 -0.002791384 3
-1.4303097 2.0857861 0.13074332 5
-1.4457144 2.0619648 0.25974974 6
-1.4345093 2.0413365 0.74375659 12
-1.4236897 2.0874362 0.94974297 14
-1.4616134 2.0496337 1.0137519 15
-1.4229252 2.704515 1.4224147 16
-1.4062573 2.1519272 1.65272 20
-1.5971069 2.0831747 2.5337307 26
-1.3718609 2.0585608 0.07675615 4
-1.3829305 2.9701304 0.26019722 6
-1.398851 2.7545063 0.46937126 8
-1.2499207 3.2497134 0.47487757 7
-1.3914706 2.1149118 1.6637343 21
-0.74291259 -1.833231 0.38719657 9
-0.73506117 -1.8222535 0.43121049 10
-0.79857582 4.3916407 4.623179 27
-0.55905759 4.3467574 4.6219583 28
-0.37203118 -1.7795875 0.37369692 9
-0.37898317 -1.7377135 0.40079838 10
-0.23292492 -1.7729348 0.66147906 14
-0.024696607 -1.7931963 0.69311917 14
-0.12405419 4.5549831 4.6331067 27
0.3784447 -1.6944001 1.7287688 27
0.9872629 -1.5907859 2.0046203 28
1.1510373 -1.5705923 0.7896862 14.5
1.4550091 -1.2660662 2.0593011 27
1.7264463 -1.0609889 2.074964 26.5
1.6530442 -0.99915069 2.1419563 28
1.9910249 -1.5215626 0.20655119 6
1.8580805 -0.94084376 2.1483905 27
2.0797858 -1.4577286 -0.028205115 3
2.0852427 -1.4950322 0.043734845 4
2.1865277 -1.7266757 0.68395895 10.5
2.7939148 -1.4911671 0.149958 5
2.8456318 -1.4804513 0.095080718 4
3.1169043 4.1794786 0.19293526 4
3.0904622 4.0513668 0.51133716 6
3.3401642 3.933738 0.6101312 7
3.4734142 3.8826189 0.36688697 5
3.405242 3.9059608 0.49411422 6
3.7641163 3.7558277 0.0025113632 3
3.8968167 3.7210236 0.2071436 4
3.954371 3.7205474 0.54989815 6
5.2367597 3.2548056 0.093678147 3
5.6395564 3.0850377 0.12274817 4
5.9332113 2.9530237 0.54293299 6
5.9230514 2.9800453 0.71058285 7
6.0357366 2.9899707 0.37510708 5
9.5652304 -0.92548376 1.5152069 8
9.5601807 -1.0557879 1.7657202 9
9.5659695 -0.99055833 2.6929824 11
9.612299 -0.96013153 2.4162111 10
9.6372175 -0.88204628 2.8405669 12
11.196166 -0.73941714 2.5697143 10
11.173136 -0.32508597 2.7829249 11
11.146929 -0.38754031 3.5989575 13
36.507568 -4.7709317 16.387875 16
37.830486 2.6439905 14.908558 15
