# .PCD v0.7 - Point Cloud Data file format
VERSION 0.7
FIELDS x y z intensity
SIZE 4 4 4 4
TYPE F F F F
COUNT 1 1 1 1
WIDTH 1386
HEIGHT 1
VIEWPOINT 0 0 0 1 0 0 0
POINTS 1386
DATA ascii
-2.7437732 -1.7473928 -0.11802384 0
-2.6475077 -1.7454184 -0.12094664 0
-2.006 -1.77 -0.105 0
-1.934279 -1.7277683 -0.11588722 0
-1.8710001 -1.783 -0.112 0
-1.661402 -1.7646946 -0.12470369 0
-1.599268 -1.7027963 -0.1341358 0
-1.1707406 -1.7541945 -0.10389745 0
-0.56718582 -1.7311207 -0.1047046 0
-0.47054076 -1.7523171 -0.10732931 0
-0.34724766 -1.7459605 -0.10787782 0
-0.22770326 -1.7548336 -0.10366141 0
-0.13837314 -1.7668059 -0.10234558 0
0.47614083 -1.7598584 -0.102488 0
0.57175326 -1.7576182 -0.10695344 0
0.68136555 -1.7469205 -0.10536563 0
0.75322539 -1.757436 -0.10959487 0
0.84536469 -1.7412347 -0.11387323 0
0.96234691 -1.7632812 -0.11665151 0
1.0375674 -1.7562402 -0.11399226 0
1.1532608 -1.721006 -0.10197978 0
1.279 -1.7029999 -0.105 0
-3.1715724 -1.6783099 -0.17697313 0
-3.0910645 -1.6373867 -0.1817539 0
-2.9550724 -1.6526303 -0.17093678 0
-2.5840001 -1.684 -0.138 0
-2.4378319 -1.6711973 -0.13520843 0
-2.3277364 -1.6480461 -0.13351385 0
-2.2277694 -1.6425364 -0.13029006 0
-2.1671593 -1.6222348 -0.16007411 0
-2.0725856 -1.6207049 -0.16546136 0
-1.9700325 -1.6157496 -0.15960419 0
-1.8396655 -1.6530447 -0.13528678 0
-1.775 -1.602 -0.146 0
-1.681 -1.678 -0.102 0
-1.5371341 -1.6408982 -0.14356789 0
-1.3263508 -1.6473309 -0.11326776 0
-1.2645222 -1.6553634 -0.11536631 0
-1.1241604 -1.6847963 -0.1145983 0
-1.0775802 -1.6153982 -0.12529916 0
-0.88039589 -1.6626265 -0.10562396 0
-0.62998682 -1.6091582 -0.10040264 0
-0.54812694 -1.6582632 -0.10505734 0
-0.46562639 -1.6512563 -0.10869569 0
-0.3684535 -1.6640943 -0.11168976 0
-0.25417277 -1.6670377 -0.10362747 0
-0.13258208 -1.6818706 -0.10056372 0
0.45210561 -1.6741438 -0.103366 0
0.52194422 -1.6594241 -0.11140179 0
0.67471218 -1.6496572 -0.10729374 0
0.78590977 -1.6221564 -0.11791548 0
0.87660813 -1.6099688 -0.12319091 0
0.94632709 -1.6463268 -0.12237261 0
1.0137577 -1.6759906 -0.11580911 0
1.1056087 -1.6498048 -0.11098382 0
1.2513025 -1.6633983 -0.10606076 0
-3.0105562 -1.5964633 -0.18653466 0
-2.9300482 -1.55554 -0.19131543 0
-2.843399 -1.5522604 -0.1878228 0
-2.7587149 -1.5480869 -0.18529119 0
-2.680172 -1.5062695 -0.19103295 0
-2.2724979 -1.558046 -0.15331264 0
-2.1607409 -1.5308269 -0.15654357 0
-2.0486031 -1.5383275 -0.16570948 0
-1.9574758 -1.531508 -0.17110226 0
-1.8928068 -1.5533119 -0.16480733 0
-1.7380483 -1.5694242 -0.15105654 0
-1.622941 -1.5689344 -0.19075486 0
-1.475 -1.579 -0.153 0
-1.330351 -1.5882289 -0.11812979 0
-1.2045 -1.5725 -0.125 0
-1.031 -1.546 -0.13600001 0
-0.83794796 -1.5638132 -0.11606199 0
-0.74660623 -1.5666137 -0.10661739 0
-0.61199999 -1.552 -0.104 0
-0.54254758 -1.5590986 -0.1150215 0
-0.45665658 -1.5389391 -0.11754892 0
-0.3433634 -1.5425236 -0.11117244 0
-0.23983639 -1.5832689 -0.10356373 0
-0.19 -1.502 -0.101 0
0.44313392 -1.5552534 -0.10676684 0
0.66310018 -1.5527494 -0.1153755 0
0.74627316 -1.542771 -0.12061032 0
0.85815692 -1.5350047 -0.12797493 0
0.97173309 -1.5328951 -0.11264501 0
1.0341303 -1.5430031 -0.12448989 0
1.190436 -1.5613737 -0.10480895 0
1.2508438 -1.5507029 -0.10195565 0
1.3569216 -1.53115 -0.10335996 0
1.4027392 -1.5111866 -0.10445008 0
1.7738928 -1.5139108 -0.10224716 0
-2.601629 -1.4644521 -0.19677471 0
-2.127332 -1.4586973 -0.16920842 0
-2.0457592 -1.4385297 -0.17347319 0
-1.9520379 -1.4470991 -0.17826964 0
-1.851843 -1.4575297 -0.17783828 0
-1.7562906 -1.4429371 -0.17400524 0
-1.6444898 -1.4869449 -0.16385931 0
-1.5641394 -1.4603052 -0.18288839 0
-1.4914409 -1.4314345 -0.19525488 0
-0.40900001 -1.5 -0.117 0
-0.26100001 -1.497 -0.106 0
0.38 -1.4170001 -0.106 0
0.46032405 -1.4474039 -0.11023363 0
0.6270501 -1.4708748 -0.11768775 0
0.74875301 -1.4600208 -0.12651773 0
0.85711348 -1.456048 -0.13359845 0
0.95577955 -1.4477663 -0.119039 0
1.089812 -1.4271245 -0.10993632 0
1.153523 -1.4725503 -0.10767522 0
1.2694608 -1.436075 -0.11117998 0
1.3431594 -1.4491245 -0.10996672 0
1.4580866 -1.4332438 -0.11293139 0
1.5579908 -1.4564624 -0.11352965 0
1.6523621 -1.4411471 -0.11505845 0
1.7409041 -1.4522738 -0.11315092 0
1.8530124 -1.4537927 -0.10946622 0
1.963372 -1.4497761 -0.10738461 0
2.0092559 -1.4174953 -0.108474 0
2.2426064 -1.4324639 -0.11171893 0
2.3175409 -1.4803745 -0.10450542 0
-1.9458745 -1.3345115 -0.18907817 0
-1.8842382 -1.3821971 -0.18642497 0
-1.7634701 -1.3588724 -0.18248904 0
-1.6539034 -1.3601561 -0.18090367 0
-1.5235426 -1.3525851 -0.19033623 0
-1.4470465 -1.3481017 -0.19329613 0
-1.382 -1.317 -0.199 0
0.59100002 -1.3890001 -0.12 0
0.667 -1.3839999 -0.126 0
0.77100003 -1.3835 -0.13499999 0
0.85366672 -1.3720001 -0.12833333 0
0.92333335 -1.3693333 -0.11966667 0
1.0539999 -1.357 -0.113 0
1.1860001 -1.3575 -0.1105 0
1.2537899 -1.3560312 -0.11824168 0
1.3519511 -1.3426522 -0.11589074 0
1.471 -1.313 -0.146 0
1.5631329 -1.3433357 -0.12354764 0
1.6683161 -1.3232673 -0.1391618 0
1.7545506 -1.3570639 -0.13075419 0
1.8671046 -1.3472159 -0.12758005 0
1.940442 -1.3693714 -0.1193555 0
2.0927377 -1.3366425 -0.12614596 0
2.1676719 -1.3845532 -0.11893244 0
2.5237472 -1.3270551 -0.11974927 0
2.6026206 -1.3690826 -0.10612391 0
2.8367705 -1.3314086 -0.11381841 0
2.917963 -1.3707608 -0.10377301 0
3.5578351 -1.3091413 -0.10521337 0
-1.7255912 -1.2873659 -0.1868355 0
-1.6466668 -1.2596638 -0.18788376 0
-1.5607215 -1.2542884 -0.18894801 0
-1.4504762 -1.2352622 -0.19592415 0
-1.395 -1.267 -0.198 0
1.5455 -1.2925 -0.141 0
1.6423334 -1.2586666 -0.14266668 0
1.7310969 -1.2480307 -0.15015385 0
1.8173046 -1.2473756 -0.14587796 0
1.9473643 -1.2328165 -0.12388566 0
2.0306122 -1.2528681 -0.12275297 0
2.1192677 -1.2402501 -0.10705423 0
2.2386773 -1.2423502 -0.10944375 0
2.342 -1.2456666 -0.123 0
2.4461124 -1.2530869 -0.12287062 0
2.5677056 -1.2501535 -0.12554583 0
2.6743853 -1.2527044 -0.1339092 0
2.7555778 -1.2920564 -0.1238638 0
2.965872 -1.2251916 -0.10439971 0
3.3479381 -1.2353029 -0.13258001 0
3.4738762 -1.279606 -0.11616004 0
-1.5439717 -1.1527622 -0.1925633 0
-1.4478211 -1.1552004 -0.19584899 0
1.6535747 -1.1215023 -0.15013655 0
1.7578506 -1.1395684 -0.15037519 0
1.8557936 -1.1620612 -0.13944611 0
1.9497839 -1.1594002 -0.13883604 0
2.0601692 -1.1279137 -0.12035269 0
2.1398211 -1.1445067 -0.12435608 0
2.2396972 -1.146575 -0.13226396 0
2.3437657 -1.1588707 -0.12135283 0
2.4173489 -1.1646364 -0.15287322 0
2.5099347 -1.1730598 -0.15400749 0
2.7175488 -1.1200767 -0.13475989 0
2.8417106 -1.1726341 -0.1195798 0
3.2219999 -1.191 -0.149 0
-1.4349999 -1.072 -0.19599999 0
1.5429311 -1.0483767 -0.15135241 0
1.6901249 -1.035184 -0.15833332 0
1.765777 -1.065156 -0.15281466 0
1.8459767 -1.0489303 -0.14198421 0
1.9438785 -1.0452564 -0.13742206 0
2.0509391 -1.0221603 -0.14480406 0
2.1535771 -1.0563722 -0.1418044 0
2.2400262 -1.0698828 -0.13557374 0
2.3418434 -1.0965437 -0.15461801 0
2.4437718 -1.0064325 -0.15525112 0
2.5438414 -1.0467156 -0.15501894 0
2.6347744 -1.0850383 -0.14487994 0
3.1659999 -1.008 -0.146 0
3.2489274 -1.0332119 -0.13302329 0
3.3318546 -1.0584238 -0.12004657 0
3.414782 -1.0836357 -0.10706986 0
1.3585249 -0.92650074 -0.15337884 0
1.4322873 -0.97525114 -0.15256827 0
1.5425828 -0.94403481 -0.156 0
1.6522391 -0.97039676 -0.1575 0
1.749929 -0.95702147 -0.15196575 0
1.8297319 -0.9597159 -0.15106803 0
1.9345865 -0.93905365 -0.14861363 0
2.0549119 -0.96593082 -0.15566012 0
2.1925147 -0.90528834 -0.15583408 0
2.2762671 -0.93900305 -0.15563975 0
2.3600194 -0.97271776 -0.15544543 0
2.539 -0.90700001 -0.152 0
-2.2529962 -0.85414785 -0.19991429 0
-2.130022 -0.83702499 -0.19939595 0
-2.0473046 -0.80530715 -0.19905367 0
-1.882 -0.81599998 -0.2 0
1.2478812 -0.8533752 -0.15459472 0
1.3503435 -0.82963806 -0.156 0
1.4712795 -0.85375845 -0.15487806 0
1.5531626 -0.84932095 -0.1533415 0
1.659415 -0.85849428 -0.15670136 0
1.7663721 -0.86051512 -0.15698591 0
1.8349805 -0.87731797 -0.15420225 0
1.9412574 -0.80414414 -0.15641704 0
2.0250099 -0.83785892 -0.15622272 0
2.1087623 -0.87157357 -0.15602839 0
2.2863407 -0.81840515 -0.1534915 0
2.3712463 -0.84817731 -0.15299028 0
2.4569726 -0.84621215 -0.1520021 0
2.53 -0.838 -0.15099999 0
-2.303 -0.72100002 -0.2 0
-2.1489649 -0.78686738 -0.1998041 0
-2.0656841 -0.75688636 -0.19968922 0
-1.9683253 -0.74708009 -0.19920428 0
-1.8779348 -0.72443569 -0.19818455 0
-1.7833931 -0.75368172 -0.19844574 0
-1.6438169 -0.74310493 -0.19693232 0
1.235 -0.76099998 -0.156 0
1.3242906 -0.72908026 -0.15458538 0
1.4396772 -0.75290138 -0.15535934 0
1.5516977 -0.77585632 -0.1570639 0
1.688 -0.75049996 -0.15700001 0
1.7737525 -0.73671472 -0.15680568 0
1.857505 -0.77042943 -0.15661137 0
2.0316231 -0.72908866 -0.15499514 0
2.1163182 -0.73100674 -0.15422338 0
2.2455046 -0.74492598 -0.15298839 0
2.3751025 -0.75690717 -0.15163851 0
2.463562 -0.75306624 -0.15042153 0
2.5085001 -0.73449999 -0.14950001 0
-2.223597 -0.69638306 -0.19947624 0
-2.1387725 -0.67008519 -0.1989167 0
-2.0539479 -0.64378726 -0.19835718 0
-1.9691231 -0.6174894 -0.19779764 0
-1.8574824 -0.6819337 -0.19940203 0
-1.724498 -0.65769887 -0.19845715 0
-1.641499 -0.62684947 -0.19822857 0
-1.5355 -0.65200001 -0.19599999 0
1.2539999 -0.65400004 -0.155 0
1.3329244 -0.65821409 -0.15551598 0
1.4058489 -0.69742817 -0.15603195 0
1.692 -0.61000001 -0.15700001 0
1.7769058 -0.63977218 -0.15649879 0
1.8608273 -0.64460272 -0.15588936 0
1.9459909 -0.6734041 -0.15533404 0
2.0328012 -0.64945358 -0.15431926 0
2.1206455 -0.64948124 -0.15334529 0
2.2342772 -0.64523345 -0.15187649 0
2.3775122 -0.66596782 -0.15024008 0
2.4637012 -0.68983883 -0.14939509 0
-1.9909936 -0.52163059 -0.1998838 0
-1.8842986 -0.59119153 -0.19723812 0
-1.7570615 -0.5517447 -0.19639882 0
-1.6298246 -0.51229787 -0.19555952 0
-1.566 -0.57700002 -0.199 0
1.6905 -0.542 -0.15700001 0
1.7760754 -0.56886339 -0.15632981 0
1.8619182 -0.5472672 -0.15542407 0
1.9478772 -0.57215083 -0.15463611 0
2.0327561 -0.57048392 -0.15362005 0
2.1189451 -0.59435487 -0.15277505 0
-1.904995 -0.4991045 -0.19910705 0
-1.8189962 -0.47657835 -0.19833028 0
-1.7329974 -0.45405224 -0.19755352 0
-1.6469988 -0.43152612 -0.19677676 0
-1.553 -0.44749999 -0.19549999 0
1.688 -0.47499999 -0.15700001 0
1.774189 -0.49887097 -0.15615502 0
1.8983473 -0.40211719 -0.15391259 0
1.962 -0.419 -0.153 0
2.2940919 -0.41506612 -0.14942797 0
2.3818192 -0.43107557 -0.14834625 0
2.4802732 -0.4490425 -0.14713226 0
1.6815 -0.324 -0.15700001 0
1.7612549 -0.34152424 -0.15594459 0
1.8410099 -0.35904852 -0.15488914 0
1.9410108 -0.32679152 -0.15340438 0
2.0288477 -0.34188873 -0.15237249 0
2.1166849 -0.35698593 -0.15134062 0
2.233223 -0.36782017 -0.14991443 0
2.378572 -0.37347937 -0.14814374 0
2.4737592 -0.38883212 -0.14708085 0
1.67 -0.23899999 -0.156 0
1.7589658 -0.2394278 -0.15297318 0
1.8374465 -0.2566849 -0.15151797 0
1.9193932 -0.20683677 -0.15204754 0
2.0520897 -0.22225517 -0.15057132 0
2.1847863 -0.23767355 -0.14909509 0
2.2732506 -0.24795249 -0.14811093 0
2.3617148 -0.2582314 -0.14712678 0
2.4565897 -0.26925516 -0.14607131 0
1.6515 -0.15549999 -0.155 0
1.7383373 -0.13996837 -0.15278637 0
1.8192533 -0.14705049 -0.15169251 0
1.9502039 -0.11703886 -0.15158018 0
2.0835769 -0.12648408 -0.15011454 0
2.1724923 -0.13278089 -0.14913745 0
2.2614076 -0.13907771 -0.14816035 0
2.3503232 -0.14537454 -0.14718325 0
2.4517462 -0.15255712 -0.14606872 0
2.5389161 -0.1549039 -0.14409609 0
2.6198323 -0.15680781 -0.14219218 0
2.7412064 -0.15966368 -0.13933632 0
2.8727903 -0.16275978 -0.13624024 0
1.6519775 -0.04600165 -0.15344989 0
1.7696939 -0.031004123 -0.14962471 0
1.5910001 0.079999998 -0.153 0
1.6550919 0.051995039 -0.15238266 0
1.7533594 0.05760254 -0.14916123 0
1.8696462 0.028114144 -0.14868897 0
1.9651015 0.045198269 -0.14649159 0
2.0553613 0.047329128 -0.14513288 0
2.1456208 0.049459979 -0.1437742 0
2.2358806 0.051590838 -0.14241551 0
2.3506889 0.064795725 -0.14033914 0
2.4617419 0.056919966 -0.1390484 0
2.5520015 0.059050821 -0.13768971 0
2.6422613 0.061181679 -0.13633102 0
2.7418404 0.053047329 -0.13507956 0
1.5699999 0.15450001 -0.1525 0
1.6599348 0.16487919 -0.14863586 0
1.7233244 0.15913753 -0.14710411 0
1.8468893 0.12826505 -0.14742494 0
1.9410553 0.15277506 -0.14519046 0
2.0371032 0.13746423 -0.14411753 0
2.1261549 0.14419633 -0.14267629 0
2.2403429 0.16199405 -0.14049648 0
2.3487198 0.1614731 -0.13909575 0
2.4572675 0.15976153 -0.13763489 0
2.5854402 0.14871335 -0.13610934 0
2.6746202 0.15455252 -0.13462299 0
2.7119999 0.15700001 -0.134 0
1.5603333 0.25033334 -0.15366666 0
1.6491699 0.25735256 -0.14854343 0
1.702 0.23199999 -0.146 0
1.8382128 0.23002735 -0.14505595 0
1.9370966 0.25058559 -0.14370833 0
2.0474968 0.23778942 -0.14213461 0
2.1628098 0.23461026 -0.14025399 0
2.2706921 0.25127119 -0.13846087 0
2.3620138 0.23971061 -0.13695605 0
2.4520204 0.24715933 -0.13555363 0
2.5471466 0.23873889 -0.13437776 0
2.646075 0.24614783 -0.13298646 0
2.7533123 0.2598049 -0.13026932 0
-2.0390229 0.38594031 -0.18891568 0
-1.9626342 0.37777236 -0.18603498 0
-1.8373199 0.38259348 -0.18661985 0
-1.7491068 0.36003116 -0.19053996 0
-1.663 0.37200001 -0.18799999 0
1.5309782 0.34655854 -0.15081441 0
1.6664264 0.32290626 -0.14674109 0
1.7676265 0.32682109 -0.14417957 0
1.8494251 0.34897453 -0.14458689 0
1.9738693 0.35277572 -0.14210637 0
2.0620708 0.35330561 -0.14025985 0
2.1496913 0.36820516 -0.13854873 0
2.2505887 0.36669368 -0.13771772 0
2.3508158 0.32694203 -0.13670352 0
2.4385352 0.33876568 -0.1351541 0
2.5411696 0.3623929 -0.1330698 0
2.608 0.33199999 -0.133 0
-2.6819999 0.43399999 -0.2 0
-2.4770684 0.47532094 -0.19374707 0
-2.3711143 0.45370159 -0.19257846 0
-2.2465801 0.42829111 -0.19120494 0
-2.1220458 0.40288064 -0.18983138 0
-1.9429168 0.44810665 -0.18125804 0
-1.8705077 0.45368004 -0.18276362 0
-1.7653109 0.47971785 -0.18302418 0
-1.6555777 0.45367944 -0.18525605 0
1.467 0.46000001 -0.15099999 0
1.5461023 0.44976062 -0.1499463 0
1.6204178 0.45404437 -0.14623788 0
1.7517602 0.44895148 -0.1444785 0
1.8579882 0.47884896 -0.14163178 0
1.9457227 0.48806384 -0.1412206 0
2.0581908 0.41182694 -0.14076893 0
2.1636271 0.45738462 -0.13801262 0
2.2468207 0.43112862 -0.1352053 0
2.3447495 0.43931708 -0.13429622 0
2.4550512 0.46990824 -0.13233879 0
2.5335791 0.4541719 -0.13078268 0
2.6040001 0.495 -0.127 0
-2.642 0.55699998 -0.2 0
-1.933607 0.54147232 -0.18031757 0
-1.8401828 0.57148576 -0.18069595 0
-1.7382765 0.56571954 -0.18064703 0
-1.6551383 0.54035974 -0.18182351 0
-1.552 0.55050004 -0.1825 0
-1.4406437 0.59707475 -0.17822313 0
-1.3578218 0.56153738 -0.17911157 0
-1.258 0.55500001 -0.17900001 0
1.471 0.53999996 -0.15349999 0
1.5572789 0.54418623 -0.14869338 0
1.6929064 0.52494919 -0.14388263 0
1.7778126 0.55289841 -0.14176527 0
1.8627189 0.58084762 -0.1396479 0
1.9860827 0.51961195 -0.13782804 0
2.0513439 0.52530539 -0.13755798 0
2.1513441 0.55517632 -0.1356837 0
2.2463069 0.56428331 -0.13381892 0
2.364712 0.54486328 -0.13307188 0
2.4299998 0.56850004 -0.13150001 0
-2.2301981 0.66980267 -0.17731206 0
-2.1435478 0.66274828 -0.17710452 0
-2.0532556 0.65011597 -0.17800367 0
-1.954958 0.64412224 -0.17759448 0
-1.8541074 0.64918751 -0.17714417 0
-1.7627065 0.65249455 -0.17865525 0
-1.6383711 0.64270926 -0.17868908 0
-1.5466585 0.65980601 -0.17778465 0
-1.4461887 0.65815926 -0.1779695 0
-1.3216888 0.62315929 -0.1769695 0
-1.244 0.66900003 -0.17399999 0
1.387 0.66799998 -0.15099999 0
1.4514794 0.65257394 -0.15198027 0
1.543327 0.63268626 -0.14607087 0
1.6421208 0.63865608 -0.14364406 0
1.7242417 0.6723122 -0.14128815 0
1.9476252 0.60879678 -0.13753055 0
2.0572658 0.655873 -0.1352066 0
2.1319947 0.67890459 -0.13332455 0
2.2359655 0.65446949 -0.13181537 0
2.344682 0.62955528 -0.1301115 0
2.452843 0.6485635 -0.12680654 0
-3.3302808 0.76564038 -0.19823089 0
-3.181 0.796 -0.2 0
-2.5271912 0.79154176 -0.14886077 0
-2.453546 0.77824259 -0.15941386 0
-2.3529284 0.76127964 -0.16834782 0
-2.2473633 0.72668844 -0.17478988 0
-2.1373079 0.75324631 -0.17411967 0
-2.0419326 0.75657499 -0.173953 0
-1.947383 0.74862224 -0.17430048 0
-1.8426273 0.74822247 -0.17501999 0
-1.7553154 0.74613911 -0.17470488 0
-1.6681794 0.74678326 -0.17441063 0
-1.5637549 0.74063712 -0.17387797 0
-1.4546329 0.74943024 -0.17283361 0
-1.3582833 0.74588132 -0.17455924 0
-1.2753966 0.7662555 -0.17021587 0
-1.199 0.72100002 -0.171 0
1.3655 0.76199996 -0.1525 0
1.4504309 0.7479952 -0.14970189 0
1.5655535 0.75098515 -0.14579427 0
1.6462057 0.76679158 -0.14241195 0
1.7538893 0.78643626 -0.13932216 0
1.847423 0.72279632 -0.13775426 0
1.9706043 0.77328044 -0.13422036 0
2.052 0.71899998 -0.13500001 0
2.1470897 0.74696755 -0.13245749 0
2.2582021 0.73303282 -0.13016549 0
2.3721566 0.74854279 -0.12694374 0
2.4100001 0.76099998 -0.126 0
-3.5244186 0.8882882 -0.19556306 0
-3.4385641 0.86521614 -0.19667231 0
-3.3527093 0.84214413 -0.19778153 0
-3.2668548 0.81907207 -0.19889078 0
-2.7513223 0.87499911 -0.13394797 0
-2.6505318 0.84978884 -0.14476323 0
-2.5620217 0.84001207 -0.15878826 0
-2.4479179 0.8212173 -0.16691265 0
-2.1326296 0.84221882 -0.17152414 0
-2.0445104 0.86354792 -0.17072597 0
-1.945103 0.84953004 -0.17151697 0
-1.8539152 0.85442495 -0.17048748 0
-1.7474709 0.84062558 -0.17110083 0
-1.6348525 0.8571322 -0.17131384 0
-1.5408348 0.86961001 -0.17133011 0
-1.435672 0.85345113 -0.17162193 0
-1.3464483 0.83412778 -0.17285793 0
-1.286 0.89399999 -0.171 0
1.2970001 0.87400001 -0.152 0
1.3514038 0.83469218 -0.15106089 0
1.4355592 0.86717427 -0.1483725 0
1.531086 0.85474968 -0.14478335 0
1.6511364 0.84137607 -0.14237295 0
1.7412225 0.86769187 -0.13982144 0
1.8315191 0.8235817 -0.13709623 0
1.9479637 0.87929988 -0.13375731 0
2.0391474 0.81479388 -0.13277978 0
2.1374269 0.84949446 -0.13015275 0
2.2169669 0.87424868 -0.12715259 0
-3.8678372 0.9805764 -0.19112614 0
-3.7819827 0.95750433 -0.19223537 0
-3.6532006 0.92289627 -0.19389921 0
-3.0662189 0.98809558 -0.12914535 0
-2.9423685 0.95499468 -0.13216102 0
-2.84776 0.91842318 -0.13570832 0
-2.7418029 0.91112155 -0.15419035 0
-2.272788 0.97450197 -0.1779709 0
-2.148762 0.91889441 -0.17754856 0
-2.0384068 0.94699991 -0.16726975 0
-1.9570526 0.95432407 -0.16712718 0
-1.8221837 0.96238106 -0.16712159 0
-1.7447033 0.96177995 -0.16838589 0
-1.6480564 0.95127827 -0.16812716 0
-1.5548002 0.94797891 -0.1677715 0
-1.4577073 0.95695251 -0.16976564 0
-1.3471382 0.96082687 -0.16888142 0
-1.2515671 0.96335047 -0.1681688 0
-1.175 0.99900001 -0.16500001 0
1.2492501 0.95624995 -0.15125 0
1.3514762 0.95170134 -0.14878178 0
1.463529 0.96360129 -0.14628899 0
1.5624275 0.94633341 -0.14290948 0
1.6451774 0.95824075 -0.13972786 0
1.7506948 0.93045795 -0.13778809 0
1.8437184 0.95924467 -0.13475195 0
1.9405607 0.95661849 -0.13245836 0
2.0527635 0.95849854 -0.13019431 0
2.2920001 0.90499997 -0.12499999 0
-3.9543459 1.0038242 -0.19000845 0
-3.8770001 1.082 -0.189 0
-3.0259781 1.0884812 -0.15987843 0
-2.9584892 1.0597405 -0.17193922 0
-2.891 1.031 -0.184 0
-2.5208399 1.0857171 -0.17881557 0
-2.4381559 1.0486454 -0.17853402 0
-2.3554721 1.0115737 -0.17825246 0
-1.9492499 1.0615467 -0.16447005 0
-1.845992 1.0484115 -0.16558598 0
-1.7407017 1.0466051 -0.16606756 0
-1.6517023 1.0440544 -0.16560671 0
-1.5507456 1.0534039 -0.16533223 0
-1.4503397 1.048679 -0.16557044 0
-1.3550895 1.0759864 -0.16400999 0
-1.2506865 1.0627095 -0.16557471 0
-1.1435001 1.0445 -0.16499999 0
1.164 1.058 -0.149 0
1.2453685 1.0707808 -0.14901054 0
1.3566818 1.0450497 -0.1468029 0
1.4516649 1.0362066 -0.1445404 0
1.54653 1.0384502 -0.14209816 0
1.6538024 1.0583895 -0.13826771 0
1.7386192 1.0357448 -0.1357954 0
1.8283741 1.0548356 -0.13264389 0
1.9173194 1.0670643 -0.13073196 0
2.0164857 1.0406953 -0.12921602 0
2.1310163 1.0835081 -0.12563279 0
-4.2176304 1.1845763 -0.12590593 0
-4.132473 1.1589322 -0.14167945 0
-4.0473156 1.1332881 -0.15745297 0
-3.9621577 1.1076441 -0.17322648 0
-3.154 1.143 -0.13699999 0
-3.0934672 1.1172217 -0.14781766 0
-2.575 1.11 -0.17900001 0
-2.4170001 1.192 -0.168 0
-2.0459201 1.1755037 -0.16977282 0
-1.9257385 1.1150014 -0.16464339 0
-1.863341 1.1449404 -0.16138908 0
-1.7643735 1.1620719 -0.16235729 0
-1.6530287 1.1414273 -0.16086808 0
-1.5545578 1.1482221 -0.1610208 0
-1.4533597 1.1536365 -0.16154096 0
-1.355415 1.1501669 -0.16162656 0
-1.274696 1.1606647 -0.16112679 0
-1.1532238 1.1337979 -0.1626852 0
-1.0536667 1.1409999 -0.16233334 0
-0.792 1.169 -0.155 0
1.0795 1.1615 -0.14750001 0
1.1602073 1.1572995 -0.14753963 0
1.2578907 1.1430593 -0.14481676 0
1.3234773 1.1364557 -0.14511345 0
1.4488603 1.1507159 -0.14177711 0
1.54255 1.1311806 -0.14003208 0
1.6613024 1.1487583 -0.1363634 0
1.7722781 1.1511492 -0.1327146 0
1.844257 1.1381978 -0.1310845 0
1.9585629 1.1490047 -0.12837571 0
2.0670071 1.1560463 -0.12582998 0
2.1199999 1.142 -0.125 0
-4.3027883 1.2102203 -0.11013241 0
-2.5744441 1.2724611 -0.16776812 0
-2.4957221 1.2322305 -0.16788407 0
-2.2179999 1.277 -0.169 0
-2.1603632 1.2430046 -0.16925885 0
-2.005939 1.2810371 -0.16656227 0
-1.9292583 1.2443305 -0.16127501 0
-1.8498337 1.2312698 -0.1551488 0
-1.7548015 1.2638111 -0.15570515 0
-1.6558332 1.2483299 -0.15714192 0
-1.5473901 1.2527376 -0.15783036 0
-1.4270326 1.2524238 -0.15840673 0
-1.3443189 1.232478 -0.15887003 0
-1.2504754 1.2483761 -0.15696834 0
-1.1432135 1.2525132 -0.15778303 0
-1.0421574 1.2434385 -0.15909082 0
-0.94799995 1.248 -0.15966666 0
-0.85489333 1.2575471 -0.1533449 0
-0.76221609 1.2469078 -0.15356655 0
-0.67000002 1.2535 -0.15450001 0
-0.60000002 1.296 -0.15700001 0
0.66149998 1.2445 -0.14950001 0
0.97600001 1.2755001 -0.146 0
1.0465291 1.255581 -0.14678402 0
1.1412631 1.2598312 -0.14485872 0
1.2271819 1.2376387 -0.1443561 0
1.3445451 1.2448937 -0.14176546 0
1.4451445 1.2543361 -0.13915627 0
1.5477331 1.2522423 -0.13702643 0
1.6423653 1.2566292 -0.13461111 0
1.7325197 1.2338436 -0.1323157 0
1.8360173 1.2221079 -0.13072045 0
1.9301162 1.2475951 -0.12747633 0
2.0308468 1.2419615 -0.12528791 0
-2.8106098 1.3931526 -0.16742031 0
-2.7318878 1.3529221 -0.16753624 0
-2.6531658 1.3126916 -0.16765219 0
-2.0563817 1.3448255 -0.15879491 0
-1.9408269 1.3736912 -0.15072125 0
-1.8534445 1.347366 -0.15115692 0
-1.7474931 1.3576585 -0.15176833 0
-1.6578881 1.3558024 -0.15614323 0
-1.5475694 1.3615962 -0.15474306 0
-1.4577395 1.3545173 -0.15545025 0
-1.3392861 1.3422494 -0.15232748 0
-1.2405711 1.3687228 -0.1530816 0
-1.1440277 1.3556556 -0.15254822 0
-1.0388355 1.3560652 -0.15501779 0
-0.94203442 1.3572333 -0.15380934 0
-0.84717435 1.3599888 -0.15432794 0
-0.73410201 1.3593067 -0.15160169 0
-0.65654451 1.3435817 -0.15244427 0
-0.565 1.3535 -0.15349999 0
-0.49200001 1.396 -0.156 0
0.5575 1.3425 -0.149 0
0.64420605 1.3625253 -0.14766479 0
0.75073946 1.3397651 -0.1477344 0
0.88049996 1.3840001 -0.146 0
0.95263284 1.3474169 -0.14485657 0
1.0601369 1.3592691 -0.14401105 0
1.1437696 1.3476521 -0.14396107 0
1.2388339 1.3436882 -0.14194214 0
1.3463535 1.3574998 -0.13944943 0
1.4605353 1.3415116 -0.13689893 0
1.563661 1.3573838 -0.13393906 0
1.6509985 1.3559934 -0.13179061 0
1.7725744 1.3380533 -0.12962583 0
1.8718385 1.356884 -0.12651034 0
1.9600086 1.3288873 -0.1250269 0
3.7384293 1.3439884 -0.10701153 0
-2.9680538 1.4736136 -0.16718844 0
-2.8893318 1.4333831 -0.16730437 0
-2.2259884 1.4541467 -0.1534833 0
-2.1300352 1.4272176 -0.15294002 0
-2.0443311 1.4761206 -0.14628664 0
-1.9636191 1.4540008 -0.14858358 0
-1.862904 1.446228 -0.14523117 0
-1.741326 1.4595971 -0.14606877 0
-1.6467553 1.4405757 -0.1466777 0
-1.5507487 1.4395977 -0.15053707 0
-1.4553769 1.4662193 -0.14828256 0
-1.3387498 1.4552078 -0.14894833 0
-1.2529804 1.4453596 -0.15003635 0
-1.1424594 1.4485677 -0.14864886 0
-1.0462763 1.4798079 -0.15254459 0
-0.94006008 1.4386849 -0.15328251 0
-0.83797199 1.4441818 -0.15195 0
-0.75863969 1.4630123 -0.15175487 0
-0.65612406 1.4533671 -0.15022415 0
-0.54577512 1.441925 -0.15465674 0
-0.44127589 1.4669232 -0.15382916 0
-0.37 1.49 -0.155 0
0.41299999 1.462 -0.148 0
0.56860924 1.4547248 -0.14688751 0
0.66339391 1.4782358 -0.14544165 0
0.73154753 1.4487981 -0.14544471 0
0.86013573 1.4476458 -0.14456829 0
0.94852322 1.4443159 -0.14455505 0
1.0486063 1.4604741 -0.14255667 0
1.1424552 1.4351903 -0.14219168 0
1.2473515 1.4537381 -0.14034714 0
1.3459562 1.4584856 -0.13805269 0
1.4563377 1.4502754 -0.13482055 0
1.5435443 1.4585395 -0.13189492 0
1.6249051 1.4497254 -0.13153596 0
1.7249032 1.4397795 -0.12871 0
1.8268396 1.4492278 -0.12557471 0
-3.0713878 1.526422 -0.16703624 0
-2.338485 1.5285908 -0.15272829 0
-2.2332027 1.5803379 -0.14603698 0
-2.1587794 1.5458438 -0.1448871 0
-2.0526307 1.5690248 -0.13962033 0
-1.9473439 1.539422 -0.13747324 0
-1.8440305 1.5439923 -0.13689938 0
-1.7541367 1.5310825 -0.13718261 0
-1.6572098 1.5472397 -0.13682602 0
-1.5608137 1.5506537 -0.13706094 0
-1.4643866 1.5671875 -0.14167972 0
-1.3680382 1.5391403 -0.14553058 0
-1.2479594 1.5643809 -0.14435339 0
-1.136434 1.5482527 -0.14724599 0
-1.0812491 1.5601487 -0.1531698 0
-0.95786101 1.5410103 -0.1502485 0
-0.83512956 1.5472059 -0.14901528 0
-0.73416054 1.5341916 -0.14916332 0
-0.62415308 1.5578157 -0.15217896 0
-0.54954386 1.5594245 -0.15369824 0
-0.4751035 1.5596929 -0.15331662 0
-0.34594572 1.5422411 -0.1537457 0
-0.236 1.5743333 -0.15233333 0
0.36500001 1.577 -0.155 0
0.43387297 1.5411359 -0.14691098 0
0.537 1.5746666 -0.14600001 0
0.62999672 1.5448632 -0.14470389 0
0.74809712 1.5559297 -0.14324559 0
0.84227282 1.5500321 -0.14347649 0
0.95773101 1.5467732 -0.14279713 0
1.0890589 1.5477746 -0.14101987 0
1.1531492 1.5295593 -0.14051025 0
1.2598532 1.5569879 -0.1386261 0
1.3662461 1.5620186 -0.13646118 0
1.4337388 1.5657476 -0.1333545 0
1.535376 1.5406697 -0.13234666 0
1.6497283 1.5450963 -0.12922716 0
1.7535616 1.5525709 -0.12634356 0
-2.5609896 1.675832 -0.15123495 0
-2.4270706 1.6284351 -0.15088005 0
-2.340905 1.6471678 -0.1412807 0
-2.2529223 1.6510022 -0.14033496 0
-2.1660948 1.6767823 -0.13033681 0
-2.055465 1.6569418 -0.12652168 0
-1.9578451 1.6285083 -0.12726547 0
-1.8580586 1.6524636 -0.12015913 0
-1.745717 1.6470088 -0.11964297 0
-1.6517833 1.6506828 -0.12369405 0
-1.5647638 1.6583999 -0.13067758 0
-1.4608791 1.6563356 -0.13774456 0
-1.3495884 1.6525465 -0.13315138 0
-1.2556334 1.6485441 -0.13984826 0
-1.1553997 1.6384398 -0.1487786 0
-1.028 1.656 -0.145 0
-0.9502809 1.6586812 -0.14484681 0
-0.86840135 1.6343967 -0.14647163 0
-0.75731879 1.651095 -0.14490949 0
-0.6716373 1.6451781 -0.14999151 0
-0.56013668 1.639614 -0.15197371 0
-0.45173952 1.6353692 -0.15238705 0
-0.33243331 1.6598711 -0.15162846 0
-0.25277537 1.6557168 -0.15152051 0
-0.171 1.675 -0.15700001 0
0.34472632 1.6704639 -0.1584692 0
0.44727302 1.6537359 -0.14731099 0
0.54833937 1.6704938 -0.14544779 0
0.63633001 1.6350217 -0.14233337 0
0.74605983 1.662189 -0.14287788 0
0.85692811 1.6571656 -0.14146504 0
0.97018594 1.653385 -0.14101854 0
1.0463338 1.6471094 -0.14113781 0
1.1574386 1.6408836 -0.1389672 0
1.2341299 1.6566845 -0.13824648 0
1.3413755 1.6544815 -0.13589858 0
1.4639126 1.649821 -0.13323513 0
1.5649958 1.6499264 -0.13007995 0
1.6609173 1.6702797 -0.12714779 0
1.715 1.607 -0.126 0
-3.9690001 1.776 -0.178 0
-2.5223722 1.7645319 -0.14014453 0
-2.4474471 1.7316608 -0.14257978 0
-2.3600605 1.7319479 -0.13625744 0
-2.264251 1.7427591 -0.12644957 0
-2.1267023 1.7327552 -0.11592511 0
-2.0753376 1.7217002 -0.11972498 0
-1.9552875 1.704312 -0.12172072 0
-1.7477564 1.7301582 -0.11299483 0
-1.6524581 1.7560841 -0.12127525 0
-1.5333252 1.7634758 -0.13152678 0
-1.4498143 1.7473081 -0.13272333 0
-1.3430728 1.7470702 -0.1309434 0
-1.248275 1.7600956 -0.13744438 0
-1.1614702 1.7633901 -0.14153486 0
-1.0487177 1.7341062 -0.1455878 0
-0.95009613 1.7475395 -0.1434958 0
-0.85451639 1.7484512 -0.14206113 0
-0.75642818 1.7427136 -0.14564118 0
-0.65859038 1.7659974 -0.14757331 0
-0.54989964 1.7606176 -0.14824565 0
-0.45190513 1.7591691 -0.14870203 0
-0.36009943 1.7553664 -0.14976379 0
-0.25693464 1.7598016 -0.15028441 0
-0.16749999 1.7538702 -0.1552323 0
0.19499999 1.7690001 -0.161 0
0.25599998 1.7539999 -0.16249999 0
0.3692826 1.7544494 -0.15758257 0
0.46516716 1.758163 -0.14623475 0
0.55874169 1.7609327 -0.14413008 0
0.66732198 1.736787 -0.14293157 0
0.75215387 1.7464933 -0.1410065 0
0.83740103 1.7543645 -0.14017759 0
0.95973426 1.7619338 -0.13986099 0
1.0542001 1.7488213 -0.1390885 0
1.1509695 1.7435477 -0.13886513 0
1.2486138 1.756121 -0.13684969 0
1.3509986 1.747858 -0.13427198 0
1.4543769 1.7493315 -0.13263085 0
1.5577494 1.7814356 -0.12960035 0
1.6127094 1.7405872 -0.12808967 0
-4.2030349 1.8768016 -0.15170394 0
-4.1250234 1.843201 -0.16046929 0
-4.0470119 1.8096006 -0.16923465 0
-3.9065495 1.8953613 -0.14333667 0
-3.8282747 1.8541806 -0.15716833 0
-3.7305717 1.8558838 -0.16213591 0
-3.631 1.8609999 -0.169 0
-2.6244135 1.8639798 -0.12854949 0
-2.4419937 1.8184555 -0.12310354 0
-1.6225114 1.8572487 -0.12491813 0
-1.5598271 1.8423442 -0.12500989 0
-1.4519932 1.8526176 -0.12796555 0
-1.3736629 1.8387152 -0.13040566 0
-1.2739277 1.8664447 -0.13096805 0
-1.1512296 1.8849783 -0.1351451 0
-1.0474111 1.8479154 -0.13618882 0
-0.94217467 1.8533384 -0.13809387 0
-0.83829081 1.8486214 -0.13825989 0
-0.75399381 1.8406763 -0.14462587 0
-0.65443456 1.8594964 -0.14288811 0
-0.54884785 1.8535388 -0.14438911 0
-0.44608554 1.8473835 -0.14604659 0
-0.35054126 1.860123 -0.14551282 0
-0.25340176 1.8476301 -0.14912105 0
-0.15078776 1.8447762 -0.15359169 0
-0.062250003 1.84975 -0.16374999 0
0.049500003 1.8625 -0.162 0
0.114 1.845 -0.163 0
0.25664654 1.8555462 -0.1620155 0
0.34745097 1.8525968 -0.16068377 0
0.44311675 1.8594726 -0.15032659 0
0.54126173 1.863454 -0.14270218 0
0.66479778 1.8457823 -0.14204556 0
0.75018722 1.8560548 -0.14019476 0
0.86238134 1.8455799 -0.13937426 0
0.94155234 1.8312922 -0.139394 0
1.0516526 1.8726867 -0.13772921 0
1.1540381 1.8451395 -0.13743261 0
1.2615402 1.8659099 -0.13583288 0
1.3705052 1.8627739 -0.13352653 0
1.4649372 1.8514706 -0.13111715 0
1.5493327 1.8673344 -0.12920901 0
2.9550254 1.8235854 -0.10181175 0
3.0691016 1.8883414 -0.10124702 0
-4.4370699 1.9776032 -0.12540787 0
-4.3590579 1.9440026 -0.13417324 0
-4.2810464 1.9104021 -0.14293858 0
-4.0630989 1.9777226 -0.11567332 0
-3.9848242 1.9365419 -0.12950499 0
-3.8714309 1.9743029 -0.12181546 0
-3.7912872 1.9365352 -0.13754365 0
-3.6289542 1.9695334 -0.15276928 0
-3.5539999 1.926 -0.168 0
-1.689 1.904 -0.126 0
-1.487 1.928 -0.12800001 0
-1.3127964 1.9704423 -0.1329823 0
-1.2480735 1.9444448 -0.13244782 0
-1.1598622 1.9752015 -0.13239451 0
-1.0545456 1.9478598 -0.13086781 0
-0.95834613 1.9636849 -0.13657357 0
-0.84755152 1.9543182 -0.13801344 0
-0.75697511 1.944049 -0.14135076 0
-0.64731693 1.9568863 -0.13998388 0
-0.53452194 1.9646959 -0.14030555 0
-0.44339356 1.9249766 -0.14288275 0
-0.3477419 1.9531311 -0.14244322 0
-0.24512251 1.9477067 -0.14723474 0
-0.15485772 1.9571158 -0.15133624 0
-0.060932357 1.9438376 -0.16019332 0
0.035856612 1.9414352 -0.16184823 0
0.13467208 1.9377476 -0.16116753 0
0.25035539 1.9498132 -0.1602464 0
0.34625652 1.9442123 -0.16189221 0
0.45790029 1.9578733 -0.15047413 0
0.55757493 1.9576439 -0.1418245 0
0.6433202 1.9376857 -0.14142208 0
0.75258303 1.9549425 -0.13961606 0
0.86282003 1.9532382 -0.13882346 0
0.95649856 1.9596845 -0.13733603 0
1.0462234 1.9506636 -0.13698867 0
1.1559691 1.937621 -0.13598476 0
1.2520995 1.9619882 -0.1351825 0
1.3473109 1.9325011 -0.13385919 0
1.4366044 1.9496267 -0.13175586 0
1.5342649 1.9599812 -0.12798397 0
1.6477249 1.9674001 -0.12512957 0
2.832 1.934 -0.104 0
2.9055088 1.9819883 -0.10326736 0
3.1451523 1.9315121 -0.10087053 0
3.2212031 1.9746829 -0.10049404 0
-4.5029998 2.006 -0.118 0
-4.1413736 2.0189033 -0.10184165 0
-3.9515746 2.0120707 -0.10608728 0
-3.7413857 2.0348337 -0.12992321 0
-1.3387699 2.0626569 -0.1232778 0
-1.2805325 2.0251236 -0.12604734 0
-1.1433878 2.0461712 -0.12642628 0
-1.055189 2.053695 -0.12800324 0
-0.95443135 2.0489385 -0.13015172 0
-0.85233432 2.0631299 -0.13355729 0
-0.75278962 2.0409644 -0.13518374 0
-0.6535095 2.040359 -0.13563272 0
-0.55738348 2.0492473 -0.13677081 0
-0.44962376 2.045913 -0.13911915 0
-0.34155446 2.0371635 -0.14077412 0
-0.23732904 2.0529795 -0.14380655 0
-0.1561155 2.0570555 -0.1487533 0
-0.05932169 2.0389531 -0.15700299 0
0.048104633 2.0327005 -0.15906204 0
0.14709985 2.0541034 -0.1585381 0
0.25026244 2.0367713 -0.15849984 0
0.35360321 2.0602322 -0.16287346 0
0.45027286 2.0452201 -0.15294553 0
0.55775374 2.0557239 -0.14227088 0
0.65325582 2.0370033 -0.14006869 0
0.75432247 2.0570428 -0.13949262 0
0.86073315 2.0479169 -0.13722877 0
0.94782257 2.039093 -0.1364249 0
1.0412823 2.060226 -0.13453148 0
1.143182 2.0473697 -0.13487871 0
1.2372081 2.0448222 -0.13341756 0
1.3417784 2.036279 -0.13306491 0
1.4700174 2.0213075 -0.13010883 0
1.5385001 2.0155001 -0.12799999 0
2.753 2.073 -0.106 0
2.8479409 2.0419779 -0.10450168 0
2.9790175 2.0299766 -0.10253471 0
3.0525262 2.0779648 -0.10180207 0
3.2972538 2.0178535 -0.10011756 0
-3.8538172 2.1001339 -0.10707713 0
-1.4090028 2.1066153 -0.10950108 0
-1.3675522 2.1555543 -0.11538956 0
-1.2198296 2.133316 -0.12174265 0
-1.139657 2.1630232 -0.11934396 0
-1.0442263 2.1545556 -0.1235664 0
-0.9398526 2.1537228 -0.12655762 0
-0.85273635 2.154773 -0.12944388 0
-0.74444324 2.1500008 -0.13030158 0
-0.64352983 2.1402621 -0.13200951 0
-0.54768139 2.1319375 -0.13410497 0
-0.45318317 2.174474 -0.13437031 0
-0.35006383 2.1349709 -0.13880773 0
-0.243343 2.16166 -0.14225413 0
-0.13792998 2.1459503 -0.14760521 0
-0.039534833 2.1469448 -0.15405913 0
0.04935186 2.1457958 -0.15509212 0
0.14969589 2.156801 -0.15660749 0
0.26404005 2.1396434 -0.1567069 0
0.35225523 2.1480527 -0.16050303 0
0.44644877 2.1515107 -0.1542508 0
0.56086695 2.1468616 -0.14266363 0
0.66076654 2.140512 -0.13914247 0
0.77505594 2.1656363 -0.13824911 0
0.83527362 2.1426888 -0.13709345 0
0.94676745 2.1472733 -0.13548017 0
1.0407276 2.1562159 -0.13440967 0
1.1452284 2.167366 -0.13315542 0
1.2419077 2.1306944 -0.13211495 0
2.7481618 2.1698036 -0.10614596 0
2.8588095 2.151062 -0.10415018 0
2.9557641 2.1169121 -0.10300674 0
3.0276458 2.1668682 -0.10201011 0
3.1627896 2.1499472 -0.10070309 0
-1.2421478 2.2592456 -0.11397497 0
-1.1483786 2.2407651 -0.11280349 0
-1.0732315 2.2597225 -0.11902376 0
-0.94392496 2.2532914 -0.12341432 0
-0.85479265 2.2514474 -0.12463918 0
-0.74374938 2.2640297 -0.12620796 0
-0.6401121 2.2373099 -0.12834728 0
-0.55464071 2.2514751 -0.12952876 0
-0.45187673 2.2800727 -0.13088006 0
-0.36349696 2.2430482 -0.13444564 0
-0.26235595 2.2590923 -0.13894098 0
-0.1530654 2.2468455 -0.14334041 0
-0.044550721 2.2549043 -0.14957699 0
0.063776053 2.259645 -0.15204419 0
0.15070541 2.2568674 -0.15443867 0
0.26164377 2.2408047 -0.15480985 0
0.34309626 2.224643 -0.15790185 0
0.44944111 2.2524505 -0.15460095 0
0.55369735 2.2489328 -0.14444765 0
0.64615488 2.2308345 -0.13809875 0
0.74022317 2.2622187 -0.13769956 0
0.85108453 2.2488942 -0.13714597 0
0.96395206 2.2558818 -0.13431139 0
1.0508429 2.2533348 -0.13359958 0
1.1422632 2.2326188 -0.1320354 0
1.3055378 2.2438745 -0.12572846 0
2.641 2.29 -0.11 0
2.850647 2.2502153 -0.10358382 0
2.9646187 2.2291243 -0.10230037 0
3.0673432 2.2489948 -0.10104032 0
3.1714098 2.2667804 -0.10001685 0
-1.2460001 2.3305001 -0.111 0
-1.0642035 2.3761981 -0.11496041 0
-0.95728922 2.3552797 -0.11916336 0
-0.85182458 2.350368 -0.11988324 0
-0.75845188 2.3588684 -0.12149417 0
-0.65094239 2.3503442 -0.12397088 0
-0.54835701 2.347311 -0.12781532 0
-0.46598434 2.3586602 -0.12713887 0
-0.33805838 2.3561976 -0.13364179 0
-0.25364169 2.3504841 -0.13915205 0
-0.15728426 2.3545806 -0.13981621 0
-0.042562939 2.351949 -0.14553818 0
0.060586251 2.3620682 -0.14866841 0
0.16296236 2.3641529 -0.15236746 0
0.25574872 2.3391898 -0.15370718 0
0.34877089 2.3337901 -0.15474771 0
0.44512668 2.3523331 -0.1539382 0
0.53210133 2.3607736 -0.14907078 0
0.63966817 2.3538408 -0.13983853 0
0.71712983 2.3749921 -0.13721436 0
0.85925078 2.3516343 -0.13560195 0
0.94975686 2.3505061 -0.13466163 0
1.0601071 2.363975 -0.12961444 0
1.1371536 2.362844 -0.12951408 0
1.2109078 2.3245473 -0.12708853 0
1.3707992 2.3593369 -0.121747 0
2.5610001 2.3269999 -0.11 0
2.625103 2.3871114 -0.10782292 0
2.7063138 2.3479865 -0.10785235 0
2.9531324 2.330627 -0.10102169 0
-1.1371887 2.4605896 -0.10064095 0
-1.0747852 2.4750214 -0.10300079 0
-0.917 2.4170001 -0.117 0
-0.829 2.4119999 -0.118 0
-0.77544874 2.4166005 -0.11902129 0
-0.65477777 2.4364409 -0.12063511 0
-0.54708558 2.4440234 -0.12476466 0
-0.47734585 2.4607961 -0.1233935 0
-0.35822436 2.4518917 -0.12951694 0
-0.24850963 2.4470596 -0.13623296 0
-0.14778642 2.4490654 -0.13819705 0
-0.056772709 2.4616351 -0.14082275 0
0.050602227 2.4426286 -0.14440349 0
0.1525642 2.4577348 -0.150545 0
0.27516127 2.46083 -0.15304111 0
0.35866293 2.4560061 -0.15320082 0
0.4505623 2.4502141 -0.15274373 0
0.53944004 2.4659376 -0.14966246 0
0.62378508 2.4563351 -0.13903342 0
0.73500001 2.4345 -0.1365 0
0.84199446 2.4414463 -0.13511825 0
0.94278783 2.4425118 -0.13330546 0
1.0592041 2.4535692 -0.12959215 0
1.1281672 2.4386568 -0.12721708 0
1.2699802 2.4405112 -0.12411509 0
1.4360604 2.4747992 -0.11776554 0
2.4487607 2.4422283 -0.10891305 0
2.6892059 2.4472229 -0.10564584 0
2.7716277 2.4059732 -0.1057047 0
2.8369415 2.4639597 -0.10355705 0
-0.54799998 2.5179999 -0.13 0
-0.3448855 2.541821 -0.13323542 0
-0.24888967 2.5375347 -0.13255283 0
-0.15293929 2.5392704 -0.13425478 0
-0.046876568 2.5563679 -0.13768733 0
0.05419958 2.5541036 -0.1403999 0
0.14252232 2.55007 -0.14962137 0
0.25725964 2.5655947 -0.14955093 0
0.35734197 2.5609529 -0.14963074 0
0.44572368 2.5570807 -0.15141448 0
0.54786813 2.5617197 -0.14834611 0
0.61199999 2.5109999 -0.142 0
1.159 2.503 -0.126 0
1.312 2.523 -0.122 0
1.465 2.526 -0.116 0
2.541043 2.5389128 -0.10565219 0
2.7533085 2.5073345 -0.10346877 0
2.8174114 2.567446 -0.10129169 0
2.9022553 2.5219462 -0.1014094 0
-0.31718418 2.6097889 -0.13511544 0
-0.25679082 2.6315889 -0.13720848 0
-0.15395367 2.6490271 -0.13451846 0
-0.041292563 2.6520786 -0.13943598 0
0.05153843 2.6852872 -0.14242311 0
0.14923073 2.6483364 -0.14729318 0
0.24717379 2.6545835 -0.14617647 0
0.33708131 2.6509261 -0.148791 0
0.44535574 2.6287303 -0.14966127 0
0.56462157 2.6338406 -0.1482096 0
2.6333253 2.6355972 -0.10239133 0
-0.20275082 2.7730517 -0.1225647 0
0.052000001 2.701 -0.142 0
0.15075231 2.7549973 -0.14747076 0
0.35883394 2.771878 -0.15030238 0
0.442 2.7409999 -0.148 0
0.52899474 2.7306058 -0.15019755 0
0.186 2.803 -0.148 0
0.31900001 2.806 -0.15000001 0
0.80699998 -3.358 -0.0049999999 0
0.78635997 -3.2729681 -5.6278892e-05 0
0.55801135 -2.8235238 -0.0056633838 0
0.53449351 -2.7393312 -0.011159807 0
0.8749339 -2.742775 -0.028648593 0
0.93542755 -2.7241054 -0.025332317 0
0.51935792 -2.6384788 -0.025264543 0
0.65200001 -2.642 -0.030000001 0
0.72801995 -2.6823213 -0.03349001 0
0.85647339 -2.6378675 -0.032745834 0
0.93202955 -2.6779637 -0.047115851 0
0.30734184 -2.5277801 -0.0088407723 0
0.50134546 -2.5235322 -0.049246535 0
0.65160507 -2.5463922 -0.047509555 0
0.75044519 -2.573647 -0.041224115 0
0.85744864 -2.5445175 -0.054603424 0
0.9051913 -2.5973032 -0.055429876 0
-3.4555509 -2.4632771 -0.096334189 0
-3.3871887 -2.4090965 -0.085667744 0
-0.49700001 -2.4219999 -0.017999999 0
0.2593528 -2.4423115 -0.024150126 0
0.4862591 -2.444149 -0.063434899 0
0.63691914 -2.4399519 -0.064696446 0
0.77800512 -2.4401312 -0.06522534 0
0.83083647 -2.4628367 -0.065503672 0
-4.3239999 -2.358 -0.001000002 0
-4.2494135 -2.3204937 -0.015597597 0
-3.3188264 -2.3549156 -0.075001292 0
-3.2504642 -2.300735 -0.06433484 0
-2.4349999 -2.325 -0.050000001 0
-0.48033962 -2.3428164 -0.010324992 0
0.132 -2.3210001 -0.050999999 0
0.23005188 -2.3434973 -0.033178113 0
0.47117272 -2.3647661 -0.077623263 0
0.59454554 -2.3623884 -0.076601923 0
0.64167994 -2.3582141 -0.076660007 0
0.76823026 -2.362483 -0.075438231 0
0.82467651 -2.3553212 -0.080371954 0
1.4776471 -2.3237097 -0.056585517 0
-6.5349998 -2.2309999 -0.050999999 0
-6.4702344 -2.2104957 -0.063161179 0
-4.171237 -2.2811821 -0.030897893 0
-4.0539722 -2.2222145 -0.053848349 0
-3.7509999 -2.2019999 -0.052000001 0
-3.4059999 -2.211 -0.054000005 0
-3.1735511 -2.2397771 -0.052334193 0
-2.3491454 -2.2424943 -0.059437912 0
-2.2449031 -2.2732859 -0.060604785 0
-2.1473107 -2.2203312 -0.075174622 0
-1.8960752 -2.209023 -0.094454572 0
-0.46367925 -2.2636328 -0.0026499862 0
-0.055092271 -2.2461541 -0.042161506 0
0.011 -2.2739999 -0.001 0
0.12959687 -2.2749872 -0.053968564 0
0.22104539 -2.2550602 -0.03990585 0
0.45608637 -2.285383 -0.091811635 0
0.57827276 -2.2831943 -0.089800961 0
0.65328902 -2.2463293 -0.093044817 0
0.75557309 -2.2785439 -0.088656947 0
1.0102407 -2.2270739 -0.083064333 0
1.3230119 -2.2121816 -0.0058362931 0
1.4244838 -2.2375948 -0.061485361 0
1.7272522 -2.2620893 -0.062823087 0
-6.3851109 -2.1835461 -0.079145059 0
-6.2999878 -2.1565964 -0.095128939 0
-3.9367068 -2.1632469 -0.076798797 0
-3.85853 -2.1239352 -0.0920991 0
-3.7030227 -2.1740036 -0.057866469 0
-3.6252203 -2.1286032 -0.067379817 0
-3.408 -2.1400001 -0.0069999993 0
-3.3655002 -2.1491232 -0.03543178 0
-3.2659018 -2.1707666 -0.057853088 0
-3.1843135 -2.137686 -0.060939554 0
-2.2535164 -2.1505957 -0.069950327 0
-2.1526256 -2.1543183 -0.057418466 0
-2.0485001 -2.1329999 -0.068000004 0
-1.9607351 -2.1596215 -0.039274685 0
-1.8386129 -2.1435344 -0.079681858 0
-1.7765253 -2.1676152 -0.09513779 0
-0.061487287 -2.1570196 -0.049613189 0
0.12282611 -2.1453471 -0.06233244 0
0.2120389 -2.1666231 -0.046633583 0
0.59164959 -2.171787 -0.098268501 0
0.77100003 -2.194 -0.097000003 0
0.93962795 -2.1444352 -0.093735181 0
1.1343344 -2.1386163 -0.080808342 0
1.2836746 -2.1397877 -0.019224197 0
1.3776734 -2.1617706 -0.065799691 0
1.4603791 -2.1100338 -0.0024404675 0
1.5577612 -2.1067548 -0.064720899 0
1.6241213 -2.1654072 -0.066261366 0
-3.5474181 -2.0832028 -0.076893173 0
-3.4696159 -2.0378025 -0.086406521 0
-3.3108125 -2.0797102 -0.023012288 0
-3.2357109 -2.0331216 -0.03538575 0
-3.1405096 -2.0620487 -0.075886406 0
-3.0394852 -2.0347645 -0.075704664 0
-2.1578872 -2.0586967 -0.080462754 0
-2.0583005 -2.0590549 -0.066334769 0
-1.9410049 -2.0432363 -0.08225923 0
-1.8500123 -2.0346909 -0.054217365 0
-1.7417351 -2.0633633 -0.066854216 0
-1.6642087 -2.0313587 -0.075896315 0
-0.06586314 -2.0477173 -0.059044715 0
0.11605535 -2.015707 -0.070696324 0
0.20303243 -2.0781858 -0.053361319 0
0.54824644 -2.0170021 -0.099854007 0
0.9313851 -2.0577183 -0.084902935 0
1.0525488 -2.0581677 -0.091547377 0
1.119 -2.0179999 -0.096000001 0
1.2511299 -2.0331719 -0.065013483 0
1.3308629 -2.0859463 -0.070114017 0
1.4107033 -2.0370269 -0.012152378 0
1.543641 -2.0357609 -0.068783402 0
-3.3918135 -1.9924021 -0.095919877 0
-3.1606092 -1.9865328 -0.047759213 0
-3.0630798 -1.9583561 -0.075733766 0
-2.9658072 -1.9556386 -0.091099799 0
-2.8946569 -1.931843 -0.090469778 0
-2.2528975 -1.9455789 -0.0051955045 0
-2.0622582 -1.9667978 -0.090975165 0
-1.9754854 -1.9443712 -0.082828537 0
-1.847804 -1.9503891 -0.096407384 0
-1.7635545 -1.9371389 -0.06588535 0
-1.6371381 -1.9551499 -0.050819654 0
-1.5115526 -1.9604927 -0.063803278 0
-1.3187406 -1.9746945 -0.069897443 0
-0.62800002 -1.902 -0.090999998 0
-0.55199999 -1.913 -0.082999997 0
-0.054477699 -1.9434359 -0.067769773 0
0.16352896 -1.9401135 -0.067726023 0
0.89333695 -1.9760035 -0.085790068 0
0.98789561 -1.9580035 -0.094932735 0
1.058002 -1.9376845 -0.087926283 0
1.1490591 -1.9568951 -0.095147245 0
1.2220806 -1.9574324 -0.061914232 0
1.3610275 -1.9640203 -0.021864282 0
1.4687876 -1.9250511 -0.082930408 0
1.5296407 -1.9740882 -0.069696799 0
1.67 -1.903 -0.046999998 0
-3.0104063 -1.8933551 -0.072506145 0
-2.9353046 -1.8467664 -0.084879607 0
-2.8412228 -1.8402799 -0.097552702 0
-2.163178 -1.8709333 -0.020089023 0
-2.0965891 -1.8129666 -0.03304451 0
-1.8382086 -1.8367728 -0.087139487 0
-1.7059158 -1.8721042 -0.073664017 0
-1.6285203 -1.8443251 -0.051016849 0
-1.5515966 -1.8555973 -0.031236574 0
-1.4536306 -1.8471508 -0.070481315 0
-1.2406108 -1.8582917 -0.08784616 0
-0.6213097 -1.8832011 -0.092507675 0
-0.5596602 -1.8335162 -0.088847861 0
-0.051896483 -1.8578492 -0.075000912 0
0.14152032 -1.8278639 -0.077696338 0
0.83626479 -1.8534313 -0.087120771 0
0.93289137 -1.8583299 -0.094992705 0
1.038306 -1.8558873 -0.091356508 0
1.1774725 -1.8414599 -0.079897419 0
1.2564136 -1.8534718 -0.069086596 0
1.349291 -1.8484925 -0.068286814 0
1.4405969 -1.8352088 -0.078594476 0
1.5275425 -1.8789304 -0.067062795 0
1.6203036 -1.840777 -0.054124117 0
2.2392905 -1.8070841 -0.014646895 0
-2.03 -1.755 -0.046 0
-1.7438834 -1.7415091 -0.096055791 0
-1.5906386 -1.7420348 -0.089221343 0
-1.443 -1.763 -0.038000003 0
-1.3570526 -1.7584927 -0.099803284 0
-0.80400002 -1.7180001 -0.079999998 0
-0.76301783 -1.760424 -0.00069197081 0
-0.62312847 -1.7510213 -0.080517806 0
-0.53609633 -1.7480141 -0.092917271 0
-0.045513589 -1.7430907 -0.087260462 0
0.089049071 -1.7354546 -0.09751337 0
0.13476017 -1.740432 -0.083848178 0
0.77919257 -1.7308592 -0.088451467 0
0.86665463 -1.7207878 -0.094532989 0
0.94362348 -1.7659631 -0.090040982 0
1.077431 -1.739956 -0.087899745 0
1.1554984 -1.7391831 -0.087349258 0
1.2357574 -1.7583857 -0.075768478 0
1.3481395 -1.7674097 -0.095326111 0
1.4444622 -1.7338461 -0.055038165 0
1.5548484 -1.7615322 -0.062474944 0
1.6485291 -1.7672176 -0.081691764 0
2.0910001 -1.737 -0.030999996 0
2.1675086 -1.7473972 -0.024507068 0
-1.533 -1.677 -0.097000003 0
-0.74214464 -1.659722 -0.04277185 0
-0.63976717 -1.6809621 -0.092245854 0
-0.59316397 -1.6197851 -0.09346614 0
-0.048325945 -1.6392475 -0.094275236 0
0.091683023 -1.6601515 -0.09400446 0
0.15800001 -1.636 -0.086999997 0
0.55607146 -1.6457525 -0.096773654 0
0.74114442 -1.6491444 -0.089338601 0
0.8422721 -1.6409048 -0.092202611 0
0.94944769 -1.6550697 -0.097173743 0
1.0545197 -1.6417558 -0.093431182 0
1.1450003 -1.6336416 -0.086407632 0
1.2479072 -1.6473916 -0.091560632 0
1.3307886 -1.6529629 -0.089247979 0
1.4608904 -1.6630226 -0.078767709 0
1.5516884 -1.666342 -0.090658486 0
1.6412165 -1.6076092 -0.090328455 0
1.7176299 -1.6803656 -0.08089707 0
1.8562778 -1.6453389 -0.071493343 0
1.9443959 -1.6272689 -0.074673437 0
2.0327444 -1.6429651 -0.051911823 0
2.1132507 -1.6705433 -0.033800863 0
2.5968213 -1.6236989 -0.025331967 0
2.6489999 -1.656 -0.019000001 0
2.751817 -1.6369109 -0.021124795 0
3.0758624 -1.6212478 -0.024371713 0
3.1755676 -1.6529559 -0.014659968 0
3.2641854 -1.6555468 -0.018370628 0
3.3544998 -1.6415 -0.028500002 0
-0.12389553 -1.5544677 -0.097890928 0
-0.050999999 -1.546 -0.094999999 0
0.081683025 -1.5651516 -0.092504457 0
0.15197495 -1.5530398 -0.089780793 0
0.55165994 -1.5103655 -0.092675433 0
0.61918277 -1.5824603 -0.097682819 0
0.75607324 -1.5482357 -0.093058638 0
0.84585768 -1.54791 -0.093693227 0
0.93289649 -1.5330088 -0.094702706 0
1.0458821 -1.5632217 -0.093115672 0
1.1637936 -1.5586258 -0.090786815 0
1.2588935 -1.5322262 -0.088625252 0
1.3369821 -1.5359864 -0.085158296 0
1.4387738 -1.583891 -0.098540023 0
1.5801733 -1.5494874 -0.097862765 0
1.7541667 -1.5572584 -0.091240011 0
1.859743 -1.5408684 -0.074048609 0
1.9374561 -1.5464777 -0.070139349 0
2.0400598 -1.547949 -0.081684925 0
2.1482947 -1.5392476 -0.082903661 0
2.3924751 -1.5282851 -0.097291902 0
2.4678421 -1.56574 -0.073859118 0
2.5449722 -1.552614 -0.039551333 0
2.6438048 -1.572844 -0.034968391 0
2.8649235 -1.5238135 -0.039926253 0
2.9390347 -1.5531378 -0.041539844 0
3.0235298 -1.5326828 -0.047959447 0
3.1037483 -1.5736375 -0.038096502 0
3.2427335 -1.5281694 -0.063591413 0
3.3239262 -1.5675216 -0.053546011 0
0.078000002 -1.48 -0.090000004 0
0.145 -1.457 -0.093000002 0
0.48800001 -1.437 -0.088 0
0.55699998 -1.418 -0.090000004 0
0.64602405 -1.4448574 -0.09155643 0
0.74593258 -1.4435866 -0.093431696 0
0.84377074 -1.4635913 -0.098121069 0
0.90776789 -1.4473083 -0.096717678 0
1.085 -1.449 -0.096000001 0
1.2273698 -1.4514539 -0.09478797 0
1.7552602 -1.4272187 -0.08329393 0
1.8365691 -1.4599862 -0.074147202 0
2.0780699 -1.4656191 -0.097592503 0
2.2974107 -1.4383495 -0.061665978 0
2.3722634 -1.4846869 -0.052582473 0
2.4542317 -1.4603996 -0.059265394 0
2.6585822 -1.4081447 -0.081442483 0
2.7609591 -1.4479873 -0.066683531 0
2.8511672 -1.4729693 -0.06646657 0
2.9712334 -1.4509206 -0.075774997 0
3.0803483 -1.449465 -0.083682209 0
3.161541 -1.4888172 -0.073636808 0
3.3797441 -1.4003831 -0.053799435 0
