# .PCD v0.7 - Point Cloud Data file format
VERSION 0.7
FIELDS x y z intensity
SIZE 4 4 4 4
TYPE F F F F
COUNT 1 1 1 1
WIDTH 106
HEIGHT 1
VIEWPOINT 0 0 0 1 0 0 0
POINTS 106
DATA ascii
-18.114906 6.8581409 17.129673 25
-16.648987 6.0454159 17.409573 27
-16.556829 7.7286806 17.619263 26
-15.350448 9.6405077 17.342764 26
-14.598785 9.1811819 17.591717 27
-5.8358741 -1.3316342 5.6461864 26
-5.6667819 3.1445887 0.11826889 4
-5.5587993 -1.3624667 5.7281461 27
-3.5181336 1.049348 0.53326809 8
-3.3003216 1.3506597 0.92218041 11
-3.0518024 -1.3887303 -0.028289104 3
-2.6796863 -1.4911474 0.25167072 6
-2.6313105 2.5286782 3.2899151 25
-2.549989 2.559706 0.90990144 10.5
-2.4151156 -1.2813065 2.665072 26.5
-2.2791708 1.553951 0.19299272 5
-2.2332034 1.7362641 0.072962128 4
-2.2700152 2.6191938 0.13786112 4.5
-2.2656207 1.5395073 0.29649276 6.5
-2.3080699 2.6095726 0.34286663 6
-2.2089961 1.5542643 0.4269827 8
-2.331089 2.5894897 0.45287156 7
-2.2883086 2.9008198 0.58283216 8
-2.3376641 1.4707079 0.66201264 10.5
-2.2431655 2.971123 1.4958198 15
-2.341032 -1.3149604 2.9115674 28
-2.2604048 -1.2144917 3.0055282 29
-2.3570669 2.8679061 3.4948432 26
-2.0591347 3.1916926 0.09577807 4
-2.0210907 3.2458532 0.19476894 5
-2.0898695 1.7653773 0.29143924 6.5
-2.1053014 1.6727992 0.671453 10.5
-2.1711369 3.0363357 0.90180528 10
-1.8646094 -1.352966 2.2984917 27
-1.7288806 -2.2112634 0.27968466 6
-1.7407392 3.6109567 0.88570893 10
-1.6845611 -1.2910781 2.3724444 28.5
-1.5576619 3.8755322 0.47867063 6.5
-1.4444306 3.978956 1.1426533 11
-1.3885386 4.0830355 0.19564041 5
-1.3924788 4.0700698 0.66164178 8
-1.3494149 4.174314 1.7246299 15
-1.3052565 4.1644554 1.8936279 16
-1.2552921 -1.7222675 2.260808 28
-1.0673617 4.5279875 0.37658274 6
-1.0742894 4.4839802 0.51658684 7
-1.1932709 4.3257241 1.3056073 12
-1.1964853 4.058022 4.6066298 28
-0.94763148 4.6303811 1.1420678 10.5
-0.65397447 -1.6731476 1.8533456 27.5
-0.62185329 5.1254992 4.4065104 25
-0.66724527 4.759408 4.620544 26
-0.55099273 -2.244422 0.48846743 9.5
-0.41844401 -2.123127 0.48640913 10
-0.48892716 5.2786851 3.0374932 19
-0.20682971 5.5702519 2.3544593 15
-0.25312251 4.2953486 4.6195683 28
-0.17889363 -2.1517682 -0.0016363108 3
-0.17998698 -2.1347663 0.032359652 4
-0.065475732 -1.8565464 1.9592633 27.5
0.28410459 -2.3680203 0.19191349 6
0.32702833 6.3254323 3.5193813 19
0.67000055 6.6900129 2.7853436 15
0.71652365 -3.405015 3.7788796 28
0.65989 -3.2099235 3.8898888 29
0.87679833 -3.1661925 3.5929134 28
1.1373413 4.1507111 4.3305626 27
1.3664945 -2.1687076 0.5115152 9.5
1.2030231 4.3458152 4.2305446 26
1.759058 -5.2166896 5.0918493 26
1.9950413 3.2260668 0.18566102 5
1.9408107 3.2570467 0.29265693 6
1.9823596 -5.0368929 4.9158826 25
2.033519 -4.9339237 4.9328938 26
2.2211316 3.0561264 0.1126827 4
3.3422151 2.1197548 0.78480393 9
3.4582629 2.1507804 0.16780257 4
3.6261497 1.916551 0.53882957 7
3.7816877 1.7824054 0.61184543 8
3.9318235 1.7824011 0.18084732 4
3.9098849 1.7523673 0.30485013 5
3.9284225 9.9100113 4.38204 15
4.085547 1.5551327 0.43887165 6
4.2158165 1.4830388 0.18187991 4
4.2900195 1.4199598 0.2398866 5
4.4454699 1.268769 0.60190201 7
6.31422 -5.2151432 0.45810547 5
6.5673838 -5.0290294 0.1901166 4
6.4152384 -5.183147 0.66510928 6
6.7997642 -4.3575144 2.8251314 13
6.838707 -4.4265952 3.0951307 14
7.1582718 -1.9987342 0.55110711 5
7.3660641 -3.631783 2.8371408 13
8.1811428 -2.5184476 2.9201281 13
10.401571 -4.2896833 2.322181 9
10.470652 -4.0614147 2.4901781 10
24.228987 -26.922373 13.015068 14
25.177149 -26.57753 12.507127 13
25.277277 -4.0144706 3.4222391 7
27.954798 0.67192698 3.423996 7
30.105375 -18.76543 17.493494 17
30.937679 -16.926622 18.162518 18
31.666769 -11.549417 16.495491 17
33.253159 -9.5619431 16.903458 17
40.029774 -6.1223516 9.4343653 10
40.115765 -6.0722933 11.371364 11
