# .PCD v0.7 - Point Cloud Data file format
VERSION 0.7
FIELDS x y z intensity
SIZE 4 4 4 4
TYPE F F F F
COUNT 1 1 1 1
WIDTH 128
HEIGHT 1
VIEWPOINT 0 0 0 1 0 0 0
POINTS 128
DATA ascii
-15.497478 8.4158468 18.596952 28
-14.633292 8.6886454 19.212774 29
-11.129632 -5.5080738 3.3230815 11
-10.436116 -6.410996 2.9331949 10
-10.421923 -6.4217992 3.6731949 12
-10.071382 -6.9071398 1.3302608 7
-9.8675528 -7.0259933 3.0712571 11
-9.3907537 -7.8000979 4.8693776 15
-9.0502796 -8.2282877 2.7084317 10
-8.8520784 -8.464427 3.2344599 11
-8.7927895 -8.5040722 3.7574601 12
-7.925458 -2.2597132 4.6357327 19
-7.3725934 -10.386406 3.2347097 11
-7.2828965 -10.487844 3.9797208 12
-7.0620127 2.2064142 0.67363197 6
-7.0800657 2.2694461 0.92962378 7
-7.0395098 2.7281551 1.3335371 9
-7.1051822 2.450655 1.7305958 10
-6.9569907 3.2380054 1.363439 9
-6.9459319 3.2390957 1.6754369 10
-6.6536994 0.70756137 1.6378483 11
-5.9640126 0.97950149 0.091676012 4
-5.8531599 1.1951951 0.024615631 3
-5.8224063 1.5637624 0.24554175 4
-5.9024758 1.0428892 0.47965315 5.5
-5.8573623 1.5115902 0.43455714 5
-5.3928909 -0.80016989 0.062952779 4
-5.35671 -0.8960762 0.34696832 5
-4.158258 -3.0599923 0.080288723 4
-3.6571686 -3.7817059 2.1023877 15
-3.344424 2.2573776 0.07003697 4
-2.8080485 -3.6573985 2.7372112 19
-2.6932368 -3.0011423 0.070024401 4
-2.1254466 1.9387646 0.032913834 4
-2.0964928 1.8253502 0.29692361 6.5
-2.0944898 1.8148673 0.41392466 8
-1.8099221 -2.2724442 0.4216868 8
-1.9319423 -3.3097188 0.94846892 10.5
-1.8120015 -3.3705626 1.0969626 12
-1.7838788 1.8489569 0.17988327 5
-1.7690606 -2.2872603 0.34168327 7
-1.781845 1.8559744 0.24388227 6
-1.735294 -3.3621838 0.94994664 11
-1.721707 6.4274402 7.0754566 28
-1.4740008 -2.4118509 -0.066338733 3
-1.5392722 -2.221158 -0.08437445 2
-1.4440117 -2.4406743 0.03766299 4
-1.5442748 -2.2041616 0.0016222269 3
-1.5612094 -2.1972389 0.041623559 4
-1.4991919 -3.1149845 0.43484151 7
-1.2853427 -3.4638422 0.38488862 6
-1.2542849 -3.4404135 1.477877 15
-1.2894762 -3.4454496 2.1918855 19.5
-1.1697867 -3.4416544 0.50536108 7.5
-1.0932139 -3.2419603 3.7157969 28
-0.9104709 1.511694 0.14683101 6
-0.82563668 1.5139556 0.36382467 10
-0.96912062 -3.1452317 3.716749 29
-0.68334281 -2.6410439 0.063233547 4
-0.66105431 1.4713866 0.32981777 9
-0.69434923 1.4943132 0.44481781 11
-0.61477941 -3.2711067 3.6617093 28
-0.65645093 -3.1153536 3.7046793 29
-0.54345191 -2.7984526 0.36457714 7
-0.43904573 1.4839071 0.36330634 10.5
-0.51280659 -2.7522328 0.49155945 8
-0.50530148 1.4817715 0.46180916 12
-0.53987259 -2.7078619 0.65255409 10.5
-0.12209627 -3.1717801 0.33157954 6
-0.12436654 -3.1207592 0.47156736 7.5
-0.13895418 1.5294778 0.48079565 12.5
0.012785102 1.5706922 0.35179141 10
0.14819579 1.6303633 0.2937867 8.5
0.079077862 1.5702887 0.49579158 12.5
0.34825784 -2.6621981 -0.16309483 1
0.39112973 -3.2793486 0.53086197 8
2.4197507 8.8636141 0.37814674 4
2.510994 8.8807459 0.58014488 5
2.4026289 8.9026251 0.78014326 6
2.5837352 7.0089831 7.8293128 28
2.7265589 8.9280672 1.3001404 7
2.7014868 8.9500999 2.1431384 10
2.7329328 -29.929857 11.054041 14
2.8619311 8.9432478 1.5431387 8
2.8147902 8.9552212 1.9561379 9
2.9390929 9.0044441 2.9921336 12
2.9722092 9.0125265 3.6291327 14
3.0166817 -29.549576 14.028105 17
3.261858 -29.571976 13.674135 16
3.4126275 5.177536 0.12249331 4
3.4186168 5.1885524 0.27949232 5
3.5352893 4.2721028 0.84058553 8
3.565274 4.3031421 1.0025829 9
3.5847442 -16.974306 4.5681653 11
3.482307 -16.628181 5.2991815 12
3.6913583 3.595613 0.17565762 4
3.627125 4.1190038 0.30960274 5
3.6699102 3.6957037 0.51664686 6.5
3.7551444 9.0261574 0.4211334 5
3.6984544 3.3374143 0.74168444 8
3.7961884 9.1204023 3.3271251 13
3.81567 2.880964 -0.014266076 3
3.9017162 2.6897738 0.14875522 4
3.9286051 2.966069 0.224727 5
3.8533158 2.7578566 0.54174727 7
3.9797623 2.2683108 0.76979959 8
3.9862351 2.3914614 0.87978715 9
3.8633313 9.0743017 0.83712953 6
4.0457406 2.0755591 0.30282038 5.5
4.0197554 9.0884972 1.5361291 8
4.0638142 9.1215792 2.0761261 9
4.7055736 -16.726841 4.5793076 11
6.1742816 -2.5706728 0.3511152 5
6.244041 -2.4365029 0.60811317 6
6.3411498 -2.5746858 0.86011642 7
6.3539519 -29.797827 11.643492 14
7.4539857 -16.438791 3.0155873 8
8.1454077 -26.035984 12.975969 17
8.4747639 -25.966372 12.827007 16
10.164755 -15.694725 3.0748374 8
12.000463 -25.647137 13.526356 17
12.476096 -25.622292 8.6153975 12
14.655505 -14.815466 4.2321172 9
14.834496 -14.861536 3.6681235 8
15.210485 -9.0194998 2.9322639 8
24.407875 -27.395813 11.120064 12
30.333471 -22.879433 18.904428 17
31.189363 -23.341806 12.576444 13
