# .PCD v0.7 - Point Cloud Data file format
VERSION 0.7
FIELDS x y z intensity
SIZE 4 4 4 4
TYPE F F F F
COUNT 1 1 1 1
WIDTH 620
HEIGHT 1
VIEWPOINT 0 0 0 1 0 0 0
POINTS 620
DATA ascii
-22.422581 -15.467835 11.993513 16
-22.576097 -15.172242 12.02246 16
-22.131321 -15.803838 11.987552 16
-21.856054 -16.140917 11.930593 16
-21.681479 -16.435364 12.02664 16
-21.497492 -16.624727 11.89366 16
-21.271027 -16.891901 12.033691 16
-21.121964 -17.09643 11.85272 16
-16.558302 22.003536 -0.25666773 3
-16.312815 7.9021397 19.182161 28
-16.34536 7.7058358 19.3512 28
-15.859168 8.1621552 18.672049 28
-14.946733 8.319087 19.448881 29
-14.706603 8.3530912 19.509836 29
-14.717185 8.6152658 19.3678 29
-10.944872 -5.7145152 3.1331027 11
-10.814203 -5.8700418 3.4411201 11
-11.007579 -5.6904078 5.0011072 15
-11.093398 -5.4860778 4.9985695 15
-10.997074 -5.5551629 5.3440714 16
-10.436128 -6.3999519 3.1051919 11
-10.483483 -6.3010144 3.3911743 11
-10.043189 -6.9691391 0.96927202 6
-10.081288 -6.848804 3.0107474 10.5
-10.260226 -6.6203785 3.0962183 11
-10.235806 -6.6492496 3.3312221 11
-10.11013 -6.8508005 3.6842527 12
-10.274997 -6.6433501 3.681227 12
-9.9107332 -7.060545 1.3952733 7
-9.9847317 -7.0247126 2.0552764 8
-9.7605057 -7.2838092 2.6553059 10
-9.7485342 -7.2626719 2.9912982 11
-9.8445234 -7.0419364 2.917258 10
-9.6789389 -7.3833957 3.2973175 11
-9.8488436 -7.0659089 3.2507644 11
-9.6274309 -7.478157 3.7043338 12
-9.865551 -6.9998479 3.6582501 12
-9.6181412 -7.4808521 5.0333328 15
-9.2476549 -7.5559421 1.5502908 7
-9.2412987 -8.0040064 2.6964056 10
-9.4124098 -7.7586064 2.6793706 10
-9.5964203 -7.5302649 2.6693423 10
-9.3711729 -7.7910204 3.1237049 11
-9.5969162 -7.5136795 3.0483377 11
-9.3490477 -7.813242 3.2673736 11
-9.3511906 -7.7626252 3.7063611 12
-9.390666 -7.8271556 4.6718845 14
-9.2227278 -8.026494 4.8824077 15
-9.3477592 -7.7925234 5.0743685 15
-9.5647316 -7.5807223 4.8603492 15
-8.999897 -3.1971703 -0.10385495 3
-9.0172272 6.5565171 -0.015747735 3
-9.0953541 -7.6423664 1.309788 6.5
-9.0108786 -7.732975 1.6762972 7
-9.0632105 -7.6430774 2.0232828 8
-8.8811092 -8.478673 2.7314684 10
-8.8652344 -8.442524 2.9894567 10
-9.0050755 -8.2535095 3.1389308 11
-9.0994644 -7.9552207 3.2243693 11
-9.0332708 -8.1849718 3.7334177 12
-9.1320066 -8.1902266 4.7084351 14
-9.0323715 -8.2457504 4.9960995 15
-9.0913305 -8.203433 5.2844324 16
-9.0706453 -3.5237935 5.4962378 19
-9.0130873 -3.3893535 5.7880282 19.333334
-8.698658 -5.8904719 0.037771523 3
-8.440959 5.5359664 0.10731394 4
-8.2812967 4.5468044 0.68593848 5
-8.2808905 4.6449375 0.97842312 6.5
-8.0158672 4.5399599 1.3743986 8
-7.8332915 4.2975006 1.5944079 9
-7.9937949 4.5601354 1.8803921 9
-7.8392391 4.3045506 2.0754077 10
-7.8153892 4.4407682 2.0603833 10
-7.8499732 -2.4335833 4.6267619 19
-7.8984437 -2.2605786 4.7472277 19
-7.2131362 3.7612381 -0.28060433 2
-7.5925059 4.4953871 -0.28265899 2
-7.3883138 -4.9288168 0.32030687 4
-7.2753286 2.7145734 0.63107789 5.5
-7.270154 2.9893827 0.66119689 5.6666665
-7.2589602 2.874352 0.94354773 7
-7.2536674 -10.564902 3.1947353 11
-7.3486333 -10.392355 2.9347074 10
-7.3080993 -10.481129 3.2277231 11
-7.3435926 -10.371177 3.6127009 12
-7.1249914 2.870734 -0.17047322 3
-6.9471855 3.2037795 -0.26955697 2
-7.0044379 2.1300085 0.27463624 4
-6.9402628 2.4210489 0.023573991 3
-7.1222506 2.9286072 0.19401664 3.75
-7.0467172 2.2321553 0.56745821 5.3333335
-7.0911613 2.3364666 0.89061362 7
-7.1891928 2.7004464 0.86931616 6.5
-7.1461773 2.9546573 1.033516 7.5
-6.8171139 1.3308369 1.5592531 10
-7.1036139 2.7919908 1.5505365 9
-7.0455995 3.0347085 1.4592365 9
-6.8595843 1.3204348 1.7887626 11
-7.0592208 2.2527304 1.8272065 10.75
-6.9795704 2.5781949 1.8490531 10.75
-6.9609699 3.0469844 1.772971 10.25
-6.9796309 -10.955723 3.0247893 10
-7.1800218 -10.695633 2.9857574 10
-6.9246221 -11.008742 3.2801273 11
-7.0965238 -10.779194 3.2407641 11
-6.9115868 -11.027253 3.7222965 12
-7.1970301 -10.664557 3.6667516 12
-6.9352579 -10.981284 4.0587888 12
-7.1185412 -10.74212 4.0217586 12
-6.7196345 -2.0231802 -0.085530967 3
-6.5433674 -0.34050176 -0.11594963 3
-6.7274179 2.7171886 -0.26051152 2
-6.438993 -2.6726518 0.01557903 3
-6.7244353 -1.6636971 0.49438417 5
-6.7277327 -1.5425805 0.4593561 5
-6.7593403 -11.19469 3.0598135 10
-6.6953049 -11.284348 3.2698255 11
-6.7460103 -11.211402 4.0938158 12
-6.0415068 -0.30637518 -0.22904438 2
-6.1036096 1.4764471 -0.13539496 3
-6.0758667 1.7859002 -0.13745622 3
-5.6456409 -2.6762426 -0.018555287 3
-5.8288984 -1.7491182 -0.21475007 2
-5.8095784 -1.4417003 -0.21582639 2
-5.8500404 1.0385122 -0.097354807 3
-5.8854437 1.4853686 -0.071433268 3
-5.8552003 1.0673892 0.10964042 3.6666667
-5.8287482 1.3354647 0.10833515 4
-5.8073339 1.1257068 0.45462108 5.3333335
-5.8167129 1.3594221 0.41857857 5
-5.6125455 7.8421435 1.4706582 8
-5.6606107 7.8310032 1.7296644 9
-5.8722339 8.0304565 2.6616662 11
-5.5828795 -2.9562333 -0.025496205 3
-5.3241639 -2.2294502 -0.18172042 2
-5.4784303 -1.0708481 -0.0059703561 3
-5.4782019 -0.57328391 -0.017083421 3
-5.4330068 -0.98575467 0.15466887 3.8888888
-5.4845495 -0.2969788 0.059856717 4
-5.5475345 7.8841276 2.1388133 9.666667
-5.5022354 7.904675 2.5816398 11
-4.9445896 -3.2787309 -0.17952304 2
-5.1652513 -1.8223592 -0.18884675 2
-4.9470611 1.3385557 -0.23456329 2
-5.1955891 7.7143416 -0.13637255 3
-4.4690447 1.5462329 -0.22467901 2
-4.1550794 -3.7274525 -0.068542138 3
-4.0937696 -3.2528508 -0.00067329057 3
-4.1341 -3.1289489 -0.0046978993 3
-4.0625219 -0.65494114 -0.22231139 2
-4.130053 -3.2965269 0.090343945 3.5
-4.1168199 -3.1451833 0.15446994 4
-3.6335039 -2.1510141 -0.21602876 2
-3.8096607 -1.9175965 -0.21955639 2
-3.7218668 -1.0153706 -0.22628824 1
-3.7060091 -0.737019 -0.22535519 1
-3.6341171 1.0621665 -0.22773208 1
-3.6539562 -3.8427322 2.0479023 14
-3.2846699 2.1778677 -0.069960564 2.6666667
-3.3327429 2.5570829 -0.23400474 2
-3.2660298 4.3617091 -0.27522388 2
-3.218308 -3.1127846 0.070142627 3.5
-3.3276436 2.3215096 0.24002579 5
-3.2840061 2.5933671 0.3354837 5.5
-3.3877769 2.3173122 0.51570159 7
-3.2860091 2.5411055 0.56349075 7.5
-3.5880532 -3.8404 2.1308906 15
-3.1823707 -3.2526331 -0.06782797 3
-2.8813872 -2.8260169 -0.20498759 2
-3.0267189 -2.5830629 -0.2070241 2
-3.1829329 -2.3541381 -0.21005501 2
-3.0484385 -1.6250032 -0.21725911 1
-2.9281561 -0.14311999 -0.20962138 1
-3.0451295 1.0755799 -0.20583044 1
-2.9453576 1.404758 -0.20964836 1
-3.0239861 7.2491794 -0.11952602 3
-3.1755652 -3.2630739 0.087923527 3.5
-3.1882682 -3.0994968 0.34263414 5.5
-2.9287431 -3.6765139 2.6897364 19
-2.9437242 -3.6653037 2.8307366 19.5
-2.6487627 -2.8869333 -0.19801214 2
-2.680764 3.9395485 -0.25024089 2
-2.6801877 7.4572034 -0.12657015 3
-2.6960163 -2.9803684 0.20476963 4.5
-2.7284868 -3.0207241 0.53553545 7.5
-2.4649868 -5.6526122 1.5019048 10.5
-2.0586736 -2.4588594 -0.10522262 2
-2.0113368 -1.6032822 -0.20044433 1
-2.1085413 -1.4206293 -0.20272215 1
-2.2399056 -0.59394139 -0.1994101 0.25
-2.3214705 -0.31001738 -0.20638908 0.5
-2.2508547 1.4364936 -0.20650595 1
-2.1244667 1.8560427 -0.11657633 2
-2.1043136 1.8783324 0.18816835 5
-2.0382388 1.7993312 0.54954445 9.5
-2.3174605 -5.7122326 1.5093932 10.5
-2.1491055 -9.0054913 2.2449374 10.5
-1.7295113 -3.1333616 -0.17011184 2
-1.8990697 -2.5120766 -0.094237372 2
-1.946507 -1.7040257 -0.19943081 1
-1.6289928 -1.4403898 -0.19355185 0
-1.6334579 0.70192385 -0.18649365 0
-1.8847145 1.7315072 -0.19759141 1
-1.8094319 -2.2794681 0.30893847 6.5
-1.8399403 1.8368942 0.28295365 6.625
-1.7532252 -2.232132 0.49066663 8
-1.8810371 1.8378211 0.53296262 9.3999996
-1.8575445 -3.3358257 0.97006214 10.8
-1.9842217 -8.9937515 2.3764029 11
-1.686577 6.4285312 7.0924549 28
-1.3053374 -3.4720461 -0.0071055987 3
-1.3541925 -2.9098015 -0.17473668 2
-1.4230376 -2.4673398 -0.065584213 2.5
-1.461693 -2.248729 -0.13032165 1.8
-1.4864206 -1.7893007 -0.19174133 1
-1.3468683 -1.479381 -0.19121811 0.25
-1.4875137 1.0274177 -0.18361312 0
-1.3807123 1.2616131 -0.18359862 0
-1.5518873 2.2788041 -0.19918515 1
-1.2216153 2.4878531 -0.03923228 3
-1.3332336 5.2506881 -0.21146382 2
-1.2279402 6.0239697 -0.24253473 2
-1.2968513 -3.4674656 0.13189165 4.5
-1.4468039 -3.1770689 0.29818067 6
-1.4375921 -2.4196236 0.09615656 4.5
-1.4916565 -2.2951455 0.052927047 4
-1.2532989 -3.4546385 0.47654691 7.3333335
-1.4495995 -3.1357102 0.45283747 7.3333335
-1.2562618 -3.440408 1.5473773 15.5
-1.2951282 -3.4434748 2.221719 19.333334
-1.2637203 -6.4383574 2.5356257 14
-1.3779432 -6.3301835 2.5899546 14.75
-1.3123076 -6.312562 2.8636041 16
-1.5591434 6.44735 7.0619459 28
-1.1623881 -3.4522338 -0.018137766 3
-1.153266 -2.4651468 -0.18388496 1
-1.0864699 -1.7507043 -0.18782437 0.5
-0.9160502 1.7571529 -0.18169007 0
-1.0476155 2.1246333 -0.15854578 1
-0.95302725 6.1336265 -0.24755679 2
-1.1519442 -3.4515076 0.15942256 4.5
-0.90503341 1.5338873 0.25532871 7.7142859
-0.87766337 1.7737824 0.031805839 4
-0.97432649 1.5830545 0.51932961 11.5
-1.1949589 -3.4445806 1.4533668 15
-0.89490283 -5.986177 2.32144 14
-0.90121508 -5.9769855 2.5832725 15.5
-1.1447196 -4.3375483 2.6680796 19
-1.0830529 -3.2889307 3.5978065 28
-0.92774022 -3.2537436 3.6967676 28
-0.90670156 -3.1415286 3.7187357 29
-0.49392036 -2.9622719 -0.16339266 2
-0.61523563 -2.6009934 -0.060456902 3
-0.60497683 1.8343271 -0.1358394 1
-0.56180274 2.3325424 -0.18075769 1
-0.6588043 6.109292 -0.24756683 2
-0.51059753 -2.8153305 0.024574496 3
-0.56962568 -2.7023268 0.16103096 4.8333335
-0.72565877 1.4988889 0.35115275 10
-0.73233384 1.7856665 0.033795778 4
-0.51056635 -2.8012297 0.44657105 8
-0.55036873 -2.6981716 0.67505383 10.5
-0.54239267 1.481778 0.46881127 12
-0.69828689 -3.2503157 3.674521 28
-0.67768216 -3.1350658 3.7000213 29
-0.06360995 -5.0515456 -0.11496603 3
-0.2645382 -4.34582 -0.098098077 3
-0.29529679 -3.127017 -0.15739399 2
-0.24643265 -2.5021996 -0.16855957 1
-0.28090099 1.8034031 -0.1754739 0
-0.22356533 2.2287426 -0.17850968 1
-0.024817046 4.005599 -0.20441163 2
-0.34257677 5.6229701 -0.22853746 2
-0.24352141 -3.5316429 0.038695313 4
-0.18333501 1.5210525 0.36353067 10.4
-0.24637158 1.9163892 0.0063498346 3
-0.082959644 -3.1327384 0.46881109 7.5
-0.20055377 1.5105102 0.48954868 12.555555
0.17836727 -3.6089816 -0.05918894 3
0.027406536 -2.8797102 -0.16214913 2
0.29873362 -2.6947098 -0.13822803 1.6666666
0.072082855 2.1034136 -0.17392036 1
0.26360586 4.0736012 -0.20092244 2
0.19228207 4.9320107 -0.052493609 3
0.18970951 -3.2992225 0.28354514 5.8333335
0.37407073 -2.6972482 0.014905265 3
0.022907075 1.5697041 0.3287915 9
0.1227682 1.6808306 0.24998231 7.5999999
0.24798553 -3.2708547 0.47955441 7.5
0.072534062 -3.1808457 0.55383229 8
0.034765735 1.562863 0.4438253 11.5
0.75216919 -2.9007213 -0.14707194 2
0.47830787 -2.4561815 -0.095565721 2
0.58694464 1.382607 -0.15501423 0
0.60639662 1.6659849 -0.15945886 0.5
0.64268708 2.2074351 -0.16792689 1
0.41996235 -3.3263829 0.39386165 7
0.52999341 -2.4344885 0.17674085 5.4000001
0.43692562 -3.3064094 0.43786502 7
0.57627159 -2.4144862 0.40194672 8
0.60644943 -2.3865185 0.4976182 9.333333
0.81193393 -3.9139316 -0.13214098 2
1.0006768 -2.650898 -0.14553323 2
1.0642136 -2.2568049 -0.1488371 1.3333334
1.0308328 -1.3790956 -0.14896281 1
1.0147766 1.4527271 -0.15195301 1
1.0187275 3.4180715 -0.18236816 2
1.3469554 -5.2957807 -0.10918909 3
1.4514688 -4.7078152 -0.11813583 3
1.2428851 -2.2989273 -0.1469945 2
1.5257196 -1.3026899 -0.13794769 1
1.5849595 -1.1169499 -0.13694625 1
1.4802246 0.79548222 -0.14308496 1
1.4433303 0.86659825 -0.14409421 1
1.5786266 1.5209029 -0.14666639 1
1.5300605 1.7045776 -0.15018821 1
1.4514344 3.596529 -0.18038081 2
1.2614064 3.6063578 -0.18638363 2
1.6471926 -4.5759959 -0.1171086 3
1.8605181 -2.1460371 -0.1309575 2
1.9940752 -1.6275482 -0.12694186 2
1.9772131 -1.3922683 -0.12544088 2
1.8771045 -1.0246129 -0.127445 1.6666666
1.7139323 -0.42180598 -0.13496701 1
1.7175958 -0.19287302 -0.13548249 1
1.689121 1.1449562 -0.14112075 1
1.6091638 1.2751267 -0.14013754 1
1.7436564 1.9638354 -0.149211 2
1.6536605 2.0468848 -0.15122218 2
1.73128 2.4702051 -0.15926497 2
1.9445453 4.2101302 -0.19743313 2
2.1815624 -5.2976909 -0.11111164 3
2.2745306 -3.2204151 -0.12298278 2
2.1215014 -1.9068502 -0.13594306 2
2.0002346 -0.83547419 -0.12494897 1
2.0125258 -0.72930062 -0.12595268 1
2.178864 1.1849618 -0.14011501 2
2.0935009 1.3346685 -0.13613316 2
2.2007992 -30.247942 11.768948 14
2.3379512 -30.206234 12.263966 15
2.6967943 -0.4683007 -0.11996526 2
2.7212324 2.4674332 -0.15224306 2
2.6036785 4.6427732 -0.19296607 2
2.6192799 8.8871136 0.31689417 4
2.6387935 8.9068956 0.42614239 5
2.6302774 8.9184256 0.97814131 6
2.6914878 8.9205351 1.4681411 8
2.6413503 8.9264994 1.8401406 9
2.5868444 6.976985 7.9313159 28
2.4950817 -30.183561 12.738987 15
2.6262255 -30.118879 13.862011 16
3.1503911 -4.6721487 -0.095005341 3
2.8578331 -0.70217192 -0.12795331 2
3.0856571 -0.31252128 -0.13297458 2
3.0952327 0.31852993 -0.14202096 2
2.9826672 0.74122149 -0.15405931 2
2.8778498 2.2562366 -0.15021749 2
3.1356893 -10.45574 0.230611 4
2.9596319 8.9397726 0.24347258 4
2.9295249 -11.744638 0.46949321 4
2.9295657 8.9417629 0.60913897 5.5
3.0418355 8.9694166 0.90313643 6
2.9957798 8.953145 1.3958881 7.5
3.0624087 8.9878387 1.8374683 9
3.0493805 8.9930134 2.1821346 10
3.0795166 8.9895849 2.742135 12
3.1957257 9.0417414 3.01913 12
3.0709465 9.0216208 3.3326318 13.5
2.8562002 -29.824116 11.597065 14
2.9605975 -29.650333 12.051091 15
3.0958872 -29.541601 12.499117 15
2.872453 -30.120289 13.419042 16
3.3387439 -5.5276704 -0.078039743 3
3.4629171 -4.6632972 -0.090987489 3
3.4223394 -3.073117 -0.10293102 3
3.2813649 3.2882535 -0.15831822 2
3.4468362 5.0053468 0.25126082 4.5
3.3878138 5.2480617 0.23048604 4.5
3.2411897 6.059804 0.11740575 4
3.4227967 8.9969654 0.27630153 4
3.5801632 4.1623635 0.5685975 6.6666665
3.3972399 4.9919515 0.5130114 6
3.3716788 8.9912529 0.4226352 5
3.585506 4.1680522 0.903597 8.333333
3.4564049 9.0108862 1.0331336 6
3.3807478 9.0008316 1.4491342 8
3.3711765 9.0283556 1.8956317 9
3.4062779 9.0359163 2.2231314 10
3.3321419 9.022871 2.7911322 12
3.3175509 9.0563993 3.3691292 13.5
3.2107739 9.0568037 3.6771288 14
3.8104215 -4.6704483 -0.088970192 3
3.7937326 -3.1132064 -0.10192131 3
3.7039897 -1.4257015 -0.12342576 2
3.7415524 -1.1457958 -0.1239339 2
3.8834295 2.6291997 -0.05723881 3
3.8160164 2.9169981 -0.063269779 3
3.7360299 9.0371084 -0.072867669 3
3.9683888 2.1756845 0.30355912 5.5
3.8864961 2.7138853 0.25716913 5
3.8177111 2.9918311 0.19576415 4.5
3.7712553 3.3743372 0.21671523 4.5999999
3.691221 3.7143788 0.24331202 4.6666665
3.6763985 4.0859957 0.30260703 5
3.7440963 9.0306416 0.34513298 4
3.7477443 -10.312449 0.44368085 4
3.9359992 2.3053505 0.61229539 7.5
3.8681278 2.5816693 0.7287659 8
3.8013117 2.9615631 0.61164194 7.25
3.708642 3.3783586 0.52809691 6.6666665
3.6623051 3.6756892 0.60131544 7
3.6022277 4.0739703 0.46160686 6
3.7600789 9.0591812 0.59613037 5
3.950743 2.3714349 0.81778866 8.5
3.8823075 2.6247206 0.84276158 8.666667
3.8111436 2.9704151 0.86472452 8.666667
3.7170525 3.4505198 0.86400634 8.333333
3.7170656 3.696233 0.96664762 8.5
3.6192377 4.0900068 0.89060545 8
3.7159836 9.0611658 1.05313 6
3.8959811 9.0668716 1.5096304 8
3.9715955 9.1074762 1.831127 9
3.8568254 9.1013842 2.1691272 9.5
3.7871914 9.1018667 2.988627 12
3.8613389 9.1344843 3.5721245 14
3.8112423 9.1254454 3.7921245 14
3.9441271 -16.835812 4.5552173 11
3.6579366 -16.875423 4.8091817 11
3.7557213 -16.729073 5.107204 12
3.9307125 -29.407116 13.672232 16
3.6882257 -29.53874 14.071192 17
4.1479726 -4.6005225 -0.072951987 3
4.016252 -3.0041208 -0.096914068 3
4.22751 -2.1186087 -0.10390945 3
4.254714 -1.7706541 -0.10891438 3
4.1129379 0.015023733 -0.13299561 2
4.2702622 9.1066351 -0.069870986 3
4.0240941 2.0990887 0.29781771 5.5
4.0854187 9.1261587 3.0088758 12
4.061799 9.1556673 3.3691227 13
4.1239233 9.175745 3.6221218 14
4.3511496 -16.894386 4.5982561 11
4.0154691 -16.653915 4.7982388 11
4.1449437 -16.676617 5.1302509 12
4.3489723 -16.955444 5.4482517 12
4.2859607 -29.923717 13.518235 16
4.1873455 -29.419083 14.197762 17
4.7798667 3.9240918 -0.1473574 3
4.549592 6.1756458 -0.18258812 3
4.5594196 -16.767679 5.0062881 11.5
4.4704771 -16.710571 5.2572832 12
4.9138832 6.0617499 -0.16157132 3
4.8395009 9.1811438 -0.067873441 3
5.3903165 1.6604577 -0.11212599 3
5.2080569 2.4845593 0.17379406 4
5.7179294 -3.8311274 -0.060886156 3
5.8672566 2.1010461 -0.13516274 3
5.8072958 3.5187814 -0.13830097 3
5.834033 -9.6791143 0.21989037 4
5.8192315 7.4584846 10.039305 28
5.7504988 -29.688097 14.332428 17
6.0245237 -3.6499529 -0.056879334 3
6.399961 -1.2678748 -0.070922799 3
6.3603435 -0.96643728 -0.068936579 3
6.3389359 5.7670078 -0.031519543 3
6.1574078 6.1462574 -0.035560466 3
6.2077951 -3.0202339 0.22912136 4
6.2097063 -2.6117229 0.29691601 4.4000001
6.2959275 -2.3764164 0.24211231 4
6.2136393 -3.0422673 0.52995497 5.3333335
6.2072988 -2.6087251 0.55751598 5.5999999
6.2789021 -2.3548934 0.55436176 5.5
6.265749 -3.0372698 0.89012206 7
6.3759789 -29.768896 12.247494 15
6.0667367 -29.701559 14.071464 16
6.0877099 -29.701628 14.596466 17
6.6818027 3.133363 -0.016252678 3
6.6710024 -16.287992 3.3815296 9
6.4041109 -29.654034 13.732507 16
6.7464886 -29.578556 14.115551 16
6.438045 -29.674133 14.403508 17
6.7404609 -29.571581 14.585551 17
7.0321126 -2.1280651 -0.034889884 3
7.0517888 -3.7591276 0.11813662 4
6.948245 -16.818344 2.4925182 7
7.0260215 -16.550722 2.9338765 8
7.0347967 -29.656757 10.936579 14
7.0437055 -29.654861 12.248579 15
7.105845 -29.546047 13.810595 16
7.1077747 -29.559092 14.429593 17
7.3185453 -2.5846715 -0.040876303 3
7.566545 -1.9187673 -0.033894502 3
7.3294153 -3.4968252 0.13413849 4
7.396987 -3.0452666 0.072133392 4
7.5301714 -16.339836 2.9586017 8
7.4550843 -29.542566 14.210631 16
7.4270287 -29.542557 14.639627 17
7.687315 0.73006916 -0.087039866 3
7.6627288 -10.435595 0.23996434 4
7.669178 -16.360966 2.8816118 8
7.9634881 -26.255232 4.4769349 8
7.8531966 -26.055603 12.751936 16
7.8341622 -29.633118 14.561666 17
8.0841312 2.0559433 -0.075143784 3
8.3590527 -26.111679 3.9319863 8
8.1357708 -26.174423 4.2329588 8
8.2287445 -26.083761 7.7919745 12
8.0123777 7.4802752 11.615335 28
8.217557 -25.999041 12.54198 16
8.5909662 -26.180069 5.3980055 9
8.579998 -26.135088 6.0540051 10
8.5929527 -26.118181 7.251009 11
8.5289669 -26.055147 8.1290073 12
8.591938 -26.076256 8.5200119 12
8.5892792 -25.988028 13.074018 17
9.0929995 2.7468667 0.20880252 4
8.8648186 3.1554017 0.20576465 4
8.8892126 -26.054573 7.8890429 12
8.8819914 -25.988855 12.684048 16
9.0881224 -25.975119 13.065068 16.5
9.3838644 -1.9097254 0.23311056 4
9.5345535 -25.905605 12.799116 16
9.4133844 -25.942493 13.148102 17
9.7677479 -25.869875 13.049141 17
10.29619 -9.3649406 0.568129 4
10.084995 -15.861242 3.0968227 8
10.008059 -16.130823 3.4928019 9
10.219436 -15.886887 3.9758303 9
10.072355 -15.901823 4.4538198 10
10.19209 -25.831322 12.927182 16
10.042923 -25.861187 13.226168 17
10.404451 -15.920001 3.4808404 9
10.42127 -25.800577 13.163206 17
10.674477 -25.766842 13.303232 17
10.857347 -8.9697485 0.55715835 4
10.860632 -25.753016 13.06625 16
10.927666 -25.746105 13.350255 17
11.47313 -25.668629 13.340644 16.666666
11.942079 -1.7254378 0.42210826 4
11.811515 -25.738691 8.5303345 12
11.752263 -25.682905 13.42033 17
12.015929 2.9911687 0.3797977 4
12.194869 -25.669031 8.368371 12
12.282548 -25.689419 13.563375 17
12.451797 -25.821264 7.552381 11
12.64407 -25.508699 13.611419 17
12.926538 -9.6507435 0.2292041 4
13.169557 -25.64082 6.8844519 10
13.069451 -25.643772 7.5764441 11
12.953126 -25.565037 8.6561069 12
12.864317 -25.442863 13.483439 17
13.300699 -25.624893 6.1774626 10
13.577916 -25.500223 8.6014938 12
13.726976 -25.546307 7.6325006 11
13.853128 -25.455446 8.8125172 12
14.556558 -15.414819 3.674341 8
14.690164 -15.130675 3.6881073 8
14.46289 -15.313742 4.2940907 9
14.587029 -25.26424 13.979583 17
15.18847 -9.0945587 2.3102627 7
14.906516 -14.805567 4.8441291 10
14.996353 -25.375328 8.9686069 12
14.957805 -25.218498 13.906611 17
15.359313 -9.4153824 1.3712637 5.5
15.441319 -9.3588448 1.8122655 6
15.24343 -9.1336164 2.7372637 8
15.28125 -25.222485 9.0376358 12
15.376231 -25.084761 14.096651 17
15.773284 -25.046764 9.0186815 12
15.605464 -25.017893 13.96967 17
15.796712 -24.917995 14.20669 17
23.975424 -27.509783 13.165033 14
24.046314 -27.65683 11.495032 12
24.030903 -27.900999 12.244018 13
24.219524 -27.475912 14.239048 14
24.37677 -27.321926 15.294062 15
24.702244 -27.219835 11.387084 12
25.053642 -27.03887 11.581109 12
24.808929 -27.433048 12.254077 13
24.987045 -27.370129 13.336089 14
24.806604 -26.913801 14.2071 14
25.314327 -26.642702 11.396135 12
29.465435 -26.856308 13.033297 13
29.557465 -26.749382 16.5443 15
29.31354 -26.538254 19.525303 17
29.936789 -26.794294 10.346317 11
29.954872 -26.681276 12.07632 12
29.710649 -26.769299 12.704309 12
29.647306 -26.958485 14.265301 14
29.733704 -26.528357 19.221317 17
30.340996 -25.975758 10.257356 11
30.37462 -25.428398 12.326369 12
30.370049 -26.633371 12.558336 12
30.267443 -26.293093 13.069344 13
30.345531 -25.477448 12.858368 13
30.237448 -26.245092 14.220344 14
30.203007 -23.24473 18.947422 17
30.40312 -25.837729 11.993362 12
30.424637 -26.190041 12.787351 13
30.962317 -23.305765 13.656439 13
30.837202 -23.341808 14.770435 14
34.183605 -22.809797 12.267529 12
34.018356 -22.980967 13.177523 13
34.359779 -22.660698 12.847536 12
34.703636 -22.769938 15.738544 14
34.972797 -22.819872 10.562552 11
34.976822 -22.708851 13.490549 13
35.436893 -22.716917 13.473559 13
35.465118 -22.490713 14.008565 13
35.935173 -22.541801 13.248573 12
36.475182 -22.740967 9.6025858 10
36.43021 -22.664921 10.820585 11
46.232861 -22.246449 15.199753 12
46.236069 -23.116453 16.932753 13
46.190483 -22.609903 17.521755 13
46.325813 -22.191486 19.205755 14
46.414875 -22.331505 12.781757 11
46.830986 -22.121384 16.999763 13
47.254665 4.7914782 1.194759 4
