# .PCD v0.7 - Point Cloud Data file format
VERSION 0.7
FIELDS x y z intensity
SIZE 4 4 4 4
TYPE F F F F
COUNT 1 1 1 1
WIDTH 1466
HEIGHT 1
VIEWPOINT 0 0 0 1 0 0 0
POINTS 1466
DATA ascii
28.375847 23.026552 -0.85445195 0
28.355814 23.13205 -0.84992647 0
28.383909 23.239336 -0.83599341 0
28.36694 23.442486 -0.81635839 0
28.304083 23.51104 -0.80854458 0
28.31315 23.694048 -0.78200978 0
28.342304 23.80369 -0.76679754 0
28.35268 23.900749 -0.75260401 0
28.350859 24.013002 -0.73486942 0
28.375832 24.139523 -0.7164982 0
28.301033 24.572886 -0.6522783 0
28.311695 24.644344 -0.64369512 0
28.384291 24.851561 -0.5829733 0
28.368305 24.939358 -0.57082856 0
28.352322 25.027153 -0.55868375 0
28.336336 25.11495 -0.54653889 0
28.33363 25.25132 -0.52729392 0
28.35955 25.423021 -0.50479627 0
28.349749 25.482977 -0.49410212 0
28.319975 25.613276 -0.4760752 0
28.387157 28.868376 -0.18956597 0
28.382145 28.920856 -0.18265253 0
28.369865 29.049459 -0.16571112 0
28.357586 29.178062 -0.14876963 0
28.3494 29.263798 -0.13747533 0
28.341213 29.349533 -0.12618107 0
28.333027 29.43527 -0.11488673 0
28.321733 29.543711 -0.10107721 0
28.395355 28.865719 -0.00058016751 0
28.301743 29.689735 -0.084901713 0
28.336304 29.774166 -0.074561477 0
28.36742 29.858227 -0.064223237 0
28.369711 29.942768 -0.054641396 0
28.375336 30.025387 -0.044588134 0
28.357676 30.159758 -0.030634753 0
28.371796 29.089722 0.022738958 0
28.37635 29.165627 0.038748879 0
28.347202 33.575352 0.42641568 0
28.343937 33.668137 0.43564817 0
28.340691 33.756676 0.44448587 0
28.337442 33.845222 0.45332357 0
28.333118 33.955818 0.46441832 0
28.328794 34.066414 0.47551304 0
28.345875 34.183678 0.48765987 0
28.301165 34.300793 0.49623227 0
28.380846 34.288044 0.50109684 0
28.375395 34.391167 0.50932109 0
28.373947 34.456398 0.51412612 0
28.369286 34.559181 0.52555972 0
28.366177 34.627705 0.53318214 0
28.359211 39.662968 1.0110881 0
28.33882 39.71682 1.0179936 0
28.306963 39.800949 1.0287811 0
28.373877 39.925144 1.0458598 0
28.319971 40.048973 1.0616015 0
28.358303 41.172569 1.2116096 0
28.311684 41.491726 1.2510051 0
28.383108 41.663967 1.2701646 0
28.360449 41.747276 1.2777284 0
28.339911 41.847385 1.2921654 0
28.394238 42.411297 1.2946768 0
28.352749 41.94659 1.3015227 0
28.343542 42.043713 1.31428 0
28.329073 42.159592 1.3261451 0
28.365076 42.265312 1.3395445 0
28.361837 42.367844 1.3491739 0
28.361233 42.449963 1.3395567 0
28.352209 42.543602 1.3546484 0
28.35611 42.653084 1.3697555 0
28.344929 42.746513 1.3696979 0
28.386129 42.855331 1.3504869 0
28.30286 42.919491 1.356946 0
28.353132 43.057495 1.3748395 0
28.308725 42.797829 1.4002838 0
28.356741 42.858437 1.410323 0
28.345526 42.924507 1.4121721 0
28.36974 43.038971 1.4273486 0
28.312859 43.160446 1.4327816 0
28.346317 43.337257 1.4382964 0
28.326679 43.442375 1.422585 0
28.357428 43.545494 1.4358659 0
28.366367 43.651363 1.4685543 0
28.326796 43.750938 1.4807971 0
28.357084 43.850201 1.477438 0
28.311148 43.972958 1.4935565 0
28.376059 43.557903 1.5046784 0
28.372543 43.648529 1.5153598 0
28.320652 43.755199 1.5273176 0
28.340397 43.866344 1.5263116 0
28.394094 43.916573 1.548033 0
28.346251 44.053242 1.5185173 0
28.362616 44.179848 1.5203544 0
28.332338 44.31213 1.5670481 0
28.319693 44.41613 1.5493575 0
28.344744 44.528027 1.5627081 0
28.355461 44.600052 1.572135 0
28.316866 44.74511 1.5901521 0
28.339241 44.385181 1.6069831 0
28.336138 44.611736 1.603696 0
28.312307 44.784092 1.6279966 0
28.353239 44.846668 1.6366143 0
28.314453 44.953163 1.6170949 0
28.366667 45.122902 1.6600151 0
28.345161 45.243977 1.6818399 0
28.372606 45.344391 1.6656431 0
28.391066 45.457359 1.6787118 0
28.369093 45.588394 1.6973972 0
28.393442 45.275993 1.7042017 0
28.349308 45.371849 1.7112521 0
28.341496 45.546417 1.7321634 0
28.345737 45.661858 1.7325991 0
28.339193 45.754353 1.7394288 0
28.348143 45.857292 1.7477667 0
28.325884 45.958042 1.7846298 0
28.318016 46.011517 1.757844 0
28.361656 46.117973 1.7724643 0
28.336966 46.215061 1.7849132 0
28.381115 46.086407 1.8017069 0
28.362757 46.175228 1.8133613 0
28.378973 46.276386 1.8276283 0
28.347483 46.368893 1.8382021 0
28.341633 46.43491 1.8354695 0
28.330809 46.536858 1.8421198 0
28.34359 46.632885 1.8533883 0
28.343079 46.749897 1.8637989 0
28.348783 46.851303 1.8849443 0
28.380108 46.957024 1.8838382 0
28.340525 47.068569 1.8975129 0
28.358896 46.985542 1.9089077 0
28.34115 47.052151 1.917573 0
28.343576 47.144016 1.9183245 0
28.312841 47.299778 1.9255469 0
28.346836 47.694954 1.9951417 0
28.377398 47.856716 2.0212164 0
28.349318 48.067657 2.0540791 0
28.357103 49.051617 2.145438 0
28.389059 49.133816 2.1567669 0
28.435858 9.1416426 -2.2993455 0
28.403574 15.8314 -1.6979536 0
28.47076 16.68524 -1.5960509 0
28.417145 16.753016 -1.5892584 0
28.480162 16.965399 -1.5597961 0
28.446453 17.025162 -1.5504323 0
28.454533 18.06628 -1.4322789 0
28.444693 18.137453 -1.4236263 0
28.428453 18.254921 -1.4093454 0
28.412216 18.372391 -1.3950644 0
28.40139 18.450703 -1.3855437 0
28.402044 18.737265 -1.3915862 0
28.424507 18.833664 -1.3790606 0
28.456942 18.937426 -1.3415874 0
28.462118 19.032505 -1.3295645 0
28.434738 19.147846 -1.3385988 0
28.456417 19.240982 -1.3245198 0
28.447878 19.365582 -1.3079361 0
28.403061 19.138472 -1.2949065 0
28.468414 19.226213 -1.2579201 0
28.443825 19.342276 -1.2515105 0
28.445789 19.445625 -1.261506 0
28.466478 19.559828 -1.2562238 0
28.42779 19.656029 -1.2287474 0
28.457224 19.739798 -1.2181534 0
28.464632 19.855433 -1.2401963 0
28.481737 19.954374 -1.2604393 0
28.474495 20.041115 -1.2494502 0
28.467253 20.127853 -1.2384611 0
28.460009 20.214594 -1.2274721 0
28.452766 20.301334 -1.216483 0
28.441904 20.431444 -1.1999995 0
28.474493 19.854198 -1.1996939 0
28.487101 19.91683 -1.1958967 0
28.43104 20.561554 -1.1835158 0
28.42564 21.261469 -1.0636396 0
28.4575 21.344307 -1.0543885 0
28.493952 21.439079 -1.0438044 0
28.443779 22.097525 -0.9594081 0
28.432957 22.224586 -0.94450343 0
28.459181 22.333385 -0.93054849 0
28.443785 22.428257 -0.91887462 0
28.445232 22.53054 -0.90629792 0
28.462543 22.620132 -0.89189768 0
28.461655 22.819628 -0.87893248 0
28.474579 22.950165 -0.86142015 0
28.434212 23.130205 -0.84361553 0
28.460558 23.216225 -0.83315533 0
28.460403 23.341505 -0.81947428 0
28.405046 23.60619 -0.79323083 0
28.438105 23.707516 -0.77874732 0
28.437376 23.853941 -0.75804245 0
28.400778 24.761011 -0.59549904 0
28.488699 24.874918 -0.57822788 0
28.468849 24.961784 -0.56620991 0
28.470577 25.030298 -0.55538338 0
28.453907 25.116571 -0.54387826 0
28.42168 25.223999 -0.53006667 0
28.41258 25.30463 -0.52014196 0
28.462236 25.473177 -0.49389818 0
28.444666 25.591915 -0.47745544 0
28.450155 25.682407 -0.46500751 0
28.481241 29.045055 -0.1647594 0
28.456661 29.154621 -0.15112737 0
28.492064 29.446802 -0.10954495 0
28.427082 29.526072 -0.10117438 0
28.492712 28.809101 -0.0058207461 0
28.478807 29.530926 -0.098583661 0
28.428404 29.651169 -0.08647342 0
28.424377 29.775898 -0.072334059 0
28.442833 29.86039 -0.063120663 0
28.471291 29.945108 -0.051861722 0
28.476349 30.022453 -0.041281547 0
28.444885 30.22496 -0.01943823 0
28.477606 28.875517 0.0035164664 0
28.448236 28.975964 0.015056178 0
28.488649 29.057728 0.030116661 0
28.489704 33.774063 0.38722131 0
28.496269 33.819893 0.39809698 0
28.489822 33.590721 0.43048778 0
28.480713 33.683979 0.44006079 0
28.472103 33.772129 0.44910946 0
28.463493 33.860279 0.4581582 0
28.473597 33.950264 0.44162714 0
28.446274 34.036575 0.47625557 0
28.48138 34.135437 0.48751292 0
28.493141 34.365276 0.51196271 0
28.458136 39.73159 1.0212539 0
28.409813 39.84259 1.0353653 0
28.413603 40.794685 1.1659176 0
28.468637 40.838493 1.1727557 0
28.427105 41.103264 1.2050189 0
28.483055 41.362728 1.233935 0
28.412548 41.402939 1.2433201 0
28.441021 41.544666 1.2567697 0
28.482931 41.602478 1.2709491 0
28.463203 41.740746 1.2795615 0
28.451012 41.829475 1.2936199 0
28.472992 41.905811 1.2965283 0
28.45603 41.960396 1.3095136 0
28.451406 42.050461 1.3146821 0
28.440367 42.167439 1.3281602 0
28.413704 42.264187 1.337876 0
28.441324 42.369751 1.3519617 0
28.443335 42.424454 1.3592172 0
28.448927 42.542542 1.3611555 0
28.442076 42.65366 1.3547266 0
28.450687 42.764324 1.3834655 0
28.403429 42.959244 1.3633583 0
28.47056 43.03791 1.3729727 0
28.408232 43.199512 1.392534 0
28.4522 42.869415 1.40872 0
28.445221 42.974415 1.4215237 0
28.453518 43.01667 1.4306501 0
28.453465 43.141788 1.4445695 0
28.46612 43.230389 1.4670608 0
28.454124 43.337505 1.4249557 0
28.427992 43.438293 1.4368407 0
28.45035 43.572147 1.4603372 0
28.4475 43.68943 1.4750944 0
28.44804 43.80394 1.4728453 0
28.439104 43.940144 1.490294 0
28.460283 43.660458 1.5175914 0
28.425066 43.765598 1.5155429 0
28.461073 43.951733 1.5383496 0
28.468296 44.055252 1.5352321 0
28.489828 44.128635 1.5151885 0
28.422739 44.24815 1.5295017 0
28.432367 44.361851 1.543326 0
28.437939 44.471565 1.5571222 0
28.460711 44.557941 1.5695127 0
28.453691 44.681374 1.5844692 0
28.432697 44.782707 1.5964756 0
28.409725 44.745701 1.6210735 0
28.461277 44.84502 1.6206446 0
28.438168 44.958675 1.6341329 0
28.450449 45.094822 1.6355541 0
28.45298 45.183582 1.6867307 0
28.419146 45.236938 1.652186 0
28.454773 45.329205 1.665951 0
28.49329 45.444183 1.6808825 0
28.46155 45.529598 1.6906506 0
28.488791 45.263538 1.7004036 0
28.447363 45.365055 1.7105805 0
28.403629 45.445267 1.7219298 0
28.43709 45.579075 1.734286 0
28.448175 45.660847 1.7276146 0
28.443628 45.750698 1.7220899 0
28.439676 45.824856 1.7502271 0
28.447329 45.941929 1.7740606 0
28.444494 46.078255 1.7682294 0
28.484856 46.16988 1.7805057 0
28.466881 46.299156 1.7987791 0
28.454115 46.088139 1.8020518 0
28.451405 46.171337 1.8131276 0
28.472956 46.357697 1.8392299 0
28.459425 46.458118 1.8515121 0
28.436438 46.553951 1.8453916 0
28.451561 46.654831 1.862806 0
28.476194 46.731182 1.8658272 0
28.451054 46.85471 1.8783131 0
28.463125 47.035004 1.895093 0
28.465631 46.959534 1.9043924 0
28.441696 47.034691 1.9133654 0
28.436127 47.128765 1.9060512 0
28.447798 47.389103 1.9689021 0
28.465977 47.472294 1.9799639 0
28.484156 47.555485 1.9910257 0
28.400316 47.978035 2.0407727 0
28.403471 48.156033 2.0693009 0
28.436996 49.257118 2.1737599 0
28.484934 49.380421 2.1907532 0
28.535692 9.0719509 -2.3091648 0
28.524378 16.617464 -1.6028433 0
28.586603 16.752741 -1.5865147 0
28.574703 16.835316 -1.5740379 0
28.511889 16.900145 -1.5686716 0
28.559961 17.043726 -1.5484977 0
28.572845 17.508093 -1.4881835 0
28.504929 18.757343 -1.3884659 0
28.549065 18.848251 -1.3431449 0
28.568151 18.965559 -1.3361244 0
28.53014 19.020042 -1.352432 0
28.54307 19.126671 -1.3371692 0
28.562675 19.211542 -1.3259232 0
28.540613 19.320122 -1.3125261 0
28.593443 18.87007 -1.2388275 0
28.566093 18.956694 -1.2374649 0
28.563463 19.058706 -1.2316673 0
28.544319 19.142729 -1.2718461 0
28.551462 19.247301 -1.2631934 0
28.540934 19.358667 -1.2526968 0
28.560146 19.463654 -1.2633826 0
28.535688 19.528364 -1.2652667 0
28.547779 19.638638 -1.2414833 0
28.565161 19.734421 -1.214011 0
28.579235 19.839334 -1.2045687 0
28.569798 19.832579 -1.1984748 0
28.558495 19.970718 -1.1872478 0
28.533123 21.847921 -0.99422556 0
28.52113 21.91506 -0.98482603 0
28.560316 22.02796 -0.97186214 0
28.511116 22.106684 -0.95863539 0
28.522434 22.211805 -0.94572502 0
28.519785 22.312967 -0.93292415 0
28.549665 22.456034 -0.91703326 0
28.559023 22.529303 -0.90416807 0
28.547037 22.636829 -0.875664 0
28.5812 22.74321 -0.88408697 0
28.559044 22.808607 -0.87706113 0
28.578146 22.952894 -0.85936016 0
28.549053 23.087191 -0.84314334 0
28.558626 23.205805 -0.82808656 0
28.589457 23.327404 -0.8124088 0
28.550106 23.44837 -0.80155367 0
28.508091 23.578297 -0.78897345 0
28.570074 23.626385 -0.75256366 0
28.542303 23.707657 -0.77381968 0
28.516613 23.836329 -0.76039135 0
28.573238 24.597553 -0.61411589 0
28.539167 24.699165 -0.60133266 0
28.506807 24.795673 -0.58919138 0
28.589117 25.184793 -0.53205609 0
28.54578 25.306931 -0.51567596 0
28.542536 25.440306 -0.49712691 0
28.546345 25.501123 -0.48888755 0
28.541548 25.650848 -0.46754292 0
28.540504 28.930325 -0.17791285 0
28.558346 29.026188 -0.16435143 0
28.54509 29.11031 -0.15339014 0
28.570118 29.245289 -0.13467503 0
28.551552 29.347118 -0.12201731 0
28.578173 29.419647 -0.11343895 0
28.567995 29.532196 -0.097495288 0
28.539839 29.633966 -0.087044679 0
28.520935 29.752075 -0.072358601 0
28.554337 29.868776 -0.057607576 0
28.557383 29.954624 -0.048072375 0
28.581242 30.058474 -0.032953002 0
28.513895 30.152966 -0.025346309 0
28.58663 30.23144 -0.011911429 0
28.562408 28.961975 0.018537847 0
28.582741 29.028124 0.028700991 0
28.59766 32.970257 0.30508605 0
28.562441 33.745941 0.38640526 0
28.595402 33.66407 0.44079113 0
28.576227 33.795544 0.45413584 0
28.563444 33.883198 0.46303228 0
28.550663 33.970848 0.47192872 0
28.562794 34.077209 0.48318148 0
28.577257 34.155201 0.49115336 0
28.512314 34.233803 0.4986181 0
28.55677 34.27142 0.50216264 0
28.536283 34.387634 0.51317191 0
28.522625 34.465115 0.52051139 0
28.547033 40.632805 1.1481795 0
28.52305 40.721249 1.1589667 0
28.550667 40.950989 1.192508 0
28.56138 41.153976 1.2004943 0
28.52677 41.25898 1.2139482 0
28.529444 41.300037 1.2344137 0
28.588318 41.461956 1.2574981 0
28.588364 41.519703 1.2643566 0
28.592113 41.679836 1.2715338 0
28.55831 41.749897 1.2847115 0
28.560373 41.84021 1.2899053 0
28.547558 41.891056 1.304453 0
28.542051 41.977882 1.3076887 0
28.503002 42.075169 1.3193731 0
28.563955 42.14418 1.3281956 0
28.500652 42.261429 1.3411891 0
28.533075 42.366455 1.3546484 0
28.566238 42.467422 1.3656211 0
28.512793 42.556416 1.3755326 0
28.552629 42.66449 1.388431 0
28.560144 42.705441 1.3636483 0
28.575077 42.804283 1.3450763 0
28.501463 42.932388 1.3603148 0
28.562092 43.02795 1.3718337 0
28.527748 43.130325 1.3842791 0
28.552603 42.773754 1.4016373 0
28.555111 42.83881 1.40894 0
28.559734 42.951538 1.4208108 0
28.551352 43.054676 1.4358724 0
28.563721 43.171173 1.449473 0
28.542746 43.267216 1.4460236 0
28.574278 43.344517 1.4504886 0
28.525583 43.426403 1.4441211 0
28.549704 43.55925 1.4607998 0
28.568779 43.670597 1.4677435 0
28.584795 43.847973 1.4802954 0
28.531134 43.947575 1.4921908 0
28.513121 43.526276 1.5024761 0
28.559523 43.644039 1.5169733 0
28.514772 43.779652 1.5182199 0
28.515928 43.867989 1.5433 0
28.578444 43.958023 1.5265644 0
28.590366 44.04372 1.5354517 0
28.559549 44.15424 1.5635996 0
28.537252 44.219845 1.5263095 0
28.576181 44.357075 1.5440984 0
28.504179 44.414608 1.5504076 0
28.555155 44.524162 1.566691 0
28.505077 44.76458 1.5970269 0
28.583292 44.332279 1.6013973 0
28.564074 44.86615 1.6103967 0
28.504782 44.95565 1.6202881 0
28.533052 45.062065 1.6338475 0
28.553495 45.171516 1.6642855 0
28.557459 45.273998 1.6794903 0
28.568419 45.346832 1.6695905 0
28.552214 45.354397 1.7068073 0
28.551523 45.481586 1.7239223 0
28.560049 45.572876 1.7338953 0
28.539129 45.647923 1.7262496 0
28.531424 45.754967 1.7589591 0
28.539663 45.846909 1.7537373 0
28.537022 45.948627 1.7713506 0
28.547791 46.047031 1.7805601 0
28.583174 46.133621 1.7768191 0
28.548347 46.232021 1.7893919 0
28.588125 46.179115 1.8157022 0
28.555624 46.263241 1.8264548 0
28.564009 46.321327 1.8025066 0
28.536247 46.483646 1.8450613 0
28.541517 46.587212 1.8690026 0
28.56506 46.656563 1.8691062 0
28.520716 46.769447 1.8878454 0
28.539576 46.811279 1.865791 0
28.551928 46.907227 1.8888626 0
28.548985 46.928535 1.9003417 0
28.502335 47.638672 2.0020876 0
28.529604 47.763458 2.0186799 0
28.556871 47.888245 2.0352724 0
28.575747 47.974613 2.0467572 0
28.516891 49.46262 2.2020819 0
28.548849 49.544823 2.2134109 0
28.596786 49.668125 2.2304041 0
28.685226 16.414133 -1.6232208 0
28.604803 16.515799 -1.613032 0
28.642204 16.729591 -1.5854214 0
28.671543 16.806843 -1.5740198 0
28.606028 16.950701 -1.5575042 0
28.643833 17.47576 -1.4919691 0
28.635824 17.55529 -1.482864 0
28.694883 17.607384 -1.4759097 0
28.653963 18.438189 -1.379932 0
28.646786 18.776415 -1.334586 0
28.636177 18.846312 -1.3497518 0
28.669167 18.934637 -1.3368626 0
28.651667 19.05652 -1.3223506 0
28.655693 19.119705 -1.334749 0
28.649343 19.228331 -1.3211653 0
28.659147 19.356775 -1.3059493 0
28.633484 18.743238 -1.2408223 0
28.680099 18.80397 -1.2291206 0
28.631819 18.945854 -1.2281287 0
28.605104 19.083553 -1.2976396 0
28.661821 19.264381 -1.2762489 0
28.660452 19.381203 -1.2621516 0
28.679316 19.460194 -1.2450426 0
28.640875 19.564795 -1.2552034 0
28.632389 19.651564 -1.2217574 0
28.662828 19.776173 -1.2094102 0
28.69013 20.408974 -1.20047 0
28.684076 19.749475 -1.1996938 0
28.661713 19.854692 -1.1929247 0
28.68939 19.966995 -1.180971 0
28.678785 20.492826 -1.1901052 0
28.667442 20.576679 -1.1797405 0
28.614342 21.911285 -0.9853211 0
28.614103 22.139685 -0.95059896 0
28.631582 22.221266 -0.93981451 0
28.649561 22.314215 -0.92975533 0
28.647121 22.441784 -0.91479725 0
28.672626 22.515329 -0.9090631 0
28.661808 22.597366 -0.89116079 0
28.643579 22.647497 -0.88809043 0
28.643639 22.752502 -0.87137681 0
28.659075 22.855516 -0.85361111 0
28.687485 22.97999 -0.85173368 0
28.66341 23.074699 -0.82257897 0
28.695881 23.28479 -0.81510901 0
28.646938 23.407362 -0.80052578 0
28.614107 23.497196 -0.79216468 0
28.653288 23.614204 -0.76630211 0
28.621704 23.75495 -0.75201422 0
28.679117 23.918476 -0.71577096 0
28.695063 24.767471 -0.59158981 0
28.670244 24.82906 -0.58403659 0
28.639473 25.04287 -0.55109 0
28.618006 25.103369 -0.54297626 0
28.680588 25.233473 -0.52395707 0
28.651825 25.361021 -0.52061504 0
28.627533 25.567993 -0.47852686 0
28.677441 25.747173 -0.44822961 0
28.683605 26.053413 -0.40865359 0
28.664557 26.300457 -0.38400933 0
28.67552 29.049637 -0.15492751 0
28.644207 29.155472 -0.14326692 0
28.685749 29.43965 -0.10692649 0
28.682037 28.698635 -0.016489342 0
28.629116 28.778969 -0.006298562 0
28.662292 29.526468 -0.097248927 0
28.682312 29.635172 -0.078698404 0
28.641495 29.725056 -0.070715912 0
28.61664 29.807442 -0.062076598 0
28.655972 29.936733 -0.0437648 0
28.665995 30.02916 -0.032509826 0
28.644838 30.281286 -0.0048377174 0
28.67651 28.862406 0.007032915 0
28.684738 28.951031 0.019978952 0
28.633556 33.050865 0.31580839 0
28.669451 33.131474 0.32653069 0
28.62178 33.771896 0.38786846 0
28.603209 33.610538 0.43535772 0
28.601418 33.828468 0.40149504 0
28.603489 33.942772 0.4187513 0
28.690693 34.046013 0.48298693 0
28.674583 34.126789 0.49100271 0
28.675743 34.556286 0.53701395 0
28.640636 34.649117 0.54308009 0
28.62709 40.535679 1.1375368 0
28.63624 40.65139 1.1525613 0
28.656431 40.853821 1.1821243 0
28.658426 40.949219 1.195413 0
28.627029 41.063671 1.211741 0
28.677038 41.153324 1.2259209 0
28.654041 41.53186 1.2563672 0
28.645033 41.638947 1.2761341 0
28.655279 41.790169 1.2924495 0
28.609154 41.885418 1.2990805 0
28.64016 41.879509 1.3047444 0
28.643415 42.016853 1.3149736 0
28.667744 42.173325 1.3334076 0
28.617056 42.249111 1.3415301 0
28.653067 42.383621 1.3586974 0
28.647999 42.532364 1.3759005 0
28.644495 42.678627 1.3899288 0
28.616707 42.894466 1.355729 0
28.656469 42.981621 1.3660904 0
28.601742 43.090584 1.3793868 0
28.637726 43.196201 1.3932238 0
28.663837 42.752472 1.4011911 0
28.64159 42.825699 1.4086236 0
28.640797 42.955784 1.4238434 0
28.653166 43.080143 1.4403902 0
28.679701 43.185585 1.451382 0
28.653618 43.233086 1.4575965 0
28.668571 43.335384 1.4473708 0
28.610802 43.434177 1.4619964 0
28.648872 43.572472 1.4562991 0
28.640566 43.760654 1.4700313 0
28.674824 43.845863 1.4808477 0
28.633051 43.956867 1.4948155 0
28.623625 43.525013 1.5041387 0
28.66131 43.729607 1.5238963 0
28.62911 43.827526 1.5256263 0
28.634413 43.939518 1.5392039 0
28.670017 44.054039 1.537038 0
28.649851 44.143108 1.5405754 0
28.648645 44.236752 1.5599087 0
28.663555 44.348518 1.544399 0
28.632633 44.482555 1.5621557 0
28.649446 44.643749 1.5832263 0
28.672138 44.839207 1.6081216 0
28.620346 45.049568 1.6309959 0
28.680059 45.127235 1.6692598 0
28.658171 45.241978 1.6761667 0
28.674416 45.345371 1.6708176 0
28.611084 45.460663 1.682929 0
28.641615 45.572418 1.6987972 0
28.695772 45.342075 1.7082827 0
28.694748 45.438599 1.720266 0
28.647673 45.669346 1.7242992 0
28.647429 45.781773 1.7454965 0
28.654556 45.872799 1.7583637 0
28.63011 45.928741 1.7691374 0
28.654285 46.050449 1.7759076 0
28.696941 46.187912 1.7844572 0
28.666285 46.181591 1.8160988 0
28.650276 46.235058 1.821095 0
28.655657 46.351387 1.8256592 0
28.636768 46.480251 1.8561007 0
28.630865 46.546391 1.8484331 0
28.640242 46.66679 1.848112 0
28.644156 46.740353 1.8742946 0
28.66807 46.844654 1.8710976 0
28.605486 46.931488 1.8836751 0
28.645119 49.792446 2.2475379 0
28.785067 14.74208 -1.8114898 0
28.741873 16.398703 -1.6226448 0
28.728231 16.659803 -1.5905452 0
28.766911 16.873158 -1.5639718 0
28.701374 16.928831 -1.5592824 0
28.797419 17.409492 -1.5001564 0
28.714821 17.443424 -1.4957547 0
28.723694 17.520544 -1.4871359 0
28.753807 17.621574 -1.4735281 0
28.775225 17.948874 -1.4362478 0
28.755808 18.021029 -1.4279152 0
28.747244 18.134262 -1.4144047 0
28.701576 18.252645 -1.4019415 0
28.712858 18.329103 -1.3925574 0
28.744764 18.424944 -1.3800762 0
28.798685 18.519567 -1.3669581 0
28.752806 18.634241 -1.3516906 0
28.723124 18.737331 -1.3386296 0
28.750469 18.832296 -1.3258671 0
28.763922 18.941179 -1.3330276 0
28.719313 19.006506 -1.3476046 0
28.748987 19.138132 -1.3324938 0
28.733753 19.237087 -1.3197658 0
28.752295 19.308886 -1.3111452 0
28.756186 19.13772 -1.2895702 0
28.749685 19.247372 -1.2695274 0
28.749237 19.318295 -1.2541051 0
28.759914 19.44795 -1.2600261 0
28.755268 19.558081 -1.2285011 0
28.794386 19.63623 -1.2256093 0
28.720972 19.709152 -1.2162927 0
28.744345 20.008242 -1.250003 0
28.729834 20.115492 -1.2367463 0
28.712818 20.24127 -1.2211993 0
28.701475 20.325123 -1.2108346 0
28.758986 19.634958 -1.1883844 0
28.759418 19.741766 -1.1903551 0
28.770166 19.81535 -1.1960468 0
28.771885 19.924936 -1.1829748 0
28.775684 20.012911 -1.1738851 0
28.72142 20.277714 -1.1451471 0
28.741655 20.336826 -1.1381472 0
28.792221 20.407518 -1.1287351 0
28.744967 21.895809 -0.97422564 0
28.725876 21.993418 -0.97005588 0
28.721647 22.139196 -0.95056468 0
28.735718 22.275103 -0.93202376 0
28.748663 22.348366 -0.92452359 0
28.761183 22.49688 -0.90882272 0
28.743265 22.47118 -0.88263428 0
28.773211 22.520056 -0.88677138 0
28.760853 22.645969 -0.88485503 0
28.781227 22.770172 -0.86751723 0
28.778185 22.895893 -0.85930586 0
28.753559 22.953968 -0.82388395 0
28.752977 23.063055 -0.82513344 0
28.710926 23.169916 -0.82845259 0
28.793768 23.21677 -0.81938034 0
28.702116 23.382965 -0.8032347 0
28.793062 23.444691 -0.79213417 0
28.745142 23.516188 -0.77360654 0
28.744658 23.747568 -0.734613 0
28.778988 23.829403 -0.72423005 0
28.725851 24.043655 -0.70000267 0
28.788164 24.210566 -0.67897826 0
28.791801 24.315331 -0.66961968 0
28.744884 24.643833 -0.60675228 0
28.719881 24.705881 -0.59914303 0
28.771988 24.872416 -0.5755052 0
28.758434 25.054295 -0.54857242 0
28.754772 25.179947 -0.53073049 0
28.719957 25.503983 -0.51796317 0
28.74349 25.588451 -0.46956873 0
28.744942 25.634775 -0.48932377 0
28.762499 25.720671 -0.46106726 0
28.788412 25.837595 -0.44044423 0
28.748783 25.996532 -0.41425714 0
28.778851 26.090031 -0.39995041 0
28.74094 26.179527 -0.3886131 0
28.796545 29.082495 -0.14822896 0
28.786926 29.111423 -0.14481618 0
28.753593 29.211674 -0.13299026 0
28.716576 29.325558 -0.11964419 0
28.732038 28.220196 -0.084767707 0
28.772549 28.343184 -0.065338962 0
28.769539 28.668007 -0.018807478 0
28.764841 28.776503 -0.0045614322 0
28.777103 29.745968 -0.061347578 0
28.729486 29.867336 -0.04898854 0
28.784641 30.034021 -0.031459618 0
28.763626 30.151346 -0.01745869 0
28.713896 30.223827 -0.011191524 0
28.772604 28.89123 0.014224096 0
28.75069 28.921074 0.017639359 0
28.714632 30.303196 0.0005419635 0
28.700918 30.672295 0.23651779 0
28.711786 30.752382 0.24741307 0
28.722654 30.832468 0.25830829 0
28.738958 30.952599 0.27465108 0
28.75526 31.072731 0.29099402 0
28.759834 31.106424 0.29557794 0
28.723293 33.252388 0.34261417 0
28.780865 33.456024 0.370525 0
28.706722 33.54187 0.37920782 0
28.725672 33.607147 0.38655153 0
28.719587 33.747887 0.39079773 0
28.768007 33.658352 0.44451755 0
28.760719 33.742294 0.42748421 0
28.725323 33.842495 0.43523788 0
28.706802 33.965237 0.47497112 0
28.796993 34.183624 0.5007773 0
28.772842 34.261478 0.50816548 0
28.775324 34.345531 0.51712775 0
28.743263 34.443726 0.52723998 0
28.768278 34.522476 0.53662759 0
28.746264 37.458549 0.81634235 0
28.777174 37.538063 0.82520646 0
28.769024 37.631565 0.83465624 0
28.798166 37.711601 0.84374487 0
28.749481 40.457703 1.1302996 0
28.720041 40.557838 1.1424642 0
28.762466 40.699104 1.1645954 0
28.746805 40.770294 1.1732247 0
28.777994 40.898426 1.1901786 0
28.774389 40.996895 1.2036587 0
28.726866 41.076542 1.2148602 0
28.787157 41.204342 1.2357703 0
28.761839 41.767788 1.2962133 0
28.762392 41.813629 1.2934614 0
28.717098 41.832954 1.3015313 0
28.70923 41.947548 1.307982 0
28.762058 42.05254 1.3202471 0
28.786842 42.106762 1.3274481 0
28.740454 42.248127 1.3437023 0
28.792965 42.36858 1.3606995 0
28.733772 42.439159 1.367781 0
28.736973 42.57962 1.3826586 0
28.730642 42.659134 1.3918761 0
28.705847 43.073421 1.3790301 0
28.753777 43.126114 1.3831494 0
28.782742 43.223949 1.3980563 0
28.735973 42.781357 1.4060804 0
28.729393 42.870136 1.4138254 0
28.74748 42.932987 1.4227777 0
28.755503 43.032284 1.4372691 0
28.75333 43.154049 1.4463844 0
28.781326 43.23608 1.4608178 0
28.746571 43.328369 1.4703295 0
28.728209 43.448105 1.4650856 0
28.749966 43.605949 1.4901167 0
28.725859 43.744579 1.4687927 0
28.757818 43.913525 1.4907428 0
28.751965 43.545177 1.5083572 0
28.749933 43.632629 1.51823 0
28.721392 43.723816 1.510446 0
28.741089 43.843281 1.5301386 0
28.756006 43.96088 1.5563248 0
28.735451 44.032616 1.5351795 0
28.751234 44.146549 1.5492111 0
28.716375 44.248241 1.5617548 0
28.764189 44.351353 1.5463556 0
28.710112 44.440948 1.5576202 0
28.769138 44.591564 1.5787319 0
28.736444 44.783161 1.6017472 0
28.799204 44.833015 1.6095454 0
28.76823 45.060219 1.6482339 0
28.769512 45.14278 1.6852261 0
28.76103 45.257874 1.6731135 0
28.715187 45.44949 1.6839904 0
28.742062 45.534229 1.6941357 0
28.792332 45.344234 1.7094995 0
28.72348 45.55455 1.734598 0
28.767681 45.635754 1.7267895 0
28.734987 45.740826 1.7405871 0
28.763273 45.829632 1.7527738 0
28.724936 45.941589 1.75144 0
28.762735 46.065697 1.7679684 0
28.795063 46.155369 1.7794491 0
28.737896 46.271244 1.7952533 0
28.756216 46.063408 1.8003072 0
28.775949 46.158039 1.8129746 0
28.754341 46.377029 1.826417 0
28.755384 46.474461 1.8457788 0
28.748966 46.614319 1.8424462 0
28.728334 46.757034 1.861374 0
28.7848 46.898262 1.8799962 0
28.70859 46.911526 1.8796991 0
28.737795 46.85001 1.9053526 0
28.768749 49.24934 2.1710644 0
28.898357 14.517228 -1.8390326 0
28.841713 14.629653 -1.8252614 0
28.83548 16.317636 -1.6256243 0
28.858816 16.477453 -1.6078768 0
28.806875 16.567804 -1.5995893 0
28.843225 16.679453 -1.5853013 0
28.837584 16.786173 -1.571728 0
28.873081 16.865152 -1.562984 0
28.814404 16.984715 -1.5494435 0
28.809217 17.080072 -1.538202 0
28.896738 17.178497 -1.5261405 0
28.887203 17.362396 -1.5037305 0
28.837275 17.54505 -1.4819195 0
28.833326 17.752459 -1.455609 0
28.824888 17.895607 -1.440644 0
28.873127 18.053814 -1.4217081 0
28.800276 18.215803 -1.4040232 0
28.837782 18.321594 -1.3904392 0
28.855293 18.408558 -1.379377 0
28.871437 18.511629 -1.3667842 0
28.824709 18.729246 -1.3382226 0
28.841394 18.823683 -1.326102 0
28.862415 18.926781 -1.3413248 0
28.8454 19.013567 -1.317147 0
28.834509 19.104734 -1.3356335 0
28.835844 19.207346 -1.3220726 0
28.843174 19.300173 -1.309357 0
28.84301 19.038345 -1.2841674 0
28.824131 19.154043 -1.2712637 0
28.82283 19.223215 -1.2695826 0
28.847483 19.349443 -1.2609208 0
28.842375 19.419294 -1.2645711 0
28.877483 19.543388 -1.2505714 0
28.860514 19.624197 -1.2417144 0
28.859732 19.75749 -1.2244948 0
28.81867 19.845549 -1.238462 0
28.872911 19.445549 -1.1645733 0
28.823355 19.540442 -1.1714426 0
28.879614 19.847221 -1.1888789 0
28.854826 19.942432 -1.1790727 0
28.877441 20.054647 -1.1666374 0
28.856911 20.173056 -1.1541795 0
28.804625 20.234798 -1.1483085 0
28.876554 20.320398 -1.137333 0
28.885624 20.412092 -1.1270101 0
28.890829 21.473389 -1.018854 0
28.889122 21.582621 -1.0128537 0
28.842617 21.715124 -1.0072948 0
28.875305 21.656519 -0.99514663 0
28.850183 21.759243 -0.98516518 0
28.848566 21.847551 -0.97744256 0
28.807074 21.951738 -0.96884942 0
28.80702 22.099569 -0.95084846 0
28.821432 22.229261 -0.93822038 0
28.824514 22.350233 -0.92248845 0
28.84745 22.455046 -0.90709174 0
28.800297 22.432201 -0.88506371 0
28.868834 22.57123 -0.87937498 0
28.863537 22.680929 -0.87801135 0
28.873281 22.778826 -0.86354375 0
28.878225 22.874815 -0.85714734 0
28.817377 22.958729 -0.83495009 0
28.888987 23.049046 -0.83650714 0
28.887774 23.280052 -0.80728573 0
28.803261 23.311663 -0.8086623 0
28.80566 23.393812 -0.79840261 0
28.865623 23.457136 -0.76445222 0
28.832628 23.650883 -0.74422616 0
28.888887 23.770987 -0.72887146 0
28.8494 23.951347 -0.70746034 0
28.881973 24.074907 -0.69308138 0
28.847389 24.146931 -0.68291825 0
28.895115 24.285217 -0.6664573 0
28.813122 24.452984 -0.65138626 0
28.881031 24.609863 -0.59692115 0
28.865215 24.738731 -0.59282291 0
28.825794 24.828953 -0.58067352 0
28.818132 24.927427 -0.56663132 0
28.879265 25.118652 -0.53475809 0
28.852451 25.278465 -0.51358557 0
28.870396 25.338638 -0.50364488 0
28.847012 25.398211 -0.49491826 0
28.805603 25.474308 -0.48477846 0
28.851784 25.656664 -0.46019444 0
28.860672 25.840712 -0.43372288 0
28.844471 25.975283 -0.41320133 0
28.828226 26.070749 -0.39385906 0
28.844883 26.157944 -0.37476614 0
28.868799 26.283134 -0.34735349 0
28.810131 28.27066 -0.074945353 0
28.88402 28.372713 -0.057785138 0
28.841888 28.448601 -0.047528096 0
28.878601 28.555727 -0.03215557 0
28.843937 28.641014 -0.020573078 0
28.820852 29.634464 -0.072702117 0
28.881403 29.866018 -0.046269175 0
28.844498 29.944054 -0.039031833 0
28.869925 30.087934 -0.021960802 0
28.875801 28.772261 0.00073343096 0
28.855692 28.84305 0.0074670706 0
28.881632 28.964741 0.019253062 0
28.826532 30.303509 0.00040844813 0
28.850056 30.570118 0.22482757 0
28.868942 30.648502 0.24054161 0
28.887831 30.726889 0.25625569 0
28.874596 33.500561 0.3787429 0
28.804026 33.60302 0.38892597 0
28.892937 33.699013 0.40114269 0
28.87117 33.839954 0.44166943 0
28.848436 33.986206 0.48249978 0
28.823423 34.071251 0.49093413 0
28.884186 34.18763 0.5043183 0
28.855209 34.271343 0.51239556 0
28.896833 34.669445 0.55094612 0
28.889631 34.755325 0.5590468 0
28.860071 37.352242 0.80750936 0
28.898617 37.429981 0.81610286 0
28.863489 37.643097 0.83780462 0
28.869909 37.776615 0.85179871 0
28.856449 37.87167 0.86192214 0
28.88559 37.951706 0.87101078 0
28.853769 40.640915 1.1590322 0
28.875299 40.819439 1.1802965 0
28.876503 40.921608 1.1937778 0
28.852991 41.035004 1.2098045 0
28.854853 41.268181 1.2440228 0
28.88484 41.351864 1.2540104 0
28.835985 41.721115 1.2929904 0
28.860189 41.843277 1.2981521 0
28.810177 41.882717 1.3017621 0
28.827503 41.929131 1.3072429 0
28.847118 42.011597 1.3175257 0
28.880852 42.173054 1.3380748 0
28.861685 42.252922 1.3476201 0
28.853483 42.437874 1.368924 0
28.898504 42.544086 1.3825936 0
28.824314 42.650356 1.3933556 0
28.85508 43.190605 1.3963733 0
28.855108 42.754486 1.4042108 0
28.849382 42.858994 1.4155591 0
28.845314 42.966236 1.4337009 0
28.848349 43.053101 1.4445192 0
28.846678 43.151329 1.4503363 0
28.871153 43.235977 1.4624889 0
28.850958 43.362568 1.4474672 0
28.829367 43.457134 1.4986901 0
28.860788 43.553242 1.4723139 0
28.816856 43.673862 1.4610344 0
28.859346 43.732559 1.4685605 0
28.892868 43.837494 1.4820726 0
28.883041 43.595131 1.5159606 0
28.854584 43.685589 1.526215 0
28.801548 43.729431 1.5041314 0
28.829994 43.841328 1.5253136 0
28.869829 43.990154 1.5008042 0
28.858809 44.065987 1.5399852 0
28.846485 44.167889 1.5814928 0
28.826729 44.247124 1.5527855 0
28.878935 44.543694 1.574609 0
28.82218 44.75668 1.5995804 0
28.896727 44.804653 1.6073556 0
28.856558 44.952961 1.6631566 0
28.876373 45.038818 1.6539111 0
28.838259 45.169086 1.6735872 0
28.857275 45.24279 1.6718814 0
28.851559 45.336323 1.6720327 0
28.8305 45.465 1.6868083 0
28.877752 45.351391 1.7106116 0
28.81213 45.458576 1.7232549 0
28.847038 45.557709 1.7181408 0
28.833118 45.659626 1.731151 0
28.8216 45.726551 1.7571137 0
28.869436 45.840378 1.7494881 0
28.824003 45.942661 1.7687587 0
28.862638 46.021858 1.7799042 0
28.887859 46.107338 1.7746714 0
28.833782 46.233929 1.7907634 0
28.838205 46.157822 1.8131896 0
28.858595 46.256153 1.8265814 0
28.876766 46.305771 1.8006018 0
28.803141 46.45269 1.8228451 0
28.863585 46.57024 1.8540119 0
28.822714 46.65852 1.8488896 0
28.826756 46.78949 1.8665793 0
28.876951 46.856342 1.876493 0
28.850447 47.050537 1.9317139 0
28.822666 49.365986 2.1881545 0
28.85861 49.443748 2.1995475 0
28.894554 49.521511 2.2109411 0
28.973885 14.367329 -1.8573943 0
28.936121 14.442279 -1.8482136 0
28.995018 16.134495 -1.6357301 0
28.914465 16.226965 -1.6306275 0
28.968594 16.372261 -1.6166644 0
28.97995 16.429451 -1.6085038 0
28.952269 16.545437 -1.5969088 0
28.924248 16.656237 -1.5853611 0
28.966219 16.749592 -1.5736245 0
28.960123 16.849909 -1.5601405 0
28.928886 16.971514 -1.5477666 0
28.923643 17.050631 -1.5387945 0
28.957703 17.163717 -1.525972 0
28.943697 17.261396 -1.5148907 0
28.915382 17.468124 -1.4892957 0
28.942713 17.572176 -1.4758393 0
28.94038 17.652349 -1.4679828 0
28.953913 17.734913 -1.4571159 0
28.908588 17.888987 -1.4395399 0
28.953337 17.955709 -1.430269 0
28.991547 18.068367 -1.417263 0
28.951918 18.169868 -1.4069498 0
28.914824 18.280561 -1.3944407 0
28.939817 18.380827 -1.3815578 0
28.985678 18.482487 -1.3695451 0
28.937855 18.594944 -1.3546547 0
28.957993 18.683886 -1.342222 0
28.937044 18.794765 -1.3277042 0
28.95756 18.860432 -1.3192654 0
28.911823 19.020166 -1.3448499 0
28.933041 19.118206 -1.3312272 0
28.929739 19.219681 -1.3187659 0
28.938757 19.326801 -1.3063809 0
28.907341 19.045055 -1.281813 0
28.948925 19.231848 -1.2485504 0
28.935446 19.313684 -1.252048 0
28.963968 19.43297 -1.2563612 0
28.953239 19.531284 -1.2427366 0
28.962669 19.65576 -1.2611487 0
28.972929 19.794003 -1.2421947 0
28.995581 19.877272 -1.2308637 0
28.942812 19.954266 -1.2221918 0
28.935898 19.306011 -1.1559957 0
28.925163 19.404234 -1.1566511 0
28.956017 19.736244 -1.1998941 0
28.98624 19.895508 -1.1815323 0
28.96286 20.030291 -1.1675845 0
28.98423 20.10243 -1.1598618 0
28.988997 20.204241 -1.1487968 0
28.915232 20.481562 -1.118296 0
28.996288 20.597849 -1.1319772 0
28.973909 20.762705 -1.1406305 0
28.953924 21.293192 -1.0342975 0
28.920002 21.388905 -1.0277798 0
28.959089 21.475996 -1.020981 0
28.98201 21.573708 -0.9930132 0
28.969337 21.692541 -0.98354244 0
28.963093 21.782301 -0.97791398 0
28.939938 21.843521 -0.9824757 0
28.904257 21.978748 -0.96400738 0
28.913969 22.067165 -0.95786864 0
28.91357 22.18265 -0.94518 0
28.947819 22.262794 -0.92104262 0
28.948828 22.380152 -0.91532063 0
28.946751 22.481943 -0.90254474 0
28.995291 21.241358 -0.89808422 0
28.967131 21.346043 -0.86458278 0
28.944065 21.404524 -0.8453241 0
28.908028 22.299519 -0.89759123 0
28.999359 22.326317 -0.89224446 0
28.908209 22.405842 -0.88605309 0
28.966335 22.557264 -0.88305998 0
28.943737 22.679523 -0.86819345 0
28.970573 22.753822 -0.85755831 0
28.937822 22.851494 -0.83607465 0
28.964006 22.939032 -0.8471123 0
28.93018 23.172075 -0.81892127 0
28.917614 23.436445 -0.7658149 0
28.932909 23.524584 -0.75520211 0
28.980944 23.64765 -0.73999888 0
28.926394 23.851055 -0.71863496 0
28.963902 23.931126 -0.70839852 0
28.959465 24.072113 -0.68819743 0
28.992657 24.209879 -0.67241794 0
28.991627 24.336296 -0.65991712 0
28.913307 24.404076 -0.65380424 0
28.996559 24.27039 -0.58867872 0
28.967676 24.355257 -0.59073931 0
28.938795 24.440126 -0.5927999 0
28.909912 24.524994 -0.59486049 0
28.908842 24.711376 -0.59638232 0
28.987898 25.062664 -0.54009956 0
28.945454 25.168804 -0.52581358 0
28.929829 25.246017 -0.51519793 0
28.968109 25.38562 -0.49472097 0
28.918825 25.467529 -0.48392051 0
28.985277 25.579895 -0.46560925 0
28.972256 25.648697 -0.46012169 0
28.953962 25.773632 -0.44183373 0
28.964916 25.8841 -0.42543247 0
28.984051 25.947649 -0.41288418 0
28.90274 26.033424 -0.40228158 0
28.938889 28.096457 -0.09914463 0
28.964977 28.176495 -0.0863171 0
28.984167 28.47278 -0.041746706 0
28.962679 28.565708 -0.028288426 0
28.98888 28.669138 -0.011753932 0
28.964014 29.691339 -0.062469553 0
28.918308 29.787983 -0.053506576 0
28.970173 29.898069 -0.038284339 0
28.974558 29.98719 -0.029222401 0
28.94729 30.179043 -0.0093206717 0
28.952091 28.758144 0.0010681713 0
28.914419 30.292772 0.0030896554 0
28.93911 30.361105 0.013236007 0
28.934189 30.265949 0.19331695 0
28.958351 30.348223 0.20735198 0
28.982512 30.430496 0.22138698 0
28.924152 30.519617 0.21855724 0
28.951389 30.637444 0.23501781 0
28.978626 30.75527 0.25147834 0
28.933956 30.832006 0.2735188 0
28.972769 32.782387 0.29547772 0
28.944492 30.962044 0.30339783 0
28.955841 31.009146 0.31284043 0
28.972254 33.385914 0.37001604 0
28.998667 33.489841 0.38291755 0
28.906921 33.597549 0.39041403 0
28.962049 33.656513 0.39942974 0
28.925106 33.725517 0.45664608 0
28.971117 33.936497 0.4800863 0
28.942141 34.02021 0.48816365 0
28.913162 34.10392 0.49624097 0
28.972036 34.558155 0.54400539 0
28.986183 34.762634 0.56367648 0
28.989227 37.287624 0.80421883 0
28.927141 37.325455 0.80603892 0
28.990005 37.438663 0.81880766 0
28.956438 37.546597 0.82899314 0
28.945192 37.840595 0.85940337 0
28.977873 37.919598 0.86804295 0
28.913942 38.029579 0.87985367 0
28.911509 38.570854 0.92554462 0
28.937105 38.657196 0.9362132 0
28.962702 38.743538 0.94688165 0
28.988297 38.82988 0.95755023 0
28.925764 40.66444 1.1628412 0
28.940168 40.766781 1.1737084 0
28.978617 40.846325 1.183897 0
28.993753 40.940353 1.1969115 0
28.932671 41.119873 1.2234939 0
28.989687 41.236214 1.2390144 0
28.982882 41.349503 1.2539511 0
28.958689 41.43829 1.2667644 0
28.984955 41.606464 1.2747895 0
28.928772 41.7603 1.2939198 0
28.983541 42.086201 1.3295585 0
28.971928 42.264492 1.3509725 0
28.934984 42.307426 1.3550559 0
28.954298 42.446873 1.3719472 0
28.982674 42.579365 1.3886771 0
28.921316 42.660202 1.394032 0
28.938154 42.750439 1.4050821 0
28.950037 42.861561 1.424127 0
28.936703 42.965721 1.4353943 0
28.944687 43.0448 1.4373145 0
28.928368 43.123966 1.448523 0
28.971994 43.247471 1.4711195 0
28.934572 43.3661 1.4636205 0
28.958363 43.451488 1.4867027 0
28.963192 43.529652 1.4617684 0
28.943296 43.624897 1.4562081 0
28.961166 43.733406 1.4701967 0
28.952532 43.919956 1.492927 0
28.906979 43.49007 1.5038358 0
28.970972 43.592865 1.5164398 0
28.96776 43.627708 1.5086471 0
28.934492 43.79195 1.5392083 0
28.963346 43.840351 1.5390809 0
28.909212 44.062069 1.5400478 0
28.93721 44.144142 1.5209434 0
28.932051 44.250061 1.5921479 0
28.903809 44.336929 1.5462816 0
28.950781 44.716961 1.5963303 0
28.988441 44.417702 1.6143295 0
28.952171 44.764126 1.624065 0
28.943085 44.850391 1.6524993 0
28.949812 44.929138 1.6608876 0
28.960863 45.051109 1.6535841 0
28.954321 45.142612 1.6903849 0
28.943203 45.238609 1.6745433 0
28.989172 45.333363 1.6757746 0
28.935118 45.469204 1.6883346 0
28.98131 45.319183 1.7073449 0
28.954943 45.437122 1.7216032 0
28.937712 45.548878 1.7181485 0
28.912674 45.653519 1.7312551 0
28.956106 45.727962 1.7417706 0
28.950178 45.837498 1.7730333 0
28.944948 45.951626 1.7712263 0
28.971079 46.044083 1.7838395 0
28.938625 46.190281 1.7849891 0
28.990925 46.296856 1.7994504 0
28.962646 46.117676 1.8097723 0
28.918917 46.422283 1.8183211 0
28.955027 46.656971 1.8662759 0
28.957188 46.748421 1.8785185 0
28.989004 49.227028 2.1710007 0
28.948471 49.638157 2.2280312 0
29.019602 14.27659 -1.8685093 0
29.080839 16.227699 -1.6268824 0
29.04291 16.310558 -1.6189755 0
29.091251 16.512283 -1.5942659 0
29.001919 16.629072 -1.5860736 0
29.075743 16.723223 -1.5715473 0
29.060432 16.812889 -1.5608833 0
29.011478 16.931101 -1.5496081 0
29.048645 17.036041 -1.5369651 0
29.052326 17.117956 -1.5274411 0
29.054365 17.222672 -1.5144429 0
29.002092 17.371616 -1.4990839 0
29.006516 17.455168 -1.4886267 0
29.049156 17.545494 -1.4764929 0
29.085003 17.60742 -1.4696249 0
29.085791 17.703859 -1.4577105 0
29.038227 17.967978 -1.4272455 0
29.061922 18.049559 -1.4173298 0
29.095297 18.13693 -1.4065353 0
29.015417 18.26034 -1.3940728 0
29.042082 18.361202 -1.3805938 0
29.079397 18.459387 -1.3693119 0
29.083265 18.579407 -1.3512491 0
29.06329 18.741457 -1.329111 0
29.069729 18.867537 -1.3154674 0
29.042839 19.049248 -1.3387295 0
29.031149 19.189392 -1.3221314 0
29.057096 19.301495 -1.3059822 0
29.003546 19.064131 -1.293581 0
29.041565 19.357555 -1.2657334 0
29.047504 19.45717 -1.2582138 0
29.076588 19.55876 -1.2450147 0
29.054186 19.651924 -1.2334414 0
29.088757 19.784899 -1.2420965 0
29.079897 19.905062 -1.2255483 0
29.086643 20.098127 -1.2018433 0
29.075497 19.738544 -1.1974483 0
29.04108 19.824648 -1.1882557 0
29.06386 19.950855 -1.185341 0
29.078539 20.03627 -1.1641611 0
29.07765 20.118208 -1.1567469 0
29.053864 20.233585 -1.173067 0
29.053459 20.330618 -1.1468983 0
29.052685 20.429968 -1.15381 0
29.031658 20.545311 -1.1514674 0
29.021074 20.668024 -1.1375455 0
29.086493 20.720676 -1.1119858 0
29.091442 20.616261 -1.0984845 0
29.09132 20.930679 -1.0222734 0
29.047157 21.047201 -1.0261382 0
29.002995 21.163723 -1.0300032 0
29.082474 21.695551 -1.0054051 0
29.097588 21.755804 -1.0039576 0
29.092442 20.966942 -0.98669213 0
29.064482 21.058779 -0.95760614 0
29.033529 21.153229 -0.92723894 0
29.05998 21.550184 -0.99472767 0
29.036068 21.626923 -0.99126428 0
29.054365 21.86014 -0.98938811 0
29.022396 21.957325 -0.97310799 0
29.006165 22.094454 -0.95529097 0
29.042988 22.175835 -0.94326919 0
29.017633 22.283251 -0.92800772 0
29.040277 22.35944 -0.91379374 0
29.047121 22.445618 -0.90773565 0
29.087307 22.299145 -0.89350826 0
29.093683 22.397892 -0.88138926 0
29.023939 22.447165 -0.88912386 0
29.0312 22.577858 -0.87923193 0
29.065683 22.658533 -0.87636858 0
29.05142 22.75882 -0.8488028 0
29.069733 22.87022 -0.84764969 0
29.080263 22.960196 -0.84256685 0
29.040541 23.061068 -0.82888383 0
29.077349 23.151115 -0.81894052 0
29.010437 23.280724 -0.8126393 0
29.044559 23.388578 -0.78436947 0
29.081491 23.491467 -0.75660992 0
29.046301 23.738716 -0.72789645 0
29.089411 23.88941 -0.70995647 0
29.020161 24.051228 -0.69304377 0
29.076424 24.171329 -0.67768914 0
29.099806 24.276537 -0.66354692 0
29.083204 24.015785 -0.58249682 0
29.039883 24.143085 -0.5855878 0
29.082981 24.968817 -0.55099428 0
29.004847 25.162346 -0.52545458 0
29.00423 25.258001 -0.51103848 0
29.031454 25.32914 -0.50017858 0
29.032915 25.47789 -0.48102176 0
29.063139 25.53088 -0.47070619 0
29.051659 25.654442 -0.45572942 0
29.06612 25.768253 -0.43961886 0
29.056293 25.868607 -0.42516488 0
29.085239 25.94412 -0.41715598 0
29.057055 26.146458 -0.38832331 0
29.088009 26.209038 -0.37933823 0
29.046858 27.963757 -0.11929625 0
29.057665 28.065948 -0.101601 0
29.057955 28.167423 -0.085847273 0
29.049595 28.269476 -0.070328221 0
29.078913 28.455555 -0.042347685 0
29.06731 28.548136 -0.027884174 0
29.076014 28.637497 -0.012745193 0
29.060781 28.770559 -0.0014540949 0
29.054579 29.738207 -0.05202831 0
29.010271 29.822123 -0.044813726 0
29.077267 29.94705 -0.029291056 0
29.043081 30.081627 -0.015756078 0
29.084969 30.146416 -0.0059473887 0
29.052183 30.266186 0.0056038634 0
29.024889 30.372547 0.016731799 0
29.083252 30.596647 0.048331667 0
29.056133 30.670818 0.056158993 0
29.008654 30.246742 0.19137692 0
29.047037 30.372204 0.20684686 0
29.072624 30.455845 0.21716018 0
29.006672 30.512768 0.23542199 0
29.042912 30.636177 0.25647441 0
29.079153 30.759586 0.277527 0
29.018269 30.92676 0.27543595 0
29.069942 32.730797 0.29161179 0
29.072674 32.553879 0.33297542 0
29.063381 32.83213 0.3045834 0
29.055292 33.359291 0.37000489 0
29.064449 33.472065 0.38304847 0
29.086191 33.584187 0.39674485 0
29.065718 33.622288 0.39978531 0
29.029818 33.766914 0.46372333 0
29.000093 33.852787 0.47200897 0
29.099609 34.178417 0.50905192 0
29.054878 34.272614 0.5176717 0
29.066765 34.375126 0.52955568 0
29.049189 34.459175 0.537085 0
29.07971 34.563454 0.54876411 0
29.046288 34.676079 0.55830151 0
29.081367 34.747334 0.56806302 0
29.050793 34.835922 0.5730657 0
29.056311 37.256866 0.80230182 0
29.069857 37.344822 0.81151599 0
29.079994 37.435356 0.82056898 0
29.052872 37.551872 0.83157635 0
29.054518 37.645275 0.84098619 0
29.052803 37.740952 0.85047692 0
29.091349 37.818695 0.85907042 0
29.012297 38.002804 0.87714279 0
29.031631 38.517166 0.9232747 0
29.074942 38.64542 0.93868649 0
29.013893 38.916218 0.9682188 0
29.052286 39.045731 0.9842217 0
29.065895 39.438297 0.98989701 0
29.090681 39.175243 1.0002245 0
29.054924 40.75235 1.1717641 0
29.041807 41.056522 1.2142867 0
29.040636 41.173931 1.2305571 0
29.063997 41.378407 1.2582878 0
29.043695 41.468407 1.270447 0
29.065132 41.560856 1.2818619 0
29.055561 41.71529 1.2926186 0
29.041311 42.037342 1.3247676 0
29.06604 42.295971 1.3555108 0
29.020016 42.375774 1.3645961 0
29.058226 42.495472 1.3796833 0
29.058756 42.520836 1.3775635 0
29.048273 42.625099 1.3924922 0
29.052971 42.747314 1.4104967 0
29.049519 42.849041 1.4240991 0
29.034216 42.931084 1.4275013 0
29.050459 43.046928 1.4467244 0
29.031164 43.143799 1.4565952 0
29.04619 43.205578 1.4632286 0
29.032501 43.34465 1.4719368 0
29.067314 43.438049 1.4739879 0
29.094124 43.532085 1.4965854 0
29.030785 43.785423 1.4767483 0
29.0655 43.893448 1.4903432 0
29.03809 43.491322 1.5066811 0
29.044044 43.740799 1.5293151 0
29.084843 43.831913 1.5373555 0
29.063643 43.963238 1.5298955 0
29.060373 44.049397 1.5257478 0
29.058321 44.235245 1.5600049 0
29.075542 44.321404 1.5877484 0
29.079382 44.677238 1.59308 0
29.057516 44.533764 1.6292531 0
29.042458 44.639286 1.6301033 0
29.029833 44.728046 1.6199244 0
29.019209 44.839931 1.6567814 0
29.055901 44.932877 1.6524849 0
29.084267 45.058884 1.6675456 0
29.039869 45.167011 1.6705657 0
29.057365 45.238338 1.6801372 0
29.058382 45.385769 1.6850452 0
29.034964 45.462578 1.6889045 0
29.063896 45.256493 1.7066627 0
29.087717 45.412338 1.7201238 0
29.014116 45.558559 1.7198775 0
29.04067 45.659626 1.7333341 0
29.061251 45.740601 1.7445425 0
29.031073 45.830925 1.7560815 0
29.039854 45.956493 1.7728816 0
29.065842 46.028172 1.7821203 0
29.037724 46.167274 1.7828741 0
29.059187 46.234955 1.7911046 0
29.058212 46.367947 1.8095571 0
29.050938 46.657558 1.8504214 0
29.053461 46.796818 1.8690501 0
29.036974 46.858906 1.9113603 0
29.05501 47.546894 1.985787 0
29.091503 47.628975 1.9974685 0
29.047535 49.339615 2.1878347 0
29.008949 49.768997 2.2472014 0
29.105391 16.287603 -1.6193756 0
29.125816 16.350157 -1.6121788 0
29.109074 16.419397 -1.6047621 0
29.142797 16.652941 -1.57693 0
29.133781 16.84572 -1.5552468 0
29.159967 16.917387 -1.5457724 0
29.140718 17.051188 -1.5311152 0
29.180498 17.231731 -1.5098395 0
29.107536 17.309227 -1.5037841 0
29.109407 17.40733 -1.4916996 0
29.159969 17.521524 -1.4772549 0
29.169767 17.644894 -1.4630222 0
29.153418 17.951307 -1.4267825 0
29.152491 18.025347 -1.4174149 0
29.184174 18.109575 -1.4075831 0
29.109901 18.246376 -1.3928523 0
29.121811 18.334461 -1.3811357 0
29.163771 18.423536 -1.370156 0
29.177505 18.528252 -1.3525647 0
29.13788 18.629824 -1.3407992 0
29.161524 18.755495 -1.3502586 0
29.128946 18.868864 -1.3364742 0
29.157675 18.95693 -1.303071 0
29.142412 19.148804 -1.3237418 0
29.166279 19.277241 -1.3056169 0
29.138744 19.158566 -1.2689078 0
29.126911 19.277254 -1.2497768 0
29.163067 19.386114 -1.2926337 0
29.158342 19.457678 -1.2459129 0
29.175491 19.596941 -1.2383815 0
29.165956 19.673025 -1.2284454 0
29.181841 19.786545 -1.2398763 0
29.176029 19.873098 -1.2305901 0
29.188482 20.075689 -1.2217091 0
29.161858 20.161263 -1.2279841 0
29.135008 20.247183 -1.215505 0
29.162622 19.792677 -1.1886733 0
29.150356 19.883776 -1.1786681 0
29.185089 19.989267 -1.1675208 0
29.166212 20.06794 -1.1796203 0
