# .PCD v0.7 - Point Cloud Data file format
VERSION 0.7
FIELDS x y z intensity
SIZE 4 4 4 4
TYPE F F F F
COUNT 1 1 1 1
WIDTH 1435
HEIGHT 1
VIEWPOINT 0 0 0 1 0 0 0
POINTS 1435
DATA ascii
2.4391758 2.8845975 2.6113157 24
2.4276481 -1.9534161 2.7247896 26
2.4585717 -1.7786685 2.7640057 25
2.4137611 -1.657388 2.8344705 27
2.4039414 3.1326392 3.385813 24
2.4538925 3.8723497 3.7979982 24
2.4655247 2.929285 3.9638095 27
2.5128989 2.8696809 0.27923757 6.5
2.5446846 2.8522098 0.96531773 10
2.5402358 2.8650792 1.9679948 20.5
2.5964663 2.8399913 2.2532825 18
2.523977 2.8624203 2.6317077 25
2.54704 3.9118328 3.4589982 22
2.5803583 3.7277031 3.7259846 25.5
2.6949496 1.9149119 0.52121872 12
2.6861291 3.7789028 0.51175928 7
2.6259618 3.7614381 0.63899851 7
2.6265328 2.8860252 1.3424058 14
2.6166334 2.8591974 3.2404714 28
2.6235974 3.8584309 3.5379984 23
2.7348087 3.7568576 0.19299865 4
2.7660582 3.7777946 0.83453524 9
2.7652755 2.8625858 1.2345136 13
2.7768273 2.8597918 1.4582077 15
2.7624474 2.8510175 3.6398699 23
2.7262647 2.9094517 3.6072137 26
2.8055463 1.8944441 -0.20807721 2
2.8732874 1.9326162 0.49221551 11.5
2.8766589 2.8080006 1.4072458 13
2.882252 2.8475926 2.540345 24.5
2.801362 2.8259363 3.6778569 24
2.9762115 1.8664107 -0.23342597 2
2.9828486 -5.0405574 -0.11999697 5
2.9640682 -3.2813346 -0.13841689 5
2.9914632 1.7732676 -0.069218852 4.5
2.905242 2.0285401 -0.013822897 4
2.9299397 1.9974244 0.061862797 5
2.927561 2.0162351 0.16753112 6
2.9973109 1.722365 0.60677981 13.5
2.9378402 2.8257797 0.853347 10.5
2.9706681 2.8006713 1.0778947 12
2.9169488 -2.7038698 2.3273063 27
3.0268855 1.9036695 -0.17476383 1.5
3.0239265 1.7305627 0.87222493 16.5
3.0586011 1.6573942 0.95097995 18
3.0652533 3.7261372 1.3739991 12
3.0052779 3.7204504 1.7529991 14
3.012444 2.9061537 3.6798308 30
3.1796243 1.7946563 -0.15965937 2
3.1728868 1.7895263 0.053764138 5
3.1640646 1.8215019 0.15303217 7.5
3.1772258 2.7748201 0.18773621 5
3.1389394 1.7726985 0.29540706 8.25
3.1130989 1.752689 0.43958959 10.5
3.1665468 1.7350057 0.52318704 12
3.1280305 2.87993 0.73840892 11.5
3.1294339 2.8483951 0.87644219 13
3.1555252 2.7808232 3.6564903 25
3.2001095 2.7628541 -0.30706933 3
3.2266498 1.581682 0.29872087 7
3.263943 -2.2633562 0.48900732 7
3.2101684 3.7353873 0.48199931 6
3.2663767 2.7599118 0.57973921 8
3.2519085 3.7172482 3.8251014 26
3.2976918 3.685173 4.1365337 27
3.2141421 3.7078724 4.2607336 28
3.3501627 2.0036459 -0.14622596 3
3.3599925 -4.8973646 -0.083383285 4
3.3443289 -4.9370484 0.0042795278 5
3.3175571 -2.4004686 0.070007585 4
3.3526251 1.7676928 0.090297803 5
3.3167212 -2.338505 0.17700751 5
3.3236213 2.756876 0.79216135 9
3.319602 2.7703776 1.6346098 15
3.3471196 2.7534974 1.8180339 16
3.3612788 -3.0131254 2.703207 28
3.3042541 -2.6473334 3.3566091 28
3.3797843 2.7655814 3.4366996 22
3.3483081 2.7771068 3.6595917 23
3.3125932 3.8688629 3.6214743 25
3.4655557 2.7287059 -0.30455723 3
3.4534731 1.7698996 -0.11764493 4
3.4587302 -3.2911587 -0.08938314 4
3.4946496 -2.3837423 0.12104211 7
3.4647582 1.7666835 0.45127636 12
3.4938004 3.7199571 0.69399971 7
3.4847765 3.7150042 0.83699971 8
3.4698353 3.7220764 1.1429996 10
3.4922616 2.7455153 1.526665 14
3.4074812 2.7341466 1.8691992 17
3.4301341 -2.4490857 1.9637425 26
3.4247856 -2.3822627 1.9889662 27
3.4531598 -1.4836613 3.6810064 27
3.4987142 3.1648259 3.8183718 19
3.4846959 2.8341446 3.9481745 20
3.5682576 -2.9323065 -0.224894 4.5
3.5252817 1.724501 -0.09970291 5
3.5367177 1.7613218 0.1350829 6.75
3.5139487 -1.6350179 2.0052164 26.5
3.5626566 -1.5174896 2.0883727 28
3.5840118 -1.5231476 3.3680067 25
3.5342662 -1.1462814 3.5330062 26
3.5758312 2.5860212 4.0798125 24
3.6092036 1.7151136 -0.33232498 3
3.6279283 1.7557448 -0.22955911 4
3.6237855 1.7333633 -0.031729545 5.5
3.60638 -2.1547058 0.28499615 10
3.6230526 1.5951426 0.35585514 7
3.610373 2.7150903 0.37286687 7
3.6510155 1.5930948 0.49565694 8
3.6845107 2.7099185 0.41463536 7
3.6167958 3.7474554 1.5743808 15.5
3.6153936 -1.6460263 1.7273546 25
3.6335595 3.448997 4.0931749 20
3.756866 1.3343557 -0.10814704 5
3.7971241 1.9021398 -0.16077656 3
3.7178023 2.7084212 0.69495666 9
3.7825522 3.7529912 1.5176129 14
3.7848463 -2.3847246 1.8862221 27
3.7929513 2.8313143 1.9169209 21
3.7406318 -1.4696765 2.0127261 29
3.8242192 1.8924336 -0.22668484 2
3.885566 1.6963793 -0.12431557 2
3.8416345 1.7021056 -0.10963511 2
3.872817 1.6666453 0.021542883 5
3.839999 -2.0449631 0.95991606 12
3.851454 -2.595799 1.4703996 21
3.8057344 -2.2870886 1.984269 28
3.8960149 3.6855171 3.7784452 25
3.886358 3.686676 3.8607779 28
3.9281259 1.1981795 -0.35415542 3
3.9117646 1.3357784 -0.32221317 3
3.9791672 1.208967 -0.19571777 4
3.914326 1.3397123 -0.15310895 4
3.9916768 -2.7919278 -0.0098273177 5
3.959444 1.2082427 -0.013199025 5.5
3.9187131 1.9470551 -0.09028843 4
3.9934011 1.3552498 0.000267547 5
3.9104326 1.9001106 0.058752462 5
3.9195666 1.6928891 0.10889588 7
3.9175687 1.6605952 0.21780059 9
3.9395955 1.6176227 0.44463226 13.5
3.9873683 1.8221183 0.40185225 11.5
3.9815068 1.6135175 0.55227882 16
3.9235108 2.6272962 0.55001318 8
3.9390817 3.7561605 0.9086383 10
3.9996381 -2.5226123 1.4570044 21
3.9181156 3.750864 1.4471641 13
3.9223158 3.5429361 4.2110004 24
4.0812287 -3.0930758 -0.2437098 3
4.037858 -1.6845549 -0.29087004 1
4.0283246 1.8224311 -0.22723886 2
4.0358915 -1.8076371 0.050629605 6.5
4.0076747 1.8619598 0.0090464363 6
4.0340877 1.3777604 0.25169739 6
4.0454531 2.4935114 0.32291237 6
4.0658236 2.7297726 0.34428594 8
4.0596547 2.6360331 0.97885293 11
4.021966 -2.8887236 1.0802114 13
4.0410671 2.6333592 1.2304041 12
4.091115 1.812957 1.3142706 24.5
4.1846209 1.0804652 -0.49052343 2
4.1755424 -1.6476285 -0.25313067 2
4.1317058 -1.7863905 -0.16965631 3
4.1848183 -1.9865531 0.73225689 15
4.1380868 1.655565 0.87003291 21
4.1959462 2.6121094 2.1475596 17
4.195612 3.7834694 3.2970004 19
4.1265535 3.6059103 4.2050004 23
4.2966623 -2.8362339 -0.10767352 5
4.2701387 -1.8622168 -0.081011772 4.5
4.2631474 2.6632264 0.09081886 4.5
4.2513518 -1.8232995 0.16060586 8
4.2479773 -1.8007251 0.31142062 10
4.2219825 2.944942 0.47219184 8
4.2969842 2.8541198 0.64027917 9
4.2766709 3.5772686 1.2236364 12
4.3161983 -2.8478236 -0.26445809 3
4.3350077 -1.7844356 -0.24363002 3
4.386734 1.4276135 -0.28953099 1.5
4.3379345 -1.810824 -0.12892488 4.5
4.3693337 1.0731311 -0.15108845 4
4.3758998 1.4230638 -0.12440036 4
4.3554301 -1.8082839 0.04913589 6.5
4.3101053 2.6560984 0.040510152 4
4.3210969 -1.7381654 0.19594339 9
4.3823152 1.1220427 0.21613176 6
4.3888478 2.6690125 0.21489958 6
4.3234987 1.2498561 0.30013171 7
4.3339138 1.0843271 0.44442737 8
4.3233628 2.8645601 0.82872939 12
4.3718972 -1.7904909 1.1800965 21
4.382297 3.5293794 1.4578629 16
4.3133068 3.5577517 1.5479982 17
4.3716125 3.6064374 2.2874541 14
4.3938384 3.55604 2.6976824 16
4.356411 3.4826012 3.6805611 27
4.4999471 -1.5311283 -0.27310538 2
4.468534 -2.8522229 -0.015488523 6
4.4107389 -1.7322521 -0.054344952 4
4.4400163 1.1062891 0.043009717 5
4.4479232 -1.6950864 0.21998042 5.5
4.4639978 1.0330408 0.35561916 7
4.4331174 -1.7973248 0.66853863 15
4.4335523 2.5955877 0.86560696 10
4.4084187 3.5436509 1.2838727 15
4.4337454 -1.7484938 1.4851859 24.5
4.471046 -1.7118747 1.9411603 27
4.4482412 -2.2484133 2.3579171 27
4.4433217 -2.1786075 2.4701343 28
4.4449644 3.6746719 3.3592594 16
4.5161963 2.8066411 -0.17135334 2
4.5258193 2.5520103 1.3472856 13
4.5826244 -2.5892031 1.9055849 26
4.5445457 3.6680536 3.6265206 26
4.6131434 2.7324424 0.086338349 5
4.6914725 2.7806566 0.1019603 5
4.6297069 -1.6921521 0.40410843 11
4.6105046 -1.6872489 0.50864565 12
4.6277399 -1.6731361 0.6039387 15
4.6556058 2.8565826 1.4009928 16
4.6710415 2.8137877 1.5409758 17
4.6025553 2.7225914 2.8264041 17
4.6765442 2.6921132 3.0468562 18
4.6747937 3.6964736 3.4539592 27
4.6747556 3.4901617 3.8595295 28
4.7955241 1.4401495 -0.27174532 2
4.7969828 1.4370084 -0.10775483 4
4.7461109 -2.9692149 -0.07481841 5
4.797442 2.7772942 -0.034728434 4
4.7448239 3.7409379 0.48272005 8
4.768692 3.7373495 0.68183309 9
4.724566 2.3850334 1.3574913 12
4.8885827 -1.4320654 -0.24853997 3
4.8227019 2.3526301 0.057003278 4
4.8329639 2.2227066 0.69800347 7
4.8795867 -1.7621906 1.4104332 23.5
4.8509183 -1.686395 1.5408381 25
4.8039222 2.5424576 1.8935587 15
4.9239855 3.7420149 1.4315256 13
4.943409 3.7132344 1.581567 16.5
4.9122267 -2.3082025 1.97427 27.5
4.9130893 -1.1851908 1.951144 27
4.9640598 -0.99428713 2.5343225 25.5
5.034008 3.7205381 0.75246775 10
5.0738015 2.3521349 3.4969347 20
5.1213117 -1.3592795 -0.25679588 3
5.14431 2.3678293 -0.16884336 2.5
5.1841817 3.7200379 0.052637804 4
5.152462 2.4520118 0.11620303 5
5.1654763 3.004638 0.26659814 6
5.120481 3.732173 0.32629883 7
5.1875048 3.73528 0.49863991 8
5.1382151 3.7312434 0.58486128 9
5.1971536 2.3565161 0.92801523 16.5
5.1378775 3.7276621 1.4150162 15
5.1840105 -1.6366268 1.7115787 27
5.1985126 -2.4027381 1.8250253 26
5.1554942 -1.5194566 1.831773 28.5
5.1421843 -2.2779477 1.9695928 27.5
5.2402649 2.3237507 -0.2041575 2
5.2850995 1.1419281 -0.15483229 4
5.2437048 2.3204818 -0.025145303 4.3333335
5.2007256 2.3197863 0.21412537 8
5.3801103 1.1884147 -0.45228946 3
5.3112669 1.5214591 -0.19886291 2
5.3439503 1.6500207 -0.14492925 3
5.3979654 2.0036435 -0.14921717 3
5.3680491 1.5993171 -0.0068052923 5
5.3635874 1.6477426 -0.061621148 4
5.3937001 1.9868572 -0.019357311 5
5.3378062 2.0864806 -0.021720789 5
5.3090329 0.81121492 0.069405057 5
5.3895407 2.0128875 0.035956379 4.5
5.3542876 2.3365612 0.0052154018 4
5.3683052 2.3331571 0.11994092 5
5.361692 2.3246472 0.23907883 8
5.3093143 0.80477577 0.31866241 6
5.3797832 1.9457877 0.43435624 8
5.395133 1.9656191 0.76108503 16.5
5.321877 2.0340157 0.96630228 13
5.3301849 2.009526 1.1485366 14
5.4000554 2.0212622 -0.1090602 3
5.4176731 2.3170924 -0.18631503 2
5.4098587 1.9908019 -0.011644327 5
5.4362192 2.3228636 -0.051658776 4
5.4221754 1.2429286 0.074133374 6
5.4158335 1.6357337 0.025432939 6
5.4502583 1.4878749 0.17105928 9
5.4326701 1.4571912 0.26176307 10
5.4088511 2.028018 0.23519497 6.5
5.4424634 1.9134922 0.52258331 13.5
5.4026923 1.9650346 0.6555683 15
5.4376311 -1.3807019 2.4736125 26
5.5136967 1.9064844 -0.17966029 2
5.5836968 2.0297904 -0.19521183 2.5
5.5269647 1.9595803 -0.061881352 4.5
5.58255 2.0549903 0.010509417 6
5.556603 1.7061695 0.23528585 10
5.5055041 2.0191786 0.26560107 9.5
5.533114 1.5867161 0.49924392 14
5.5007997 1.6091162 0.41243997 13
5.5023112 1.3915902 0.78941369 18.5
5.5252471 1.8915745 0.78682709 17
5.5706105 1.9503305 0.88899481 18.5
5.511703 1.6363397 1.22865 23
5.5368714 -1.285585 2.6650739 27
5.627727 0.99317086 -0.31913027 4
5.6884017 2.3253014 0.20689666 9
5.6256013 -1.5278481 1.3053862 23
5.6648984 -1.0300756 2.4341052 26
5.7637768 -1.1185032 -0.31271008 2
5.7710776 0.80855292 -0.34915599 3
5.7896185 0.2521117 -0.013268714 5
5.7850776 2.2585738 0.28202024 8
5.7920532 -1.6165717 0.42436069 9
5.7012682 -1.6696005 1.3300098 10
5.8411784 0.79141653 -0.20450741 4
5.8202515 0.7927019 0.013774846 5
5.8303113 0.27150249 0.21720493 6
5.8286552 0.30935273 0.38580129 7
5.8812122 2.2552879 0.39072677 9.5
5.8076024 2.012212 0.96617109 17
5.8185019 -1.3427325 1.7486897 26.5
5.8899145 -1.2862732 1.9820999 29
5.9911261 2.3114214 -0.024852818 5.5
5.9586215 2.3094077 0.22757122 10
5.9442048 1.2345419 0.38091046 6
5.95506 -1.2969331 1.924721 28
5.9832492 -2.3806825 2.319629 27
6.0509129 2.3225029 -0.23327714 2
6.0652471 2.2541604 -0.19955491 3
6.0371017 -1.3878342 -0.033339858 5
6.0921822 2.2511168 -0.087700255 4
6.0157542 3.6845315 2.6095552 26
6.0612783 3.6694777 2.9775691 27.5
6.1325259 -1.2702423 -0.23561168 3
6.1518097 -1.2544168 -0.15942892 4
6.1511722 2.3204212 0.057603545 7.5
6.1679268 -1.3264461 0.13533197 6
6.1800704 2.2848821 0.3852016 13
6.1906481 2.27584 0.44983536 14
6.1533055 1.3830701 0.98981917 11
6.1656818 3.6553791 1.5610033 10
6.2356048 1.6673542 0.44605854 7.5
6.2370329 3.6796937 2.498013 25
6.3454056 2.2988553 0.058092881 4
6.3391838 2.2577569 0.13090819 8
6.3636737 2.2879016 0.3391597 12.5
6.4583807 2.231503 0.068327002 6
6.4189706 -1.4652748 2.0835292 26
6.5839052 2.2806084 0.13659647 10
6.5294628 2.2434826 0.92821312 23
6.6869173 -2.7234879 -1.0682257 5
6.6422138 2.2879646 0.23777798 5
6.6445765 2.2705903 0.32841018 13.5
6.6035457 2.4298081 2.0981619 13
6.6895547 3.6699321 2.3936396 26
6.6032138 3.6663098 2.8062351 28
6.7162066 2.2279081 -0.073180564 4.5
6.7476244 2.4587717 -0.066586286 4
6.7962389 2.5360272 -0.074187405 4
6.7229276 2.2192388 0.30732283 8.5
6.7668433 2.4484653 0.35445952 7.5
6.7435074 2.4135997 1.9079328 12
6.7534471 3.6726611 2.3811934 25
6.7751346 -0.62764841 2.4536026 29
6.715591 -0.92345285 2.5314553 26
6.7671924 -0.84277463 2.6922917 27
6.7722602 3.6256783 2.9970043 14
6.8254046 2.2920041 -0.23387723 2
6.8735747 2.2921002 -0.1207573 5
6.8207874 2.4584398 -0.011021459 4
6.859549 2.2930999 0.090557657 9
6.8135095 2.2814562 0.15534675 5
6.843101 2.2785323 0.25979337 13
6.816041 2.2661357 0.30684707 14
6.9974427 3.7366803 0.19234423 7
7.0080752 2.2866812 -0.14888732 3
7.0581751 2.1441803 -0.016044654 4
7.0730448 2.3256621 0.085016556 5
7.0315971 3.7297664 0.034918457 6
7.0378499 3.7412577 0.26986286 8
7.0298047 3.7308359 0.38624433 9
7.0009093 3.7260532 0.44438499 10
7.0514135 3.7044415 0.76166636 13
7.1390653 2.329169 0.53706044 10
7.1763825 2.4034634 0.97896695 14
7.1839948 2.0852318 1.0694002 15
7.2008009 -0.58652562 -0.32215363 1
7.2267275 2.2411275 0.63898599 11
7.2219801 2.2957957 0.72961187 12
7.2700291 3.7138445 1.3057282 18
7.2678604 -1.4037905 1.5801058 23
7.3136845 3.7042432 0.791677 14
7.3615131 -1.3741628 1.711828 24
7.3435054 -1.83577 2.4082167 26
7.4520617 3.7047987 0.78038937 13
7.5568066 1.8250791 -0.10016083 4
7.5457087 3.6720541 1.059136 14
7.5309238 3.7033525 1.3778145 19
7.5935607 1.9440264 1.9220722 12
7.5847874 -1.4558003 2.2422969 27.5
7.6529202 -1.8642298 -1.2017978 5
7.6215119 -2.1080832 -1.1094834 5
7.6579628 3.7427604 -0.24617529 3
7.6136584 3.6797137 1.0844216 15
7.7882476 -1.8746821 -0.82320452 6
7.7843304 3.7297316 0.088235408 7
7.9958439 -0.98349112 2.9047534 24
7.9574299 78.224457 24.45854 16
8.1899939 3.7296214 0.0077100717 6
8.1828003 -1.9278874 0.3156144 10
8.1776114 3.29298 1.2086251 19
8.2337208 3.7221968 0.20918261 8
8.2568655 3.6963105 0.39090714 9.5
8.266758 3.2689011 1.3084961 13
8.3548632 3.7314675 0.093490668 7
8.3228779 3.6914032 0.82720339 13
8.4878025 2.7295952 -0.27394897 3
8.4996071 2.7901564 -0.15120733 4
8.4872313 -1.7601204 1.0621766 26
8.4725494 -1.6680378 1.1857479 27
8.4176025 3.277745 1.1784456 18
8.4715414 -5.2665458 19.11141 29
8.5462646 2.7620168 0.025403231 5.5
8.5451593 2.6285999 0.26136464 7.5
8.5853415 2.9320476 0.23879702 7
8.5710592 2.9450738 0.39357236 9
8.5896606 -6.1547456 18.480839 28
8.6248417 1.8459282 -0.92726654 3.75
8.6853418 3.6423092 2.19629 13
8.7360849 1.8064727 -0.82137471 6
8.712534 3.7316909 -0.28040808 3
8.760746 3.5618331 1.2293714 16
8.709094 3.2798185 1.3484701 19
8.7757225 3.5453115 1.3858511 17
8.7475185 3.65976 3.3264136 17
8.8332853 3.6808386 -0.058895711 5
8.8300772 -0.38095436 2.6169555 27
8.8375273 -0.66330671 3.89131 27
8.9552479 1.767444 -0.99332434 3
8.9377298 3.7354805 -0.19892253 4
8.9740076 -2.2355342 1.0438633 23.5
9.0080824 3.6714156 -0.2135949 3.5
9.0109577 3.6926386 0.3046079 11
9.0260773 3.7098513 0.41313276 9
9.0301437 -0.70163751 2.3532021 28
9.0993109 0.20422275 3.288583 26
9.0342112 -0.64401406 3.8449507 26
9.1184111 3.7230721 -0.16283956 4
9.104063 1.6725756 0.053623524 27.5
9.1703606 3.7188194 0.1262105 7
9.1105099 3.6724536 0.50733596 15
9.1627932 3.6860857 0.6316638 16
9.1678562 3.602174 1.6597322 27
9.1849813 3.5573943 1.7027186 28
9.1021585 -0.7326178 2.3033526 27
9.1480789 -0.042526349 3.1117985 23
9.2969685 1.6782107 -1.0321536 2.5
9.2764654 1.6479264 -0.78130925 13
9.2380857 3.6991487 -0.32395837 2
9.2707806 3.6900046 -0.061392888 6
9.2888165 3.7201622 -0.09000811 5
9.2684212 1.8785363 0.076150924 27.5
9.2007093 -2.1143336 0.72186589 9
9.3197813 1.6702554 -0.97569984 5
9.3428707 2.4876962 -0.95378262 3
9.3459539 3.6876204 -0.18776876 5
9.3612432 3.6871154 0.12486432 10
9.3455839 3.6948178 0.51402652 10
9.3409777 -2.0485518 0.94609439 10
9.3332024 3.6891642 1.0298669 14
9.3195705 -2.1093023 1.2769556 25
9.3232336 2.8932076 1.4851307 28.5
9.48277 3.6898797 0.027473118 8.5
9.4705877 3.6927834 0.20342919 11
9.4818926 -0.28676578 0.39078733 11
9.4745846 2.8157916 0.92474854 26
9.4955759 8.1459074 1.022859 8
9.5044632 3.1045234 -0.98617238 1
9.513566 3.0621963 -0.53148746 8.5
9.5547857 3.0405912 -0.45019758 10
9.5575008 3.7087822 -0.34871042 2
9.5576153 4.9838767 -0.33862889 3
9.549819 3.6954644 -0.25367078 3.5
9.5076017 3.0204787 -0.17452225 13.5
9.5636902 3.7032683 -0.097679913 6
9.5329704 2.9841199 0.17872845 18
9.5937834 3.6882033 0.48601285 15.5
9.5999718 2.9387481 0.59247243 22
9.5804262 2.9208136 0.62012374 23
9.5572348 5.7252584 0.96318829 11
9.5995855 7.2896533 0.96536934 10
9.5862179 8.1238928 1.2816012 9
9.5830479 2.8632531 1.3288689 28
9.5109549 7.1650896 1.3580143 9
9.5113564 7.5662279 1.6046447 10
9.5961885 7.1785522 2.3034017 13
9.5651922 3.6716328 2.443486 27.5
9.5355253 7.1454792 2.4618967 14
9.5201159 -0.64747578 2.6646488 28
9.5851555 6.0214472 2.6180396 19
9.5827789 -0.48235363 2.735965 29
9.5615835 6.1178069 3.1552732 16
9.5802383 7.1605096 3.3968327 10
9.5854712 6.4713988 3.4250743 17
9.5932074 6.978447 3.7441189 18
9.5696268 -1.1369963 5.3517008 26
9.6111851 3.7596061 -0.26678151 3
9.6657333 3.7957883 -0.15995239 4.5
9.6222582 4.7768073 -0.17599703 4
9.6224518 4.8424721 -0.07665915 5
9.6121864 5.8916883 -0.070630647 5
9.62743 3.9713666 0.0020098926 6
9.6543312 5.0974083 0.0053944252 6
9.6765079 2.9332767 0.19667327 18.5
9.6142244 3.7372122 0.13642333 8
9.6005659 6.439332 0.11329471 6
9.6139431 5.6227908 0.21125109 6.5
9.626379 6.3996115 0.25236914 7
9.6338348 4.4042816 0.30922478 8
9.631752 5.8768711 0.39492124 8
9.6910162 11.810917 0.33767277 4
9.6812553 9.534111 0.44659188 5
9.6823339 -0.34796736 0.5920133 5
9.6971617 11.90188 0.54042894 5
9.6452732 3.972858 0.63411272 10.5
9.6539764 4.5816793 0.62853962 10
9.6434174 5.2996101 0.61607558 10
9.6078434 2.9020841 0.72798687 24
9.6569233 3.743854 0.70813632 15
9.6735849 4.672554 0.76994276 10
9.6038828 5.9234867 0.7609964 9
9.6791868 9.6360216 0.70837933 6
9.6708221 11.795839 0.74113423 6
9.6145735 5.2179894 0.81307656 10
9.6614895 5.7707829 0.87474829 11
9.6571026 6.5900111 0.87807357 10.5
9.6817245 3.7138283 0.91823524 17
9.6603727 5.0442681 0.90307689 11
9.6209908 5.5419645 1.0931312 12
9.6538048 6.1980038 1.0399965 12
9.6555958 4.4833179 1.222355 15
9.60357 7.3075347 1.2149675 11
9.6241436 2.8485708 1.3756361 29
9.6970043 4.1092896 1.4129553 20.5
9.6359081 5.9808221 1.4588019 15
9.6822338 5.999208 1.626502 16
9.6378584 -0.66293311 2.4419301 26
9.6074266 9.0683737 2.5771644 13
9.6266975 9.0843487 2.6886551 14
9.6845675 7.3747759 2.7772143 19
9.6752853 3.8876698 3.014004 25
9.6918049 4.322825 3.2205174 26
9.6465073 9.8193893 4.1451697 18
9.7467213 3.353734 -1.1116414 3
9.7952909 2.6538644 -0.60980231 7
9.7989035 2.3274357 -0.49984285 8
9.7899666 2.9494376 -0.21451591 13
9.713871 2.9535182 -0.10652098 15
9.7257204 4.129148 -0.11669432 6
9.7394009 4.1265688 -0.021314804 7
9.7883453 4.1627049 0.063123509 6
9.7858696 4.1322374 0.17312314 7
9.788868 2.1873806 0.24451099 8
9.740757 4.1365161 0.22201245 10
9.7026176 4.8846221 0.21249668 8
9.7210102 5.4014153 0.21771489 7
9.7177067 13.155527 0.39113751 5
9.7653265 4.145875 0.40745264 13
9.7086039 4.1103344 0.55526489 15
9.7896938 2.5572014 0.63529962 11
9.7012224 3.9269202 0.87862402 16
9.7065859 13.265687 0.80924767 6
9.7189808 2.7606761 0.93578976 27
9.7079754 3.9670794 0.95244491 17
9.7720966 12.837207 0.92185593 6
9.732667 4.8292475 1.1650727 16
9.7150955 9.9130898 1.1493502 7
9.7174482 12.115602 1.2622406 7
9.7943106 10.225664 1.3863509 8
9.7847586 12.071297 1.3588996 8
9.7249184 9.6335058 1.4671569 8
9.7337627 12.249638 1.5059056 8
9.7503462 13.416438 1.5082678 8
9.717907 9.4433107 1.6866655 9
9.7874165 11.759051 1.6883639 9
9.7367134 12.200992 1.9188932 9
9.7082462 7.7810755 2.0949495 15
9.7516308 13.459919 2.0493226 9
9.7357216 12.086435 2.105197 10
9.7332411 4.0184202 2.2493038 13
9.7695026 4.1829844 2.275214 26
9.7426596 18.276278 2.2203555 10
9.7496252 4.0690622 2.3910689 27
9.7928057 5.0203052 2.4385262 19
9.7161398 14.602038 2.4646449 8
9.7792244 18.895853 2.4317658 11
9.7324905 9.2012548 2.5318253 15
9.7636881 9.7699766 2.5909657 12
9.770752 14.515178 2.7750714 9
9.7980099 10.322799 2.9029229 13
9.7587833 12.321827 2.9562325 12
9.7743015 17.867111 2.9347939 12
9.7954941 19.018078 2.9171834 12
9.7850618 9.6390982 3.0787361 14
9.741888 5.0154443 3.1002336 16
9.70681 8.699728 3.264745 19
9.7802887 13.183755 3.298136 13
9.7882853 12.350161 3.5928304 14
9.7517872 5.3283024 4.1617436 26
9.7878647 6.6116714 4.1492724 25
9.7162457 7.1659966 4.144968 25
9.7937088 7.8873324 4.2103467 17
9.8319578 2.3037722 -1.1046416 3.5
9.827734 2.2830355 -0.88091683 5.5
9.8712111 3.028487 -0.61414528 7
9.8060951 4.1945086 -0.14240375 4.5
9.8581448 4.2244835 -0.16071975 4.5
9.8242617 4.2031169 -0.0031527802 6
9.8609543 4.185555 0.47971243 12
9.8684816 4.2326946 0.68561 14
9.8441648 4.1864328 0.75067067 15
9.8685055 -1.4141672 1.0763754 26.5
9.839859 -0.46247727 1.0580137 6
9.8989105 4.2988305 1.3879915 20
9.8482609 13.436101 1.7304782 8
9.8204947 13.082552 1.9053603 9
9.8318682 19.243412 2.2223504 10
9.8470306 -0.51838267 2.4062526 27
9.8238201 19.344921 2.4621511 11
9.8116426 15.705748 2.5507298 11
9.8173046 11.229467 2.7297349 12
9.8104191 -0.42169136 2.8278983 28
9.8230543 11.159736 2.9412291 13
9.8530283 19.287619 2.9942265 12
9.8387327 19.903616 2.9250588 12
9.8764591 12.822467 3.0565195 13
9.8428545 5.8457298 3.3734889 17
9.8336649 5.8758726 3.7648797 19
9.8345242 18.635092 3.8282762 15
9.8446283 19.249563 4.1212926 16
9.8694725 5.2215347 4.3130779 27
9.8282022 5.5081 4.3163943 27
9.895298 7.5275784 4.3995266 24
9.8103485 -0.99256271 5.426733 27
9.983386 2.8755498 0.60749018 23
9.9230671 4.2667799 1.3979549 21
9.9407272 27.263918 1.9249474 7
9.9023161 20.684206 2.8351054 12
9.944149 22.900024 3.0499368 12
9.9204302 20.63166 3.197562 13
9.9094286 22.294977 3.1939211 13
9.9884443 23.760689 3.3087461 12
9.9933138 23.781977 3.4138238 13
9.9497471 22.287905 3.9779687 15
9.9192839 5.9688797 4.3332396 28
9.9105415 6.847414 4.3514833 26
9.9929991 18.957191 4.643743 17
10.045448 -1.0143517 -1.3918556 3
10.082502 2.8666551 0.5860576 23
10.093233 1.8911314 0.61123723 7
10.043094 28.695974 0.78572327 4
10.041224 27.714403 0.86108989 4
10.038659 2.7279747 0.92113584 26.5
10.052487 27.437088 1.0167309 5
10.057636 27.099476 1.4557261 6
10.067859 27.012714 1.9793319 8
10.071037 27.306778 1.936981 8
10.096082 25.999737 3.3902807 12
10.010624 23.756638 3.8027189 14
10.039235 23.770807 4.1423912 15
10.018636 6.3461437 4.3600445 28
10.032495 6.4777904 4.3527603 26
10.043957 6.616622 4.3571706 27
10.088054 7.6833501 4.3895845 25
10.086715 25.314453 4.4167404 15
10.102468 -1.526979 -0.6840083 8
10.168813 2.904875 -0.16323031 14.5
10.15598 28.895405 1.128451 5
10.179266 32.974251 1.4628921 4
10.185884 32.46394 1.533793 5
10.167284 28.564569 1.6507204 6
10.170769 28.613522 1.8478689 7
10.107627 28.447201 1.9649777 7
10.173693 28.456787 2.0023627 8
10.11386 27.56896 2.245259 9
10.189178 30.008337 2.4506035 9
10.133108 28.160341 2.6694868 10
10.154537 27.827858 2.932775 11
10.117984 26.258244 3.614521 13
10.167994 13.113211 4.2567024 16
10.131068 6.5030336 4.3509121 27
10.131618 6.7136898 4.3369532 17
10.251477 6.1121221 0.42669964 9
10.210548 29.596148 0.92177618 4
10.211662 31.8284 1.5489296 5
10.264277 33.662281 1.6955593 5
10.218295 31.73336 1.744718 6
10.216583 31.147247 2.0842535 7
10.267245 33.318886 2.0113761 6
10.225803 30.602907 2.2241015 8
10.215834 32.198555 2.4635823 8
10.261047 32.133732 2.5742211 8
10.250987 31.790565 2.7050352 9
10.261954 -0.23371324 2.8066306 26.5
10.252167 30.50906 2.8409832 10
10.240294 32.169353 2.8839931 9
10.221635 29.281086 2.9283032 10
10.261032 29.187508 3.050205 11
10.206155 27.622604 3.3068216 12
10.208613 28.410435 3.3202422 12
10.210201 28.481077 3.4371762 12
10.20133 28.404537 3.6168942 13
10.254003 30.682535 3.6160297 12
10.269494 30.211895 3.8360019 13
10.271645 32.086845 3.9890511 12.5
10.234228 33.207226 3.9372466 12
10.249289 28.43313 4.079505 14
10.265974 32.471668 4.0894165 12
10.295657 17.663347 4.1383991 16
10.280972 30.107321 4.2396569 14
10.286743 6.6341019 4.3456082 28
10.251921 6.879282 4.3593559 18
10.350077 2.9868951 -0.6591993 7
10.372059 3.5181792 -0.22839919 4
10.383455 2.8865983 0.1645183 18
10.320868 31.007179 1.2788857 5
10.308557 30.608009 1.7141545 6
10.385925 31.234734 2.1257644 7
10.392102 31.167967 2.2423186 8
10.330711 33.796787 2.8519681 8
10.340157 33.647388 3.0069139 9
10.378092 14.544162 3.1481888 12.5
10.351833 18.037838 3.2590621 14
10.362693 20.981379 3.4214797 12
10.394645 30.511402 3.5494313 12
10.316463 34.203251 3.7547541 8
10.311932 3.5656099 3.9943082 28
10.383684 17.958378 4.0314646 16
10.396887 13.733618 4.1291394 15
10.39188 33.9618 4.3683796 10
10.375305 32.858662 4.4700646 13
10.370248 33.504505 4.4067359 13
10.365269 32.353802 4.5314183 14
10.353615 33.361664 4.5651941 14
10.450752 3.3451951 -0.11159917 5
10.473574 3.341558 -0.0087864837 6.5
10.474666 3.6277673 -0.01255939 6.5
10.43152 2.4566655 0.034273833 19
10.439518 6.1226549 0.19278187 6.5
10.470129 3.241399 0.35656914 10.5
10.488975 6.1881914 0.349139 8
10.462991 7.7197838 0.39071792 7
10.478827 36.947098 2.5029521 6
10.497826 38.016586 2.5419176 6
10.403226 -0.27611959 2.8833349 26
10.496688 36.778233 2.8797536 7
10.429351 30.98947 3.325006 11
10.495056 23.144102 3.6829407 14
10.469322 22.493984 3.7858453 15
10.479294 20.599758 4.0923643 13
10.478651 8.2906752 4.2947249 24
10.42231 17.589109 4.545547 17
10.483669 41.249531 5.9950924 11
10.507985 2.9634647 -0.67652702 7
10.545524 2.9250543 -0.48940507 9.5
10.554659 0.020411525 -0.15433283 5
10.56157 0.067043923 0.018593436 6
10.513522 3.3872259 0.12071378 8
10.51553 7.8023257 0.22115436 6
10.531 3.5432892 0.36547387 10.5
10.511679 -0.58491766 2.59603 28.5
10.582753 37.435139 2.6865749 6
10.560528 -0.3121601 2.9863639 28
10.524844 36.683933 3.8579156 10
10.540703 36.835911 4.0412431 11
10.521524 6.7328987 4.3306031 28
10.582308 8.1814528 4.3853865 25
10.588336 38.136631 4.7470517 13
10.533283 36.521507 5.0773821 14
10.541995 36.075516 5.2051129 14
10.584013 36.794044 5.5610366 15
10.601542 2.9789033 -0.80174851 5
10.651084 0.10921432 -0.036208186 5
10.632246 0.099266902 0.1436031 6
10.600201 0.21822661 0.13168502 5
10.654861 0.26007995 0.43620512 6
10.610489 39.538441 2.5183265 6
10.682459 37.512226 2.7613318 7
10.600121 37.552765 3.1138666 8
10.637882 39.55933 3.4004674 8
10.62824 39.234257 3.5612805 9
10.622991 28.214022 3.8936105 10
10.633826 39.30669 3.8048663 10
10.658831 13.83614 3.9741657 14
10.689987 37.307117 4.045238 11
10.654678 6.9460573 4.3413682 27
10.690988 28.288986 4.4755011 11
10.690133 39.471931 4.929513 13
10.647818 38.012085 5.0188847 14
10.638559 38.081615 5.4678192 14
10.620084 37.874737 5.6432686 15
10.733109 0.65054452 -0.44979408 1.5
10.774608 0.39845449 -0.31009078 3
10.718872 0.1159296 -0.22435009 4
10.783653 0.41941974 -0.20920555 6
10.757101 39.035614 2.1810558 5
10.749057 38.878551 2.4427385 6
10.72845 38.764328 3.3187585 8
10.701283 37.446495 3.6823726 10
10.792181 6.3506956 4.3125467 28
10.766202 28.857969 4.89327 17
10.742288 29.461775 4.9795752 17
10.71433 39.455025 5.3609524 14
10.746948 57.436924 5.5556545 6
10.734562 39.532898 5.8758488 14
10.747297 57.706844 6.028779 7
10.842163 3.7473872 3.7810404 25
10.887241 44.696487 3.8103166 8
10.825422 3.5583367 3.9495118 26
10.928514 45.390041 3.1198828 6
10.940238 45.508858 3.5964527 7
10.998533 45.901993 3.7796469 8
10.934547 30.052616 4.1687288 15
10.935118 44.767265 4.2600946 9
10.945902 6.4923887 4.3140411 27
10.923162 7.5533304 4.348372 24
10.960879 29.860973 4.5180845 16
11.016796 2.9788594 -1.0997645 2
11.098831 47.332924 3.3373961 5
11.014433 45.962719 4.2340522 9
11.049338 7.4621964 4.3400769 27
11.065624 31.693233 4.4497828 15
11.009653 45.818336 4.4867139 10
11.035788 31.593252 4.7287855 16
11.087797 46.172905 5.578536 13
11.06693 3.2639368 6.9522309 27
11.112062 2.9677334 -0.98644423 3.5
11.156277 0.5431819 -0.18521297 5
11.167844 47.916843 3.3424675 5
11.124364 47.499008 3.8319221 6
11.161239 47.58363 4.0525241 7
11.181253 47.499832 4.3890147 8
11.185621 46.75766 5.9603491 12
11.155549 -2.4821634 7.841258 16
11.239724 48.075706 4.6403904 8
11.267052 -2.4110856 6.851429 15
11.393379 5.9985385 3.9626644 28
11.369308 5.7942266 4.2831392 29
11.448762 0.6519556 -0.0094592068 6
11.497928 0.61441487 0.049602225 9
11.420659 -1.2077272 1.445611 25
11.495906 5.974411 3.8146799 23.5
11.413991 6.1077933 3.893142 27
11.414398 7.4615812 4.3136792 24
11.438657 46.018265 6.08778 11
11.504602 0.62698579 0.093383439 10
11.510878 0.72523379 0.16476119 7
11.576715 2.6731842 1.3763387 24
11.566327 5.8105979 3.8692675 18
11.505342 75.764671 40.541805 27
11.628221 0.54428715 -0.38323346 3
11.639105 0.69769663 1.4139963 11
11.692603 0.54880941 2.1970723 14
11.684186 0.50548095 2.4805255 12
11.616024 5.5171843 3.7835698 23
11.607671 8.4367313 3.8476639 24
11.630942 7.6639934 3.9104824 26
11.61877 11.564459 5.8231859 23
11.733085 4.3277469 -0.41287515 2.5
11.716461 4.3102298 -0.21865219 4.5
11.757767 4.3606162 -0.032053549 7
11.782731 4.4093328 0.13834687 9
11.739421 4.8375516 3.8017559 23
11.749363 7.7285514 3.9363647 27
11.701203 7.4689326 4.0074253 27
11.705652 13.655779 4.0096874 15
11.770372 7.5494633 4.116848 28
11.716434 13.586126 4.1016517 16
11.727328 5.9049373 4.32166 20
11.751933 13.998702 4.6780481 17
11.702601 23.258055 5.1457305 12
11.834007 0.77994204 0.035474319 9.5
11.858671 20.075619 4.2691593 19
11.857189 21.788424 4.3272061 19
11.848541 59.595543 4.5332055 4
11.897558 17.974749 4.6636953 19
11.873575 20.093626 4.6114454 20
11.800377 17.043615 4.7615056 20
11.871837 7.3135524 6.8919311 28
11.895339 11.76206 9.5086718 25
11.869708 60.009769 21.080412 26
11.862467 73.683823 22.702122 11
11.994136 0.68917495 -0.11406746 6
11.952989 7.4740548 0.1797481 6
11.987098 0.80211157 0.30344591 14
11.909986 19.204042 4.4975924 19
11.927664 21.964884 4.5677428 20
11.97703 25.148504 4.5471683 14
11.921525 18.291729 4.7530961 20
11.909043 17.673933 4.8827829 20
11.917182 16.186905 6.689786 24
11.918739 9.0985012 6.926404 28
11.978695 20.130844 7.061511 27
11.928043 44.866943 7.0308838 18
11.954555 19.136168 7.1501241 27
11.932818 11.651273 7.6817355 28
11.941096 14.737866 8.2264805 26
11.909072 13.980926 8.8819923 25
11.938016 15.500651 9.0481968 27
11.91275 19.676991 11.146748 24
11.924348 -9.858882 16.580229 28
12.001274 7.5197396 0.44079041 8
12.08253 0.81935668 2.1651735 29
12.010073 22.788837 4.4987888 19
12.00653 22.892712 4.6292377 20
12.087544 27.041506 5.010787 17
12.001469 20.35243 6.9552073 26
12.043514 21.140871 7.1338916 26.5
12.070943 20.313282 7.2595983 27
12.049325 14.088822 9.0964518 26
12.087838 15.739325 9.4059925 28
12.062495 21.234743 9.600194 28
12.179219 5.8642001 -0.95922691 3
12.130641 6.3057795 -0.78623074 4
12.158484 6.2480783 -0.64230025 5
12.154404 7.3236752 0.0013943631 5
12.194798 0.8354184 0.32628646 14
12.125053 7.3306785 0.38664952 7
12.13666 -1.1163917 1.5949785 24
12.131864 -1.1099428 1.6989975 25
12.10165 0.73101151 2.0615728 28
12.151972 1.0058095 2.297025 26.5
12.14813 27.88611 4.9121399 14
12.165741 28.019915 5.2092361 15
12.186884 26.189598 6.0181489 22
12.18344 24.949257 6.186851 22
12.1939 26.132092 6.1778545 23
12.120847 23.371843 6.6695194 25
12.10728 20.769041 7.4728737 27
12.107091 21.028652 7.710835 28
12.124322 12.233419 10.66222 27
12.267004 -0.31264579 -1.2507092 5
12.248716 5.2577167 -1.0516365 2.5
12.258421 5.1038156 -0.97274822 4
12.24443 5.4836636 -0.82131374 4.5
12.233591 5.3879356 -0.72850174 6
12.290572 5.158752 -0.6178236 8
12.277751 5.1235175 -0.4646751 9
12.245923 5.4055409 -0.43265846 9
12.222813 5.7532415 -0.13453424 11
12.225077 5.984797 0.37985581 14
12.267981 1.0180227 2.1987658 29
12.238962 1.0232742 2.5409684 28
12.244438 1.1516372 2.6353948 29
12.26534 32.280724 5.1722717 19
12.207006 28.01738 5.2478256 20
12.290811 32.786285 5.2303319 19
12.276293 28.901783 5.852838 22
12.248556 29.875376 6.0197744 21
12.282459 31.089268 6.018724 21
12.27494 30.485888 6.1708112 22
12.268458 29.624123 6.3446383 22
12.254806 25.118603 6.4494381 23
12.220596 23.208761 7.0138912 26
12.254447 25.085569 8.0598831 26
12.251136 25.288631 8.0916481 27
12.271638 24.464012 8.4351521 27
12.204112 27.234768 9.7829428 27
12.202507 29.095575 10.079904 25
12.295286 29.942139 10.119727 27
12.213602 -5.0005779 12.851206 26
12.344605 4.4999189 -1.2260164 1
12.339885 4.5227108 -1.0647491 4
12.352264 4.427846 -0.97921026 5.5
12.30585 4.8310385 -0.8600561 6
12.312957 4.8219347 -0.7535544 7
12.378254 7.2460461 0.13895322 7
12.384762 0.031262804 2.1025217 26
12.317131 32.78043 5.535131 20
12.367898 31.534945 6.2578912 20
12.384222 31.295309 6.6763687 14
12.360687 52.656708 7.073895 10
12.35881 29.595476 7.5041533 26
12.397347 30.681995 7.6009612 25
12.34245 28.163923 8.0329323 27
12.354987 28.361191 8.2665205 28
12.373529 28.850721 8.3632326 28
12.306425 31.888838 9.9959545 25
12.307772 27.089275 10.193951 28
12.350603 28.878746 10.34382 26
12.385741 32.065273 10.485358 26
12.45923 3.7231212 -1.2776114 2
12.401237 4.1198626 -1.2740836 1
12.481236 3.7292728 -1.1270658 5
12.468597 3.747071 -0.92502856 8
12.454854 4.0269437 -0.84392965 8.5
12.403154 4.3711505 -0.76207274 8
12.49764 3.8859849 -0.59540975 13
12.415286 4.5148048 -0.42561418 12.5
12.424157 12.275121 0.08635094 5
12.413682 1.3426923 2.06793 28
12.483793 5.0477161 2.0094616 28
12.468095 30.159651 5.0860214 20
12.454429 34.164181 5.57868 19
12.400223 38.00293 5.7404828 12
12.47014 33.925919 5.9969969 20
12.449887 34.389153 6.0373664 19
12.479853 52.482079 7.1356354 11
12.459012 33.553883 7.7174554 22
12.415047 29.981337 8.6020746 27.5
12.454489 31.459015 10.385675 26
12.435411 31.495356 10.418467 26
12.429051 32.244728 10.451849 26
12.485388 32.251637 10.568971 27
12.47657 18.5863 11.070379 26
12.498095 18.919109 11.410088 27
12.484471 40.397263 18.541697 28
12.50227 4.2313113 -1.1780794 2.5
12.579586 4.1131773 -1.0595844 5
12.597467 7.2413073 -0.028958933 5.5
12.53935 1.3145448 1.939658 27
12.583028 5.3918781 2.5757976 29
12.507131 30.610214 5.1231322 20
12.551297 35.390644 5.7269402 18
12.537644 35.926682 5.7463927 19
12.506925 39.591431 5.8974328 18
12.554422 35.806919 6.1291041 20
12.506185 35.082615 6.5316901 20
12.544927 36.18924 6.5882921 20
12.567084 36.062138 6.6082139 21
12.518598 34.918053 7.1015444 22
12.591579 33.6395 7.9402919 23
12.528118 34.495884 9.9362631 27
12.55299 34.048904 10.301186 27
12.506555 29.828217 10.591235 28
12.51089 31.599796 10.945096 27
12.543154 32.214256 11.009984 27
12.511618 41.869774 18.287167 28
12.612536 4.0839162 -0.67918664 12
12.650273 4.1152754 -0.62736309 12
12.663122 7.1803131 -0.00072473008 5.5
12.693972 11.953039 0.35784104 7
12.694021 7.244823 0.4067829 7.5
12.603396 1.0324661 1.3456359 27
12.619818 1.2869788 1.9167138 27
12.644778 -0.038213447 2.0091012 26
12.676226 45.009113 2.5030816 5
12.662889 45.118378 2.7554023 6
12.647789 45.048851 3.1241307 7
12.690882 44.564243 4.1694732 9
12.619143 45.129871 4.104773 8
12.649562 44.802223 4.4875093 8
12.631786 44.305771 4.5275102 10
12.639402 44.584427 4.5061002 9
12.624213 43.402691 5.1127844 10
12.686666 40.432301 5.9707761 18
12.682685 38.792736 6.3181787 20
12.694623 38.843731 6.5334697 21
12.65769 31.887554 6.8331275 24
12.652925 37.813114 6.8937263 22
12.670896 31.879427 7.0964546 25
12.688896 36.82198 10.051648 23
12.682317 31.135475 11.890784 28
12.680384 44.382912 18.854652 28
12.754599 7.2706251 -0.06687396 6
12.703942 3.4805179 0.69936818 29
12.727631 12.063725 0.68205661 8
12.716618 12.12267 1.8819712 11
12.726899 1.4456067 1.9880391 28.5
12.714405 45.365585 2.6294272 5
12.741203 1.6447976 3.2607455 29
12.798725 41.896786 3.2819812 7
12.773263 40.270096 3.5537822 8
12.708997 44.434681 3.7575843 8
12.778044 43.411301 3.8591769 8
12.797856 41.100399 6.1988654 17
12.737842 43.604568 6.4371328 18
12.722739 40.292854 6.5183215 18
12.747818 39.407673 6.8956156 21
12.796076 40.506393 7.1640821 19
12.716406 32.541042 7.2279515 24
12.781706 39.279655 7.7086401 24
12.741671 38.049839 8.2990246 25
12.794136 38.986412 8.3494434 23
12.723514 37.137768 9.2811356 27
12.708477 36.920483 9.4568958 28
12.797448 38.054394 9.6491003 27
12.771026 39.932579 10.958575 27
12.765855 40.474144 11.210606 25
12.787423 29.82268 12.237466 28
12.786165 47.028313 17.088659 27
12.813039 7.2797093 -0.17573637 5
12.892296 7.2815285 0.090193383 7
12.815484 4.116056 0.83110237 29
12.826012 4.2459359 0.88757712 28.5
12.863528 10.930569 1.0482626 9
12.848613 11.548183 1.4556382 10
12.826468 11.380676 1.7551131 11
12.8607 14.366406 2.4638302 11
12.892826 39.972546 3.6699817 8
12.895679 39.568733 3.9162195 9
12.866744 42.003033 3.9935327 8
12.870625 43.244392 4.2372727 9
12.876617 43.195412 4.5678377 10
12.878084 36.300995 5.6764927 16
12.824488 40.273823 6.0321312 19
12.883512 41.418106 6.1495862 18
12.850304 41.326355 6.6564937 19
12.8728 32.57008 7.2609706 25
12.866595 33.33765 7.2862849 24
12.820022 40.673603 7.5829287 20
12.839965 38.40213 7.8679452 24
12.887467 40.505974 9.1556292 23
12.813244 38.834976 9.3637867 27
12.823316 38.855335 9.4955711 28
12.860529 39.749741 10.028109 26
12.854495 11.89567 14.727725 27
12.835389 16.398664 15.381172 28
12.872561 46.687382 17.166111 27
12.99843 5.0799289 -0.94574934 4
12.950574 4.8253107 -0.89715642 5
12.987803 5.2971907 -0.59232712 6
12.917556 14.299134 2.4581826 12
12.969275 1.082819 2.8412163 29
12.984562 40.393757 4.2201991 9
12.955351 41.705742 4.2239676 9
12.934687 43.342751 4.4508538 9
12.984941 43.383781 6.4717975 19
12.970394 43.781322 6.5850039 16
12.990231 39.402229 7.6683702 20
12.928278 38.197044 8.2878981 26
12.936443 41.517723 8.4478312 24
12.985373 41.444061 9.8262167 26
12.96089 40.107059 10.374643 27
12.922369 39.844711 11.375881 28
12.934107 42.87339 11.30793 26
12.992269 43.448685 11.387058 27
12.932514 40.69212 11.456294 27
12.961544 43.829453 11.568348 27
12.95256 14.460525 14.929113 28
12.975974 15.272159 15.393331 29
12.924725 15.699767 19.13028 25
13.085015 4.6085572 -1.0300095 4
13.095524 7.2750373 -0.23640165 4
13.035614 12.438996 0.038008168 4
13.014414 10.166362 1.5731413 11
13.00852 2.7437043 2.8532183 26
13.021132 45.252167 7.7396708 18
13.065791 45.236134 7.9475393 19
13.050032 42.14827 8.224926 20
13.014217 41.489101 10.032393 27
13.02717 42.570236 10.011306 26
13.034734 42.010616 10.302083 27
13.0007 41.225372 11.51323 26
13.007116 45.287502 11.507899 25
13.089245 44.636795 11.689133 26
13.068684 43.277855 11.723296 28
13.093536 44.817017 11.700737 26
13.075754 41.888706 11.835384 27
13.088591 44.566166 11.839301 27
13.087213 13.455679 15.228836 28
13.057201 45.351513 17.110451 28
13.030588 46.342346 18.438513 28
13.161094 4.3062782 -0.62774807 7
13.138161 4.4788136 -0.45683265 8
13.197865 8.3381453 -0.45588613 6
13.108862 4.7366433 -0.20559071 9
13.126029 7.2914348 -0.29047209 3
13.187107 0.69955903 -0.12382534 6
13.160042 3.93893 -0.18444471 10
13.181835 4.0981207 -0.058704067 6
13.154044 7.208508 -0.05170051 5
13.193172 4.055356 0.041193631 7
13.108925 4.8976703 0.22216766 12
13.134322 4.5063767 0.47547841 13
13.127172 7.2227612 0.405211 10.5
13.146107 4.7373285 0.54418641 14
13.173108 4.7775044 0.82816786 15
13.177132 1.2871795 1.5975063 28
13.145554 9.5112438 2.6412318 13
13.107247 35.23753 4.08219 9
13.108771 42.924988 6.2690859 12
13.167095 45.821842 7.871016 22
13.182922 45.925682 7.8483858 20
13.155697 44.184425 10.146668 27
13.171789 44.184879 10.246945 28
13.109409 43.349598 11.676618 28
13.176125 44.532303 11.79691 27
13.133925 45.131115 11.721858 25
13.191347 43.474041 11.835218 28
13.122578 11.88553 15.025444 28
13.125823 13.377307 15.14452 28
13.161384 14.876369 15.474314 29
13.110385 17.722626 15.667003 28
13.158921 17.056265 15.720484 29
13.293039 0.10435417 -1.4150678 4
13.26395 0.062272087 -1.2471689 5
13.281049 5.0375366 -0.95505983 5
13.236619 8.3630514 -0.63959634 5
13.204391 3.5893834 -0.37782884 9
13.254707 3.9318564 -0.20296207 5
13.278476 1.3494965 0.37720287 14.5
13.274916 3.4971528 0.35210654 13
13.263782 4.0563941 0.36333227 9
13.299216 3.4521337 0.54438478 14
13.209562 8.8739891 0.55280548 8
13.244925 1.6585847 0.64346611 6
13.210933 8.564456 0.72923583 9
13.270607 4.0065699 1.1966659 17
13.217797 9.2987556 1.1179118 10
13.266071 14.216272 1.1472222 9
13.258989 8.7091141 2.8986278 14
13.201057 39.524765 4.5683017 10
13.25363 30.330652 7.0552564 21
13.252236 46.907089 8.0889273 22
13.216774 46.050938 8.1257744 21
13.255547 46.862785 8.4352102 23
13.232501 45.390511 9.3827333 26
13.27762 46.816654 11.492095 25
13.298312 45.704025 12.046306 26
13.216121 19.188131 14.530717 28
13.230425 15.430556 15.362736 27
13.254418 14.444868 15.618149 29
13.358893 3.9873753 -0.9849214 5
13.362162 3.980994 -0.84727317 6
13.317565 6.0751648 -0.87560958 5
13.329783 5.0393276 -0.6681385 6
13.36413 6.1007938 -0.64668947 6
13.309826 3.4895725 -0.23454162 10
13.316632 3.8638055 -0.29204404 4
13.342861 4.9110789 -0.11443247 7.5
13.349997 5.753747 -0.10081404 7
13.364644 7.2729378 -0.135809 5
13.347094 3.8567421 -0.09032543 6
13.319832 3.5831456 0.033006236 11
13.336387 7.8670073 0.13400148 7
13.364397 5.820354 0.30109704 9
13.368716 28.096838 0.56753993 5
13.390624 5.3798175 1.0187536 11
13.339402 28.058821 1.3128339 6
13.393214 7.9405417 1.7755989 11
13.326302 1.3668782 1.8569732 28
13.366109 28.773741 1.8217609 7
13.307256 26.693966 2.1374941 8
13.311673 28.526119 2.3047993 8
13.359722 27.339714 2.8170099 9
13.345473 4.5591998 3.352674 26
13.315104 41.915497 4.8839135 10
13.312894 47.672245 7.7741208 20
13.341074 47.590839 8.1255741 21
13.376965 57.5453 9.8990421 16
13.343614 46.67524 10.520646 27
13.336507 46.418377 10.659176 28
13.328399 10.317017 13.347996 26
13.461006 12.286152 -0.10915097 4
13.459051 12.292233 0.048218429 5
13.405442 5.8859749 0.11545297 8
13.46616 5.3904729 1.220258 12
13.452957 1.5315864 2.1075664 24
13.447342 14.465873 2.4170485 12
13.487347 1.9723556 2.5201263 29
13.490987 3.8463898 3.3280108 26
13.474051 4.4854856 3.4439399 27
13.510251 5.5129609 -1.0868744 4
13.570937 5.3777409 0.71215856 10
13.558514 1.8135649 1.1520988 13
13.536863 6.0102606 1.2066619 10
13.592249 6.0673027 1.5435259 11
13.548979 1.720084 1.6367865 27
13.563074 5.3058386 1.6439025 13
13.538769 -0.39646184 1.8769741 26
13.562982 1.7817205 2.4532187 28
13.570666 6.4681659 2.4067056 13
13.595184 51.712414 8.650672 18.5
13.507853 48.231724 8.9194345 23
13.572308 49.595394 8.9087553 13
13.542214 30.729042 9.0361729 24
13.570022 54.637341 9.1991758 13
13.533395 30.608503 9.5261183 25
13.573014 49.290249 11.616629 27
13.551038 47.745132 11.971579 26
13.566589 49.998104 11.962385 27
13.575513 46.780571 12.462048 27
13.527223 18.900349 15.260026 29
13.542381 12.006697 15.327131 28
13.632022 1.4838506 -0.45313942 4
13.692475 7.4109769 -0.23198655 4
13.648506 5.6675916 0.66725242 13
13.678665 1.7176397 1.2487142 9
13.67608 2.0284944 1.7143883 28
13.636014 6.2317662 1.9077916 12
13.601494 4.2136307 3.4195063 27
13.601853 49.673828 9.9471664 24
13.605837 49.360252 11.399981 26
13.646812 49.010281 12.010814 26
13.634454 50.782196 12.276666 27
13.718576 7.552659 -0.32193938 6.5
13.713028 7.2800503 0.085703805 6
13.72889 7.2558351 0.21041822 9
13.742711 7.2475619 0.35286924 10.5
13.744314 5.3082213 0.69346213 13.5
13.702939 5.6472731 0.7635172 14
13.759354 1.7749031 1.4374466 27.5
13.744843 1.9010663 1.4806575 10
13.779774 1.7505226 1.5014035 12
13.759854 1.9874103 1.6437222 26.5
13.731104 1.9255757 2.7395108 13
13.745085 1.802123 2.8110542 14
13.714685 3.2095859 2.9622722 24
13.70157 50.983696 12.32497 26
13.798031 50.49033 12.654721 28
13.775968 33.001991 14.893226 27
13.834077 6.4487796 -1.0474064 3
13.834625 6.5826564 -0.81467944 4
13.867766 6.8519726 -0.61981612 5
13.896031 5.7109079 -0.58962858 6
13.875076 5.4572673 -0.058551766 7
13.806314 5.5349512 0.15716243 9
13.848753 7.2424545 0.13274017 6
13.87641 7.1640573 0.21528342 9
13.834611 1.7767161 0.98945522 8
13.837038 2.0109608 1.6805772 11
13.859671 2.137001 1.7130998 27
13.814895 5.5432539 2.2696373 13
13.887485 -6.7291188 9.12395 21
13.801428 50.64732 9.1637373 21
13.882457 -6.6856704 9.7946577 22
13.88451 36.160614 15.132563 27
13.891098 54.854214 15.558992 27
13.813927 79.720131 30.139763 21
13.912681 6.094667 -0.78384501 5
13.932785 5.9441977 -0.43030286 7
13.922653 5.6340032 -0.33696088 8
13.962292 1.7025483 -0.18371838 4
13.988391 7.2296667 0.17279351 7
13.906057 7.314611 0.52565521 8
13.910087 1.9518158 1.4398326 23
13.959192 -0.25943881 1.7449027 27
13.925206 45.563435 12.293671 27
13.952349 47.61578 12.509551 27
13.999289 38.660385 15.459687 28
14.036021 1.5656646 -0.45192641 4
14.023584 7.6819873 -0.34901667 6.5
14.053037 9.3378677 -0.38541341 4
14.052837 1.6109993 -0.23924643 6
14.000354 6.7348752 -0.19273163 8
14.059828 7.2524929 -0.044819146 5.75
14.053383 7.2194557 0.053888775 6
14.054341 7.5354357 0.074569531 9
14.069437 7.2503438 0.18118493 9
14.062534 8.6044407 0.65014404 11
14.096065 7.3586388 0.70221734 13
14.061168 6.2420707 0.89261127 15
14.064507 1.8020533 0.95413828 18
14.08826 6.7572808 0.95935422 15
14.00496 1.7374061 1.0127972 9
14.021529 1.7457741 1.3244405 10
14.099453 16.365042 4.3173018 16
14.047875 53.070877 11.976557 24
14.144147 7.8160768 -0.50777489 5
14.121297 1.6781433 -0.44107008 3.5
14.127313 0.42783669 -0.34709626 16
14.110898 7.2791152 -0.18369146 5
14.119761 7.2143316 -0.076290652 5
14.146271 1.3917409 0.057832655 9.5
14.177088 1.5687472 0.055610966 10
14.119795 7.9684377 0.068387322 8.5
14.113735 1.7232417 0.4360947 9
14.135015 3.1093621 0.57364726 6
14.163723 1.7363789 0.73435563 11
14.129541 8.5240583 0.71692747 12
14.140937 1.4553781 0.904172 8
14.147084 8.2901468 0.91764617 13
14.183174 9.0159359 1.1265815 13
14.139359 7.3741455 2.0871992 20.5
14.114861 3.638633 2.3803041 13
14.193178 5.2911754 2.8444705 24
14.118133 15.81025 3.4158764 14
14.154163 15.955308 4.0543237 15
14.151261 58.423252 7.844419 9
14.127124 54.633457 8.270318 13
14.19382 15.549034 8.6347876 24
14.147367 54.288429 9.0826559 14
14.108663 36.540619 15.211129 28
14.261426 9.7864456 -0.33524129 4
14.283789 9.7838678 -0.20678578 5
14.288918 3.0297959 0.069371663 5
14.248354 8.6701288 0.098409303 8
14.206991 8.6699667 0.19918115 9
14.212774 7.9279847 0.31169784 10
14.234142 9.378046 0.32381797 8.5
14.225272 7.8920169 0.43631965 11
14.299836 1.6198087 0.57099575 14
14.297606 8.6120872 0.73158258 12
14.292227 -0.17465833 1.7705693 28
14.22433 3.5430937 2.1909552 12
14.225515 10.478835 2.1162002 15
14.276085 3.3784237 2.7380095 26
14.29248 9.815629 3.0048921 20
14.252216 6.026072 3.2887464 26
14.297635 15.154279 5.2280502 19
14.262686 51.084454 7.5078526 13
14.205815 57.85038 8.3277006 10
14.298701 53.214581 9.6066341 15
14.236983 -6.615315 10.481175 23
14.237927 46.269936 11.157576 22
14.299673 32.393063 11.387676 26
14.23597 47.189884 11.356441 22
14.210234 51.903236 12.721451 26
14.208964 9.7318792 14.780503 28
14.234814 32.939762 14.91796 28
14.253544 -6.7236352 16.974564 27
14.269353 79.203514 20.713449 14
14.368705 1.6946207 -0.43818244 3
14.358541 1.7072587 -0.40378845 4
14.339665 11.991497 -0.17176004 5
14.314181 1.4618686 0.22730556 10.5
14.319167 9.3877516 0.52314365 10
14.343095 9.7646866 0.63261771 10
14.392399 12.308563 0.72417247 9
14.316445 9.2553387 1.062171 13
14.333115 8.3528137 1.1837395 15
14.370041 8.9284019 1.213519 14
14.3902 8.0041733 1.3530244 16
14.340447 1.9886259 1.5259737 27.5
14.359394 9.5982132 3.1705279 21
14.316941 10.26764 3.2353046 20
14.373428 10.153333 3.346915 21
14.315705 7.1049671 3.5272593 26
14.355842 7.1723919 3.6638017 27
14.387558 48.214867 6.6917019 13
14.374962 48.173969 6.9809685 14
