# .PCD v0.7 - Point Cloud Data file format
VERSION 0.7
FIELDS x y z intensity roll pitch yaw time
SIZE 4 4 4 4 4 4 4 8
TYPE F F F F F F F F
COUNT 1 1 1 1 1 1 1 1
WIDTH 47
HEIGHT 1
VIEWPOINT 0 0 0 1 0 0 0
POINTS 47
DATA ascii
2.454116e-18 -2.9701667e-17 -2.2479108e-16 0 1.3267949e-06 1.3267949e-06 0.00019934605 6.2574313e-310
2.9520795 -0.1935304 -0.10594827 1 0.029738672 0.017164407 -0.00042351082 6.2574313e-310
4.5174308 0.31599277 -0.13681038 2 0.041697528 0.020032845 0.30987808 6.2574313e-310
7.0804319 0.88919652 -0.20712249 3 0.011992087 0.032272469 0.3070541 6.2574313e-310
10.137967 2.0734646 -0.3165834 4 0.02063245 0.043964446 0.34397212 6.2574313e-310
11.733765 2.5766447 -0.34615293 5 0.011385033 0.037994843 0.25769696 6.2574313e-310
13.197049 3.5076613 -0.39105216 6 0.018218758 0.0082318615 0.65748018 6.2574313e-310
14.182161 4.5211735 -0.41905159 7 0.033732802 -0.016249062 0.64336854 6.2574313e-310
16.595516 5.6003566 -0.50973094 8 0.028484628 0.029550755 0.31931713 6.2574313e-310
18.101843 8.190835 -0.50779462 9 0.0072752717 -0.053401586 1.4314433 6.2574313e-310
18.241062 9.0419731 -0.46244919 10 0.010828323 -0.065899491 1.3745499 6.2574313e-310
19.076147 17.091724 -0.44622466 11 0.0062881131 -0.092376389 1.4450505 6.2574313e-310
19.067495 20.819168 -0.1609742 12 0.0020948942 -0.085256115 1.5032443 6.2574313e-310
19.099422 22.330189 -0.077569023 13 0.0038317335 -0.12191741 1.4763607 6.2574313e-310
19.433048 28.672579 0.36723286 14 0.0088155996 -0.11951552 1.3784035 6.2574313e-310
19.070963 30.428949 0.59806597 15 -0.0017520802 -0.12045182 1.7016162 6.2574313e-310
19.499355 32.617207 0.78168291 16 0.017363874 -0.12483724 1.2731674 6.2574313e-310
19.851072 35.766491 1.111799 17 0.0054035056 -0.14613736 1.468331 6.2574313e-310
19.919233 38.469898 1.3477442 18 0.00030523169 -0.11815611 1.5627915 6.2574313e-310
19.946623 39.214931 1.4763941 19 0.0026649577 -0.14596853 1.5087482 6.2574313e-310
20.625334 44.833218 2.0705259 20 0.0066109914 -0.13443123 1.3938165 6.2574313e-310
21.22578 47.052708 2.3053865 21 0.022788389 -0.15960115 1.2690965 6.2574313e-310
22.845697 48.151272 2.2458358 22 0.051654603 0.11304934 -0.39949116 6.2574313e-310
24.135363 46.922611 1.9865278 23 0.097584657 0.076110058 -0.26357055 6.2574313e-310
25.294275 45.951645 1.9433373 24 0.13026671 0.091806389 -0.34793034 6.2574313e-310
26.807562 45.394989 1.8407195 25 0.10101308 0.093471341 -0.38696611 6.2574313e-310
26.281435 43.313435 1.5984917 26 0.107181 -0.032963231 -2.5770342 6.2574313e-310
27.023771 43.750057 1.6704292 27 0.09541887 0.014416319 -2.588861 6.2574313e-310
27.617096 44.205944 1.7310052 28 0.0024305319 0.086589344 -1.6771182 6.2574313e-310
27.519224 41.921364 1.4632578 29 0.013837332 0.17059313 -1.3095815 6.2574313e-310
28.223356 35.986149 0.82957363 30 7.833384e-05 0.13505004 -1.5674951 6.2574313e-310
28.044992 31.637806 0.30199662 31 -0.0027360863 0.14828983 -1.7132319 6.2574313e-310
27.959385 27.04282 -0.11112673 32 -0.00050754478 0.16453791 -1.6095204 6.2574313e-310
28.025646 23.882133 -0.55674684 33 4.0773564e-05 0.15827483 -1.6631626 6.2574313e-310
27.795435 21.408461 -0.86132276 34 -0.00078051933 0.13454866 -1.6228199 6.2574313e-310
27.802935 20.990795 -0.94624168 35 1.3129293e-05 0.13921407 -1.6320838 6.2574313e-310
27.28466 18.102802 -1.2763005 36 0.0066729225 0.099372923 -1.8100601 6.2574313e-310
24.162865 12.302124 -1.6282885 37 0.062003303 -0.033869542 -2.2255702 6.2574313e-310
21.379078 8.7245417 -1.6065841 38 0.084647007 -0.059953552 -2.425236 6.2574313e-310
17.782825 6.2587962 -1.3278735 39 0.12793565 -0.080347918 -2.4907954 6.2574313e-310
17.737165 6.2777085 -1.3079194 40 0.12417087 -0.075108424 -2.5043592 6.2574313e-310
14.304821 3.5958562 -1.3708469 41 0.13348587 -0.077741474 -2.6264777 6.2574313e-310
8.7662821 1.1312864 -1.0354058 42 0.12306592 -0.074870408 -2.7675333 6.2574313e-310
3.1376655 -0.22029455 -0.17850052 43 0.022231679 -0.027794363 -2.8147864 6.2574313e-310
-0.084226027 -0.86085075 -0.095646106 44 0.024738327 -0.060511585 -3.0021229 6.2574313e-310
-0.91454023 -0.96364528 -0.013443848 45 0.012537644 -0.048722982 -3.0477824 6.2574313e-310
-0.89780486 -0.95140731 -0.012589367 46 0.0094211251 -0.04965103 -3.0609787 6.2574313e-310
