# .PCD v0.7 - Point Cloud Data file format
VERSION 0.7
FIELDS x y z intensity
SIZE 4 4 4 4
TYPE F F F F
COUNT 1 1 1 1
WIDTH 1187
HEIGHT 1
VIEWPOINT 0 0 0 1 0 0 0
POINTS 1187
DATA ascii
0.2 -3.1059999 -0.138 0
0.18954137 -3.0580661 -0.17074254 0
0.24482833 -3.0365171 -0.17488968 0
0.19343674 -2.9454989 -0.16067302 0
0.25717863 -2.9608607 -0.17230134 0
0.1868 -2.8571665 -0.17666666 0
0.23929287 -2.8517201 -0.17443378 0
0.1728 -2.7449999 -0.178 0
0.2318 -2.7248666 -0.17466666 0
0.17954999 -2.6951499 -0.176 0
0.17513335 -2.5692332 -0.17733334 0
0.23370001 -2.59445 -0.17299999 0
0.16501667 -2.4208834 -0.17733334 0
0.22140001 -2.4579 -0.17299999 0
0.20910001 -2.3213499 -0.17299999 0
0.1549 -2.2725332 -0.17733334 0
0.15778749 -2.1393375 -0.17625 0
0.18450001 -2.04825 -0.17299999 0
-1.139037 -1.9184588 -0.11491803 0
-1.0445869 -1.9220951 -0.11708361 0
0.14405 -1.9598 -0.17625 0
-1.1483148 -1.8681583 -0.11418425 0
-1.065511 -1.8472991 -0.11645564 0
0.12454999 -1.8274832 -0.17733334 0
-1.1157048 -1.7471747 -0.10846712 0
-1.0414066 -1.7561983 -0.1220471 0
-0.97661591 -1.7524289 -0.13011521 0
0.13665 -1.7386749 -0.17449999 0
0.24154915 -1.7340405 -0.10663222 0
-1.0413276 -1.6606485 -0.1227201 0
-0.96099287 -1.6468642 -0.13399999 0
0.12583332 -1.6579332 -0.17633332 0
0.235 -1.6619999 -0.114 0
-1.0392483 -1.5751634 -0.12051106 0
-0.95767498 -1.5533998 -0.13187501 0
-0.86489999 -1.5651 -0.134 0
0.095999986 -1.5249997 -0.178 0
0.11741666 -1.5231332 -0.17566667 0
0.22325 -1.5789 -0.114 0
-0.94714999 -1.4354501 -0.13 0
-0.8515715 -1.4551356 -0.13357143 0
0.094499983 -1.4184998 -0.176 0
0.19975001 -1.4126999 -0.114 0
0.2115 -1.4957999 -0.114 0
1.513 -1.451 -0.109 0
-0.8547166 -1.3633667 -0.13166666 0
-0.75858754 -1.3386624 -0.134 0
0.086399987 -1.3724997 -0.178 0
0.13756666 -1.3504666 -0.155 0
1.3617001 -1.3059 -0.109 0
1.4581749 -1.349725 -0.12900001 0
-0.84744996 -1.28435 -0.13 0
-0.75777501 -1.2469834 -0.13283335 0
-0.67270005 -1.2172999 -0.134 0
0.084083319 -1.2340831 -0.17733334 0
0.143475 -1.2377249 -0.1435 0
1.1816746 -1.2149639 -0.15414214 0
1.275509 -1.2443199 -0.12826331 0
1.3486433 -1.2539145 -0.14674616 0
1.4132485 -1.2826526 -0.15074041 0
-0.74325001 -1.165875 -0.13049999 0
-0.66981 -1.1411098 -0.13340001 0
0.075599983 -1.1347997 -0.176 0
0.1645 -1.1633999 -0.114 0
1.099 -1.123 -0.156 0
1.1575174 -1.1534464 -0.15527503 0
1.2492678 -1.1654532 -0.14676882 0
1.9577484 -1.1288629 -0.14413029 0
-0.64553994 -1.0612199 -0.13259999 0
-0.57659996 -1.0433999 -0.134 0
0.081566647 -1.0715996 -0.17633332 0
0.15274999 -1.0802999 -0.114 0
0.98909998 -1.0107 -0.156 0
1.070825 -1.0367416 -0.14749999 0
1.1517103 -1.061824 -0.14601216 0
1.2489371 -1.0845333 -0.15173757 0
1.6252104 -1.0116509 -0.13819718 0
1.7302871 -1.036422 -0.13845454 0
1.8554764 -1.0698372 -0.13574736 0
-0.64804995 -0.98214996 -0.13 0
-0.56550002 -0.95160621 -0.13312501 0
0.069412477 -0.94199967 -0.17625 0
0.13512498 -0.95564985 -0.114 0
0.96017998 -0.93735999 -0.14660001 0
1.05208 -0.95753002 -0.1522 0
1.1324999 -0.98549998 -0.1525 0
1.4696313 -0.91495287 -0.12459157 0
1.5554039 -0.94054562 -0.12772843 0
1.6600484 -0.95535821 -0.13417159 0
2.1956503 -0.90434003 -0.13645726 0
2.2562194 -0.91514105 -0.13683207 0
-1.0436633 -0.85332322 -0.11532997 0
-0.99766326 -0.81432319 -0.11882997 0
-0.54229993 -0.86588329 -0.13166666 0
-0.48349994 -0.83462489 -0.134 0
0.065249979 -0.83519965 -0.17449999 0
0.11749998 -0.83099985 -0.114 0
0.8672899 -0.84975004 -0.15480001 0
0.94315994 -0.86142999 -0.14359999 0
1.0192499 -0.88695002 -0.1525 0
1.3635193 -0.8223753 -0.14813937 0
1.4668665 -0.84109348 -0.14865775 0
1.5449209 -0.8557353 -0.14713579 0
1.9618251 -0.80817002 -0.14022863 0
2.0592184 -0.82515848 -0.13961112 0
2.1543477 -0.86094165 -0.13807581 0
2.2360001 -0.86000001 -0.13699999 0
-1.317 -0.72000003 -0.113 0
-0.94006664 -0.76601666 -0.122 0
-0.86039996 -0.70109999 -0.122 0
-0.45354989 -0.75403559 -0.13257143 0
0.050583307 -0.74174958 -0.17733334 0
0.10574998 -0.74789983 -0.114 0
0.75614166 -0.73817492 -0.14716667 0
0.84099287 -0.77327138 -0.14685714 0
0.92080003 -0.78799999 -0.153 0
1.19402 -0.71800005 -0.14979999 0
1.2672602 -0.74132228 -0.14848924 0
1.3480891 -0.75547445 -0.14930296 0
1.4489582 -0.7752946 -0.1492638 0
1.6424681 -0.73054439 -0.13889162 0
1.7462311 -0.74124891 -0.13945079 0
1.8477207 -0.75287014 -0.14074659 0
1.9473931 -0.73494375 -0.14225926 0
2.0385063 -0.73845416 -0.13985896 0
2.1470726 -0.75315642 -0.1380868 0
2.2503071 -0.76569742 -0.13695334 0
2.302 -0.74299997 -0.138 0
-1.2482605 -0.68263364 -0.1069867 0
-1.152375 -0.63 -0.113 0
-0.81259996 -0.66214997 -0.122 0
-0.76479995 -0.6232 -0.122 0
-0.44864994 -0.67994988 -0.13 0
-0.38233566 -0.64614981 -0.133 0
0.059774976 -0.64008725 -0.16075 0
0.6562714 -0.64167136 -0.14871429 0
0.73836005 -0.66363001 -0.15220001 0
0.8057 -0.68949997 -0.153 0
1.0553 -0.62814999 -0.149 0
1.1516166 -0.65351671 -0.14933333 0
1.2405937 -0.66974443 -0.15002993 0
1.3422352 -0.64304268 -0.11439999 0
1.4663829 -0.64209759 -0.13369878 0
1.5600908 -0.64796269 -0.14487609 0
1.6660761 -0.66142017 -0.14488119 0
1.7471539 -0.63711321 -0.14475051 0
1.8537865 -0.6505053 -0.14330591 0
1.9671091 -0.6642645 -0.14268751 0
2.0434358 -0.66239136 -0.14108339 0
2.1255445 -0.68798918 -0.14010423 0
-1.0536001 -0.57600003 -0.113 0
-0.95482504 -0.52200001 -0.113 0
-0.71700001 -0.58424997 -0.122 0
-0.64529997 -0.52582502 -0.122 0
-0.3422299 -0.56328982 -0.13259999 0
-0.28829992 -0.52169979 -0.134 0
0.056416642 -0.56509966 -0.15433332 0
0.49454993 -0.50534993 -0.156 0
0.54619163 -0.53044158 -0.14749999 0
0.63259995 -0.56952137 -0.14614286 0
0.87528992 -0.52105999 -0.149 0
0.95478117 -0.54701877 -0.14924999 0
1.0506167 -0.55855554 -0.14022224 0
1.1559583 -0.53385836 -0.13516666 0
1.246585 -0.54989505 -0.13229999 0
1.3413978 -0.54766166 -0.14846802 0
1.4551774 -0.55507666 -0.14745444 0
1.5544776 -0.55557352 -0.14725961 0
1.6543361 -0.55691922 -0.14559598 0
1.7381493 -0.56181097 -0.14462495 0
1.8683952 -0.58080912 -0.14241567 0
-0.85605001 -0.46799999 -0.113 0
-0.7902 -0.43199998 -0.113 0
-0.5496999 -0.44792497 -0.122 0
-0.27041095 -0.45370537 -0.13322224 0
0.042866636 -0.44314966 -0.15550001 0
0.45554161 -0.43764994 -0.14650001 0
0.53078991 -0.46916994 -0.1524 0
0.68119979 -0.42399991 -0.145 0
0.75959003 -0.43855 -0.1496 0
0.85582501 -0.4544875 -0.13887499 0
0.95239162 -0.43545833 -0.1355 0
1.0371937 -0.4472875 -0.138625 0
1.1543461 -0.44648078 -0.14899999 0
1.2568183 -0.45026174 -0.14911316 0
1.3504027 -0.45363235 -0.1486467 0
1.439842 -0.46157739 -0.14786126 0
1.5451641 -0.4541392 -0.14752178 0
1.6593504 -0.44404903 -0.14415361 0
1.705 -0.428 -0.14399999 0
1.8274511 -0.40924379 -0.14559187 0
1.904 -0.42699999 -0.145 0
-0.72434998 -0.39599997 -0.113 0
-0.65849996 -0.35999998 -0.113 0
-0.59264994 -0.32399997 -0.113 0
-0.45409992 -0.37002492 -0.122 0
-0.38239992 -0.31159994 -0.122 0
-0.24774989 -0.38862479 -0.13049999 0
-0.19499987 -0.3261998 -0.13283335 0
0.02959997 -0.31293294 -0.15666667 0
0.36296099 -0.34719992 -0.14877778 0
0.42766243 -0.38251242 -0.154 0
0.57083321 -0.33526102 -0.14899999 0
0.65807492 -0.34872997 -0.14129999 0
0.74408633 -0.34270909 -0.14163636 0
0.85191 -0.34470999 -0.14313334 0
0.95464993 -0.35658333 -0.14891668 0
1.0505643 -0.35068217 -0.1495 0
1.1586417 -0.34918332 -0.14908333 0
1.2491724 -0.35906547 -0.14931694 0
1.3468355 -0.34180397 -0.14842309 0
1.4378401 -0.36362463 -0.14796065 0
1.5492517 -0.35007539 -0.14742105 0
1.6670383 -0.35109505 -0.14530934 0
1.7355975 -0.3659631 -0.14475575 0
1.8298916 -0.30343464 -0.14477827 0
1.9268072 -0.31677166 -0.14411141 0
-0.52679992 -0.28799996 -0.113 0
-0.4609499 -0.25199994 -0.113 0
-0.3648499 -0.24432495 -0.1175 0
-0.28679991 -0.23369992 -0.122 0
-0.14624985 -0.24464975 -0.13283333 0
0.026249969 -0.26869965 -0.15433334 0
0.25464532 -0.24167714 -0.14999999 0
0.35204983 -0.24517488 -0.14475 0
0.45452133 -0.24654636 -0.14364286 0
0.55204695 -0.24486172 -0.14394118 0
0.65385497 -0.24726744 -0.1451 0
0.75877851 -0.24802494 -0.14914285 0
0.84414995 -0.25136334 -0.14919999 0
0.95200998 -0.25178999 -0.14886667 0
1.046411 -0.24913889 -0.14844446 0
1.1450167 -0.25326112 -0.14822222 0
1.251295 -0.248155 -0.14770001 0
1.3387667 -0.24483334 -0.14755554 0
1.4416888 -0.25836864 -0.14698011 0
1.5467147 -0.24471912 -0.14694932 0
1.6582954 -0.24697764 -0.1446846 0
1.7496462 -0.26298183 -0.14479172 0
1.8568869 -0.21517332 -0.14520471 0
1.9368043 -0.22198333 -0.14400294 0
-0.32924986 -0.17999995 -0.113 0
-0.25119987 -0.16937491 -0.1175 0
-0.17738317 -0.12688322 -0.119 0
-0.097499847 -0.16309977 -0.13283335 0
0.013229966 -0.1495595 -0.16380002 0
0.15773106 -0.12893422 -0.14962499 0
0.26387233 -0.1409024 -0.14524999 0
0.35257486 -0.13993496 -0.14653333 0
0.45001394 -0.15330195 -0.14563999 0
0.54014748 -0.15489283 -0.14885715 0
0.64484036 -0.15162142 -0.14838096 0
0.75011414 -0.1490214 -0.14785714 0
0.84206355 -0.14690909 -0.14772727 0
0.94254088 -0.15132727 -0.14790908 0
1.0502334 -0.14859582 -0.14716665 0
1.1438857 -0.15316428 -0.14742856 0
1.2365949 -0.14649501 -0.1476 0
1.3494151 -0.14407501 -0.1476 0
1.4545261 -0.14690253 -0.14725132 0
1.5393361 -0.14906023 -0.14713509 0
1.6490804 -0.16515914 -0.14524344 0
1.7351834 -0.15061954 -0.1446892 0
1.8569267 -0.18627322 -0.14426619 0
-0.1316998 -0.071999907 -0.113 0
-0.055749826 -0.07134977 -0.12822223 0
0.066686809 -0.02511658 -0.14612962 0
0.15119594 -0.044524569 -0.14759997 0
0.23817727 -0.048742454 -0.14597499 0
0.34325096 -0.049476113 -0.14797723 0
0.45170698 -0.049949981 -0.14761904 0
0.54482484 -0.042134993 -0.14755002 0
0.64583391 -0.052581813 -0.14768182 0
0.7570821 -0.041799996 -0.14771427 0
0.84465832 -0.044391662 -0.14749999 0
0.94905281 -0.049849994 -0.14758822 0
1.0514666 -0.049877778 -0.14777778 0
1.1487709 -0.042495832 -0.14766666 0
1.2526051 -0.050545 -0.1478 0
1.3382922 -0.038972545 -0.14765927 0
1.4526603 -0.039929543 -0.14717153 0
1.5503762 -0.051646046 -0.14731994 0
1.6566387 -0.051648617 -0.14545621 0
1.7315108 -0.052333754 -0.14573485 0
1.8455477 -0.042511672 -0.14471313 0
1.913 -0.1 -0.146 0
-0.12803315 0.088649847 -0.14783333 0
-0.055797804 0.057029814 -0.14984003 0
0.017540278 0.0089697773 -0.15008213 0
0.15381296 0.034629777 -0.1486316 0
0.25203043 0.049233638 -0.1480204 0
0.35204977 0.048885684 -0.14823811 0
0.45100749 0.053365365 -0.14719231 0
0.55387658 0.053063326 -0.1481 0
0.65647215 0.046586104 -0.14766666 0
0.75286049 0.052507885 -0.148 0
0.84873569 0.056192849 -0.14771429 0
0.95244175 0.052424997 -0.14788888 0
1.0548151 0.056894999 -0.1477 0
1.1481614 0.054903846 -0.14792308 0
1.2499723 0.047572222 -0.14833333 0
1.3446167 0.052407786 -0.14790227 0
1.4524531 0.051548272 -0.1474441 0
1.5459036 0.052720971 -0.14737123 0
1.6544548 0.061814196 -0.14491513 0
1.736394 0.06140703 -0.14480102 0
1.8462757 0.058329623 -0.14419667 0
1.9279857 0.077122748 -0.1426091 0
2.0298214 0.069844902 -0.14140856 0
2.1453993 0.070681117 -0.13987412 0
2.2533245 0.079400375 -0.13869868 0
2.3426285 0.083467096 -0.13764846 0
2.4673162 0.072752096 -0.13524911 0
2.5571055 0.075596109 -0.13403024 0
2.6329999 0.078000002 -0.133 0
-0.34049988 0.19774991 -0.149 0
-0.23853596 0.16253321 -0.15038888 0
-0.15090221 0.14675933 -0.146 0
-0.058424927 0.15867478 -0.17 0
0.070845716 0.15111643 -0.15666668 0
0.15240984 0.13950984 -0.1592 0
0.25568554 0.16094275 -0.15057144 0
0.35471654 0.11948746 -0.149 0
0.44740987 0.14024745 -0.14865002 0
0.54751879 0.14602238 -0.1483793 0
0.65171158 0.1496588 -0.14799999 0
0.74777097 0.15252104 -0.14805263 0
0.85132635 0.14944705 -0.14729412 0
0.95536667 0.14925 -0.148 0
1.049075 0.15687999 -0.14770001 0
1.1495233 0.14549999 -0.14826666 0
1.2467055 0.14651111 -0.14766666 0
1.3330944 0.15219362 -0.14775655 0
1.4611205 0.14349672 -0.1465635 0
1.5582815 0.14681654 -0.1454895 0
1.651863 0.15874097 -0.1437702 0
1.7474287 0.15005581 -0.14416248 0
1.8518088 0.15387566 -0.14424984 0
1.9555652 0.15413818 -0.14232861 0
2.0525842 0.15283188 -0.14121655 0
2.1514957 0.15687972 -0.14057729 0
2.2492115 0.14931495 -0.13964064 0
2.3591022 0.14556722 -0.13852425 0
2.4739885 0.15277909 -0.13699858 0
2.5535743 0.14719242 -0.13129693 0
2.6507945 0.14196995 -0.11369699 0
2.7185242 0.14366488 -0.11892283 0
2.8072865 0.14799732 -0.10888425 0
-0.43429536 0.27684996 -0.15409091 0
-0.3408905 0.24716549 -0.14750001 0
-0.2422332 0.24756235 -0.14874999 0
-0.15619987 0.24826652 -0.14133334 0
-0.08763741 0.23801225 -0.17 0
0.087562419 0.2157748 -0.15825 0
0.13339631 0.25339264 -0.16271429 0
0.24160816 0.23375817 -0.16250001 0
0.33997679 0.25677681 -0.15153846 0
0.48964989 0.20684996 -0.15000001 0
0.56099987 0.22119994 -0.149 0
0.65757078 0.22929581 -0.14925002 0
0.75408655 0.24708997 -0.14886667 0
0.85249114 0.24716765 -0.14876473 0
0.94343179 0.24887727 -0.14854546 0
1.0492411 0.2500765 -0.14788234 0
1.1481665 0.25157773 -0.14733332 0
1.2494924 0.25312692 -0.14753845 0
1.3537002 0.24187568 -0.14732487 0
1.4640312 0.24813941 -0.14679092 0
1.5534064 0.24830435 -0.14611405 0
1.6532618 0.2561698 -0.14512756 0
1.7443508 0.23703034 -0.14381619 0
1.8395995 0.253021 -0.14332151 0
1.9336988 0.26062986 -0.14214803 0
2.0377369 0.24774618 -0.14074792 0
2.142818 0.26352805 -0.1401982 0
2.2532642 0.23902956 -0.13868384 0
2.3612504 0.25426584 -0.13756269 0
2.458869 0.2530511 -0.13651404 0
2.65797 0.20442469 -0.11924548 0
2.7479548 0.21063705 -0.11086822 0
2.8379397 0.2168494 -0.10249096 0
-0.62767488 0.37506247 -0.15674999 0
-0.54733455 0.36204991 -0.15092307 0
-0.45201865 0.33964992 -0.149625 0
-0.35271654 0.3561832 -0.14955555 0
-0.27870822 0.3369582 -0.13333334 0
-0.13124159 0.35039148 -0.17 0
0.16384634 0.35153195 -0.15664287 0
0.24639988 0.36570984 -0.18259999 0
0.3743999 0.30669987 -0.15266667 0
0.44748989 0.34317991 -0.15180001 0
0.51599985 0.3727999 -0.15066667 0
0.76944995 0.32505 -0.15000001 0
0.84566665 0.32409999 -0.14866666 0
0.95026505 0.33823997 -0.1488 0
1.0581423 0.34453842 -0.14923076 0
1.1562898 0.35039502 -0.14930001 0
1.2537751 0.3485437 -0.14887498 0
1.3520101 0.3502427 -0.14770058 0
1.4488416 0.35297728 -0.14715086 0
1.5390922 0.35194752 -0.14597617 0
1.6339878 0.35338157 -0.14522094 0
1.7505223 0.34745219 -0.14296283 0
1.8562516 0.35917434 -0.14245254 0
1.9513364 0.33956683 -0.14128852 0
2.0464952 0.34208775 -0.14029421 0
2.1536784 0.34162363 -0.13984197 0
2.2555099 0.35737392 -0.13845831 0
2.3711629 0.37122846 -0.13688485 0
2.4534352 0.34563899 -0.13680592 0
-0.81389993 0.48479998 -0.16249999 0
-0.73291427 0.46608567 -0.14999999 0
-0.65210825 0.44332907 -0.15383334 0
-0.55049998 0.45783326 -0.13966666 0
-0.45415446 0.44934988 -0.15299998 0
-0.36533323 0.45044985 -0.12900001 0
-0.16787493 0.45312482 -0.17 0
0.17828327 0.45028314 -0.1585 0
0.24023116 0.45806861 -0.15525001 0
0.32579985 0.44809988 -0.18633334 0
0.49319988 0.4059999 -0.154 0
0.55281812 0.42973626 -0.15209091 0
0.63529998 0.46899995 -0.15120001 0
0.71334994 0.48949996 -0.15000001 0
0.97930002 0.41370001 -0.15000001 0
1.04925 0.44325 -0.15000001 0
1.15693 0.42943001 -0.14860001 0
1.2488929 0.43894765 -0.14838079 0
1.3463883 0.44853297 -0.14855544 0
1.4490836 0.44801742 -0.14797817 0
1.5571977 0.45412514 -0.14387493 0
1.6419697 0.42852598 -0.14410266 0
1.7671318 0.44976032 -0.14296702 0
1.854434 0.45333168 -0.14273003 0
1.9555122 0.44489479 -0.14145337 0
2.0600674 0.44659686 -0.13977998 0
2.1501887 0.44867259 -0.13900582 0
2.2437117 0.45978123 -0.13741896 0
2.341934 0.45279127 -0.13708732 0
2.448164 0.46036148 -0.13820356 0
2.538089 0.41061687 -0.13474533 0
2.6029999 0.42199999 -0.134 0
-1.2238103 0.56501192 -0.10468978 0
-1.1462482 0.52960956 -0.10175183 0
-1.0215 0.59325004 -0.149 0
-0.93422002 0.57973999 -0.1524 0
-0.84716356 0.55256361 -0.15072727 0
-0.75965708 0.53036422 -0.15671429 0
-0.63880998 0.57844996 -0.12979999 0
-0.54727137 0.54007137 -0.15028572 0
-0.44544992 0.55121994 -0.125 0
-0.21688329 0.54848319 -0.17 0
-0.18504995 0.53799981 -0.17 0
0.18934995 0.50889987 -0.15899999 0
0.25160494 0.55437487 -0.15760002 0
0.34330821 0.54195815 -0.17 0
0.4395999 0.58539987 -0.18099999 0
0.66079998 0.53173745 -0.1525 0
0.7506125 0.55517501 -0.15087502 0
0.84305 0.57849997 -0.15000001 0
1.1891501 0.50235003 -0.15000001 0
1.2591001 0.53190005 -0.15000001 0
1.3756834 0.58115005 -0.15000001 0
1.4434909 0.51519775 -0.14596188 0
1.5326971 0.535918 -0.14321885 0
1.6268409 0.53225094 -0.13528794 0
1.8492053 0.50536168 -0.14190698 0
1.9352736 0.5283156 -0.14120932 0
2.0447075 0.53871363 -0.13973024 0
2.1366611 0.54525423 -0.13937205 0
2.235543 0.55459356 -0.13849851 0
2.3376644 0.5373131 -0.13722485 0
2.4323771 0.53530258 -0.13521756 0
2.5109999 0.52499998 -0.133 0
-1.3326862 0.61470711 -0.10881387 0
-1.1439916 0.67659187 -0.13228281 0
-1.0511168 0.65214545 -0.14262825 0
-0.95971817 0.65092993 -0.14472246 0
-0.86787498 0.63516247 -0.16875 0
-0.7631833 0.66778332 -0.112 0
-0.66379994 0.64803994 -0.15980001 0
-0.5597285 0.64676422 -0.14128573 0
-0.49129993 0.62374997 -0.127 0
-0.24300827 0.64789152 -0.17 0
0.25411662 0.64534158 -0.15799999 0
0.34374368 0.65457493 -0.15525001 0
0.46023321 0.66304988 -0.19566667 0
0.50939989 0.64889991 -0.169 0
0.75753748 0.61286247 -0.15324999 0
0.84280002 0.65534443 -0.15222222 0
0.92722499 0.65799999 -0.15000001 0
1.0132518 0.69188297 -0.10237084 0
1.4633716 0.62207597 -0.13945638 0
1.5599291 0.66868991 -0.12364094 0
2.1803422 0.60461432 -0.13842313 0
2.2795475 0.62013125 -0.13841863 0
2.3588119 0.62384212 -0.13736261 0
2.4194589 0.63997155 -0.13654554 0
-1.362 0.79100001 -0.149 0
-1.2486895 0.76052362 -0.14709893 0
-1.1476799 0.7462526 -0.13606429 0
-1.0647374 0.74748099 -0.14123863 0
-0.94774997 0.76372498 -0.1435 0
-0.82834995 0.74252498 -0.12924999 0
-0.75346279 0.75504375 -0.15678321 0
-0.65897852 0.74764985 -0.14785716 0
-0.57814997 0.77112502 -0.105 0
-0.30699998 0.76599985 -0.17 0
-0.26743329 0.7414332 -0.17 0
0.28256997 0.75311995 -0.1586 0
0.36739996 0.74876237 -0.15725002 0
0.41974995 0.76768321 -0.15366666 0
0.54299992 0.74683332 -0.18633334 0
0.6225999 0.79309994 -0.169 0
0.87360001 0.71563339 -0.15266667 0
0.95796323 0.75191993 -0.14698333 0
1.0381987 0.75578266 -0.1293212 0
1.119442 0.78073049 -0.14239514 0
1.5661986 0.76407897 -0.10125931 0
1.631 0.70300001 -0.112 0
-1.3322499 0.84650004 -0.15075 0
-1.2470286 0.84943348 -0.14186826 0
-1.1612908 0.84192586 -0.14817612 0
-1.0114453 0.88757378 -0.11053719 0
-0.93258983 0.85118496 -0.1272877 0
-0.83984029 0.84752196 -0.15843189 0
-0.74689996 0.85264993 -0.14850001 0
-0.65636665 0.8474167 -0.11966667 0
-0.32708746 0.84266239 -0.17 0
-0.26639995 0.82439983 -0.17 0
0.33717996 0.84811002 -0.1582 0
0.44643569 0.85433567 -0.15542856 0
0.58464992 0.83572495 -0.19499999 0
0.65939993 0.87809998 -0.18099999 0
0.98640001 0.81199998 -0.154 0
1.0531586 0.83997726 -0.14061217 0
1.1471119 0.84939599 -0.14449112 0
1.2510962 0.87319112 -0.14664602 0
1.646 0.80299997 -0.105 0
-1.3489006 0.96139967 -0.15120643 0
-1.2765552 0.92918587 -0.15091886 0
-1.0487827 0.95663261 -0.12860104 0
-0.94992417 0.95487595 -0.14935832 0
-0.85040921 0.93866128 -0.13443643 0
-0.75136 0.95888996 -0.123 0
-0.36653 0.95126992 -0.17 0
-0.29599997 0.91599989 -0.17 0
0.36180833 0.95389158 -0.1585 0
0.47847143 0.93463564 -0.15657142 0
0.5329833 0.97423333 -0.15366668 0
0.66444993 0.94882494 -0.19499999 0
0.73579991 0.93729997 -0.169 0
1.1516201 0.94104826 -0.14610857 0
1.2531676 0.93956959 -0.14959915 0
-1.3710001 1.016 -0.155 0
-1.1081288 1.0494978 -0.13936344 0
-1.0465152 1.0586793 -0.15917711 0
-0.95814192 1.053329 -0.13554986 0
-0.86929995 1.0420167 -0.14966667 0
-0.79696083 1.0584221 -0.10239616 0
-0.41824996 1.0538499 -0.17 0
-0.35526666 1.0531999 -0.17 0
0.38102502 1.0371749 -0.1585 0
0.43062502 1.0597999 -0.15825 0
0.5399071 1.0544499 -0.15657142 0
0.65299994 1.0337999 -0.1735 0
0.7594744 1.0480223 -0.1669375 0
0.83770132 1.0651211 -0.12730838 0
1.2510455 1.0324605 -0.15019247 0
1.341538 1.0501173 -0.15209329 0
-1.224 1.1684999 -0.1565 0
-1.1418341 1.1269866 -0.15675604 0
-1.0295516 1.1453953 -0.14706908 0
-0.94636619 1.133673 -0.1304042 0
-0.44338751 1.1423625 -0.17 0
-0.38479999 1.1908 -0.17 0
0.43196246 1.148075 -0.1585 0
0.57701665 1.1435 -0.15666668 0
0.6360625 1.1647875 -0.15375 0
0.78406906 1.1316825 -0.1674283 0
0.83245897 1.1756037 -0.14475727 0
0.90972793 1.1577752 -0.14625911 0
1.3737487 1.1039211 -0.15143611 0
1.4453913 1.1411544 -0.15168102 0
1.53701 1.1864576 -0.1510796 0
-1.161 1.225 -0.175 0
-1.0599703 1.2491494 -0.13397871 0
-0.99649769 1.2050666 -0.1360797 0
-0.46139002 1.24935 -0.17 0
0.46701998 1.24104 -0.1582 0
0.54855001 1.2483 -0.1585 0
0.64535004 1.2617188 -0.15674999 0
0.74039996 1.2689999 -0.15000001 0
0.85323572 1.2525325 -0.16876163 0
0.93708521 1.2475269 -0.16194093 0
1.0188 1.2978001 -0.169 0
1.4914973 1.2068419 -0.1518722 0
1.526 1.237 -0.152 0
-1.1115 1.3280001 -0.15000001 0
-0.53246671 1.3373666 -0.17 0
-0.46950001 1.3638 -0.17 0
0.4874 1.3266499 -0.1585 0
0.52020001 1.3663167 -0.15866667 0
0.67758906 1.341185 -0.15675256 0
0.73844588 1.3769011 -0.15468402 0
0.80209994 1.3747499 -0.15000001 0
0.93727052 1.346539 -0.18131182 0
1.0585973 1.3479543 -0.15762956 0
-0.56394994 1.44945 -0.17 0
-0.4736 1.4656 -0.17 0
0.5501008 1.4456336 -0.15881237 0
0.69190401 1.4223964 -0.15670097 0
0.74187237 1.4468546 -0.15626277 0
0.86379993 1.4805 -0.15000001 0
0.95923573 1.4079325 -0.16876163 0
1.0293113 1.458569 -0.18963985 0
1.132 1.442 -0.169 0
-0.61987233 1.5535539 -0.17030533 0
-0.53892833 1.5459616 -0.16126308 0
-0.48885903 1.5073774 -0.11082965 0
0.57664222 1.5443329 -0.15720831 0
0.61441159 1.5669719 -0.15737332 0
0.77380902 1.5442078 -0.15590958 0
0.83130586 1.5716178 -0.15658344 0
0.92549998 1.5862501 -0.15000001 0
1.0599999 1.554 -0.197 0
-0.64436823 1.6581419 -0.17146657 0
-0.53661478 1.6592443 -0.15520743 0
0.59245002 1.6328499 -0.15800001 0
0.62420928 1.6471684 -0.15564072 0
0.85672522 1.6665659 -0.15431604 0
0.98719996 1.692 -0.15000001 0
1.0534015 1.6433276 -0.10395665 0
-0.71200001 1.7885001 -0.1725 0
-0.67008722 1.7532927 -0.17229858 0
-0.56430733 1.7456222 -0.16260371 0
0.6514048 1.7301024 -0.15222226 0
0.70052904 1.7949299 -0.15343331 0
0.87699151 1.7565936 -0.15470281 0
0.93556201 1.751978 -0.15465817 0
1.0489 1.79775 -0.15000001 0
-0.66600001 1.816 -0.17299999 0
-0.59200001 1.832 -0.17 0
0.67638069 1.8216939 -0.14642824 0
0.70999998 1.8200001 -0.153 0
0.95842719 1.8506268 -0.14332707 0
1.0120707 1.8696141 -0.16700117 0
0.69700003 1.921 -0.15800001 0
0.73894978 1.9448991 -0.13750632 0
0.96706635 1.939818 -0.1545458 0
1.0384606 1.9501065 -0.13897498 0
1.1106 1.9035 -0.15000001 0
0.75701112 2.0558534 -0.13183987 0
0.80822653 2.0664341 -0.15404128 0
1.0524657 2.0421364 -0.15283248 0
1.1431911 2.0491881 -0.13489461 0
0.78779632 2.155946 -0.12214946 0
0.82845825 2.1533327 -0.13229567 0
1.0800738 2.1579838 -0.15369964 0
1.1544608 2.14253 -0.15207356 0
1.2467983 2.1333771 -0.14989062 0
0.8385672 2.236949 -0.12148223 0
1.1206903 2.2382617 -0.15349901 0
1.3369912 2.2628849 -0.14911973 0
0.85386783 2.3584042 -0.11152063 0
0.9228242 2.3539405 -0.15525609 0
1.1703713 2.3417966 -0.15355515 0
0.88599998 2.448 -0.102 0
0.97193748 2.4771576 -0.15577672 0
1.2194487 2.4281085 -0.1527089 0
0.99299997 2.53 -0.156 0
-1.092 -1.926 -0.089000002 0
0.259 -1.926 -0.086999997 0
0.25137287 -1.8421013 -0.095580533 0
0.32499999 -1.835 -0.039000001 0
-1.1749967 -1.7813265 -0.090022124 0
0.31220201 -1.7560929 -0.033635784 0
0.2990554 -1.6750045 -0.028369904 0
0.27979052 -1.552151 -0.05175139 0
0.26011622 -1.4290605 -0.057300556 0
1.3510001 -1.4284999 -0.0195 0
0.24699999 -1.347 -0.061000001 0
1.2300751 -1.3371835 -0.037476093 0
1.3518404 -1.3482916 -0.035473116 0
1.4510729 -1.3913565 -0.098925091 0
0.228475 -1.245975 -0.061000001 0
0.38752967 -1.2508385 -0.086957946 0
1.1636425 -1.230451 -0.02799584 0
1.2495421 -1.2597098 -0.03294732 0
1.3272188 -1.2720697 -0.078775279 0
0.20995 -1.14495 -0.061000001 0
0.35611868 -1.145354 -0.07783176 0
1.0704961 -1.1408418 -0.034114819 0
1.1569458 -1.1473149 -0.016096156 0
1.2283219 -1.1677756 -0.025839251 0
-0.069199927 -1.0694987 -0.023233354 0
0.191425 -1.043925 -0.061000001 0
0.32943088 -1.0522866 -0.053751927 0
0.97409171 -1.0375084 -0.045000002 0
1.0513997 -1.037033 -0.032355718 0
1.1270545 -1.0759449 -0.027693003 0
-0.31430933 -0.91963613 -0.013459144 0
-0.28428152 -0.92319274 -0.019929357 0
-0.045368522 -0.9661994 -0.014379022 0
0.17289999 -0.94289994 -0.061000001 0
0.28839776 -0.92299014 -0.06971959 0
0.30713695 -0.96920085 -0.032479603 0
0.8805334 -0.93298334 -0.042333335 0
0.94208753 -0.96353745 -0.035 0
1.1520368 -0.93203688 -0.044090044 0
-0.31809369 -0.88686574 -0.036406673 0
-0.27622706 -0.8472665 -0.018615939 0
-0.048945662 -0.8529191 -0.027246483 0
0.15437499 -0.84187496 -0.061000001 0
0.27690002 -0.87663335 -0.048666667 0
0.78719997 -0.84239995 -0.046999998 0
0.83961999 -0.86700994 -0.037800003 0
0.98940003 -0.80239999 -0.046999998 0
1.0749468 -0.84418613 -0.034467932 0
1.137337 -0.86011928 -0.043204147 0
1.2208567 -0.87637407 -0.053065598 0
1.3508545 -0.8415097 -0.076971896 0
1.4291837 -0.85780883 -0.087276258 0
1.5139289 -0.87449419 -0.092549995 0
1.7490883 -0.81206703 -0.089125402 0
-1.142 -0.73799998 -0.035999998 0
-1.0848999 -0.70109999 -0.035999998 0
-0.23881976 -0.74233866 -0.024166791 0
-0.044432651 -0.74265522 -0.032307882 0
0.13584998 -0.74084991 -0.061000001 0
0.22884998 -0.73944998 -0.090000004 0
0.68879998 -0.73710001 -0.046999998 0
0.74335003 -0.76833326 -0.037 0
0.87300003 -0.708 -0.046999998 0
0.94253755 -0.73362505 -0.04575 0
1.0281684 -0.76802653 -0.061272126 0
1.1021407 -0.77343619 -0.072041892 0
1.2757047 -0.76626325 -0.064047821 0
1.3602386 -0.78632563 -0.075400002 0
1.5705986 -0.72929239 -0.096557394 0
1.6456314 -0.76272321 -0.093576521 0
1.7300638 -0.7911067 -0.090815097 0
-1.2700592 -0.66082311 -0.0096902251 0
-1.1466712 -0.64046204 -0.051309496 0
-1.0488372 -0.66146547 -0.041852575 0
-0.97099137 -0.6174593 -0.032603685 0
-0.22179964 -0.67251796 -0.033264808 0
-0.18917853 -0.62832588 -0.022608021 0
-0.046012502 -0.64197499 -0.030875001 0
0.14454998 -0.64088327 -0.070666671 0
0.59039998 -0.63179994 -0.046999998 0
0.64195007 -0.66356665 -0.037 0
0.75660002 -0.61360002 -0.046999998 0
0.84332132 -0.63911426 -0.059714284 0
0.94876426 -0.68315709 -0.089285724 0
1.4308127 -0.66222131 -0.098963022 0
1.5056255 -0.69444269 -0.096926041 0
-1.207 -0.59299999 -0.048999999 0
-1.1406046 -0.5743705 -0.03249136 0
-1.0412397 -0.53044331 -0.037968233 0
-0.95242649 -0.54562318 -0.052886788 0
-0.85662001 -0.53322995 -0.060000002 0
-0.79939997 -0.51659995 -0.035999998 0
-0.206975 -0.590325 -0.042000003 0
-0.17131776 -0.55454028 -0.032729279 0
-0.037599996 -0.55188328 -0.032000002 0
0.098799974 -0.53879988 -0.061000001 0
0.16914997 -0.54654992 -0.090000004 0
0.49199992 -0.52649993 -0.046999998 0
0.54054999 -0.55879992 -0.037 0
0.66338748 -0.52424997 -0.045499995 0
0.74351245 -0.55017501 -0.070750006 0
0.82662499 -0.58819997 -0.097499996 0
-1.1239156 -0.49392745 -0.0088678645 0
-1.0423332 -0.45921668 -0.021 0
-0.93280631 -0.47186249 -0.030499998 0
-0.84539372 -0.44685623 -0.036374997 0
-0.75776428 -0.44733572 -0.050285716 0
-0.66677499 -0.41798747 -0.048999999 0
-0.141874 -0.45024002 -0.032440003 0
-0.0326625 -0.45459372 -0.030875001 0
0.080274977 -0.43777487 -0.061000001 0
0.13929996 -0.45009989 -0.090000004 0
0.39359993 -0.42119992 -0.046999998 0
0.43914998 -0.45403326 -0.037 0
0.56424159 -0.43049994 -0.062833332 0
0.639925 -0.46700001 -0.079666667 0
-0.90099996 -0.39695001 -0.021 0
-0.84799993 -0.37360001 -0.021 0
-0.74699372 -0.36828125 -0.032499999 0
-0.64477915 -0.34450832 -0.036749996 0
-0.54629987 -0.33083567 -0.054714285 0
-0.11491111 -0.35666937 -0.03272222 0
-0.052596662 -0.34158662 -0.031333335 0
0.080624953 -0.32912481 -0.075500004 0
0.11939996 -0.38579988 -0.090000004 0
0.2951999 -0.31589988 -0.046999998 0
0.33774993 -0.34926653 -0.037000004 0
0.4440299 -0.33453995 -0.066 0
0.52031243 -0.38479996 -0.070749998 0
-0.6197499 -0.28834999 -0.035 0
-0.53908741 -0.26905623 -0.026999999 0
-0.44849995 -0.24483569 -0.042214286 0
-0.36898327 -0.22429995 -0.054833334 0
-0.062796958 -0.24853328 -0.03245455 0
0.055349961 -0.24288321 -0.070666671 0
0.19679984 -0.21059987 -0.046999998 0
0.2547332 -0.23535544 -0.051555555 0
0.3469888 -0.25917774 -0.068111107 0
-0.42399991 -0.18679997 -0.021 0
-0.33653989 -0.17087996 -0.0319 0
-0.25347489 -0.14144637 -0.041285716 0
-0.18547486 -0.11012492 -0.055750001 0
-0.035745438 -0.14733173 -0.032090914 0
0.06419991 -0.13335982 -0.067000002 0
0.15142292 -0.13059989 -0.057461541 0
0.23277129 -0.17642847 -0.059714284 0
-0.21199983 -0.093399942 -0.021 0
-0.14024152 -0.074116588 -0.035416666 0
-0.029802566 -0.050831478 -0.035763163 0
0.05266523 -0.05184985 -0.064153843 0
0.10623316 -0.083333217 -0.044999998 0
-0.41339988 0.088199973 -0.085000001 0
-0.34449983 0.073499963 -0.085000001 0
-0.22463737 0.074599952 -0.086250007 0
-0.14010701 0.075167798 -0.075857148 0
-0.057966143 0.051199891 -0.065511622 0
0.023274144 0.020832537 -0.054948419 0
0.13576901 0.077992603 -0.056264699 0
-0.86124998 0.18375 -0.085000001 0
-0.75789994 0.16169998 -0.085000001 0
-0.65454996 0.13964999 -0.085000001 0
-0.55119991 0.11759998 -0.085000001 0
-0.43826661 0.1646333 -0.086666673 0
-0.34919995 0.17207497 -0.083499998 0
-0.24740255 0.14520521 -0.072105266 0
-0.14144991 0.14756355 -0.059999991 0
-0.079366565 0.11873317 -0.037 0
0.088140838 0.11848171 -0.065363638 0
0.15003091 0.14345995 -0.052739996 0
0.25604063 0.15140691 -0.054930214 0
0.34120327 0.1826333 -0.062333342 0
0.41194996 0.19359998 -0.064999998 0
2.7497163 0.14618306 -0.090597183 0
2.8574305 0.15016153 -0.08303494 0
2.945955 0.15353525 -0.069377013 0
3.0344791 0.15690896 -0.055719081 0
3.1562967 0.13129269 -0.036322914 0
3.2510977 0.16965953 -0.058691353 0
3.3604298 0.17499599 -0.046326384 0
-1.3503622 0.28531408 -0.082634047 0
-1.2402 0.26460001 -0.085000001 0
-1.1368501 0.24255 -0.085000001 0
-1.0335 0.22049999 -0.085000001 0
-0.96459997 0.2058 -0.085000001 0
-0.62437499 0.29324999 -0.087500006 0
-0.54356492 0.26825497 -0.082600012 0
-0.45308635 0.2362954 -0.077909082 0
-0.34555495 0.24908495 -0.0579 0
-0.24511595 0.24863592 -0.062199995 0
-0.1737649 0.2390749 -0.0484 0
0.17043857 0.23909311 -0.067454547 0
0.24237254 0.25660959 -0.050709672 0
0.35714996 0.23123255 -0.045956519 0
0.44293746 0.25481939 -0.057944436 0
0.54304588 0.27985415 -0.063500002 0
0.618325 0.296 -0.063999996 0
2.9279249 0.22306176 -0.094113693 0
3.0576963 0.21546897 -0.057639264 0
3.1639659 0.22793369 -0.053510681 0
3.2878647 0.24791116 -0.060604647 0
3.3778496 0.25412351 -0.052227385 0
3.434 0.25799999 -0.046999998 0
-0.83249998 0.391 -0.087500006 0
-0.74604994 0.36419499 -0.084299996 0
-0.65972781 0.33570558 -0.080111116 0
-0.5546667 0.34763333 -0.060666665 0
-0.43412855 0.3584857 -0.057285715 0
-0.34088695 0.3479304 -0.061304353 0
-0.25188494 0.34366488 -0.050499998 0
0.25591666 0.34721425 -0.064952374 0
0.33395249 0.36057249 -0.054850001 0
0.46609226 0.32408077 -0.035923079 0
0.55804139 0.34723449 -0.051965516 0
0.64753634 0.35979089 -0.061363637 0
0.73386782 0.37541074 -0.063785717 0
0.83098412 0.39022747 -0.063760705 0
-1.0686862 0.49420714 -0.098813877 0
-0.95045346 0.45944437 -0.08718428 0
-0.84324425 0.45777169 -0.071606487 0
-0.75794607 0.43624228 -0.03424887 0
-0.63759005 0.46023998 -0.052200001 0
-0.52986664 0.46516669 -0.057833329 0
-0.44759718 0.44748053 -0.059611108 0
-0.35944161 0.45387909 -0.062749997 0
-0.28419992 0.42979988 -0.037 0
0.2850312 0.43321246 -0.072500005 0
0.35471466 0.44184411 -0.057235301 0
0.43001842 0.46331319 -0.054421056 0
0.56665003 0.42891002 -0.025400002 0
0.65277332 0.44057 -0.040400006 0
0.74393213 0.45147726 -0.056091297 0
0.83316624 0.45889077 -0.061680436 0
0.93483555 0.47014591 -0.066590011 0
-1.2108371 0.58528244 -0.092981741 0
-1.1338696 0.548226 -0.091885388 0
-1.0537407 0.54381859 -0.079388127 0
-0.93900877 0.55953121 -0.066311166 0
-0.85529464 0.55006129 -0.057305336 0
-0.75381255 0.54949999 -0.052500002 0
-0.63948572 0.55957854 -0.058142859 0
-0.54431331 0.54270661 -0.059733327 0
-0.4589166 0.54617226 -0.071333334 0
-0.36356664 0.54853326 -0.037 0
0.36174667 0.54777658 -0.071466662 0
0.45574689 0.53534997 -0.057250001 0
0.52912039 0.56254041 -0.050136544 0
0.67802501 0.53927499 -0.021 0
0.7406913 0.54500163 -0.036387943 0
0.84115505 0.54912966 -0.045398377 0
0.95040077 0.54411852 -0.057098459 0
1.0636929 0.56325924 -0.06661544 0
1.15851 0.55408847 -0.070466593 0
1.2409047 0.58136487 -0.057564232 0
-1.3545001 0.65450001 -0.094999999 0
-1.2560694 0.64158857 -0.085197091 0
-1.1415344 0.64529753 -0.071873188 0
-1.0338857 0.66146606 -0.057974629 0
-0.95322245 0.6463908 -0.05839299 0
-0.8532052 0.63441116 -0.056841481 0
-0.73666245 0.66941208 -0.055872791 0
-0.64360195 0.65187812 -0.063188359 0
-0.55981505 0.645895 -0.066100001 0
-0.46000829 0.64372492 -0.052666668 0
-0.38032496 0.60719991 -0.028999999 0
0.44172144 0.65236074 -0.067428574 0
0.56045252 0.64210582 -0.053131022 0
0.62625265 0.67000949 -0.039197549 0
0.76044393 0.61829334 -0.044906933 0
0.85140634 0.6442095 -0.039551906 0
0.95865786 0.64057803 -0.047019623 0
1.0525573 0.65731037 -0.037462559 0
1.1414483 0.64945984 -0.053920619 0
1.2271727 0.654185 -0.073904268 0
1.3191799 0.65199512 -0.076883465 0
1.4315629 0.67944342 -0.067513146 0
-1.3442315 0.72394818 -0.075916588 0
-1.2536585 0.76184964 -0.059127681 0
-1.1459715 0.7545352 -0.035023097 0
-1.0571936 0.7396822 -0.056945007 0
-0.97538453 0.72114652 -0.044328462 0
-0.85183227 0.76795822 -0.05443858 0
-0.75239438 0.75537014 -0.063951656 0
-0.65988058 0.74011803 -0.067662254 0
-0.57313335 0.74491662 -0.068333335 0
-0.46676248 0.74519992 -0.028999999 0
0.479325 0.73766875 -0.072375007 0
0.54086107 0.76214439 -0.059555557 0
0.66235149 0.73969752 -0.03922049 0
0.72017133 0.78768873 -0.0127513 0
0.87341225 0.7194016 -0.032466799 0
0.93936896 0.73684043 -0.063571841 0
1.0333083 0.73307836 -0.024507165 0
1.1388575 0.74592155 -0.035486974 0
1.2521327 0.75544107 -0.028238192 0
1.3532088 0.74272114 -0.067140751 0
1.47407 0.76301223 -0.080527268 0
1.5688411 0.73427474 -0.052607052 0
1.6278721 0.76360112 -0.05071855 0
-1.3163333 0.85166669 -0.033999998 0
-1.2524197 0.84607857 -0.016524702 0
-1.1632453 0.84216291 -0.018524023 0
-1.0431097 0.83916849 -0.066163264 0
-0.93963557 0.84162843 -0.051413476 0
-0.8508786 0.83856493 -0.062281761 0
-0.77170718 0.86237401 -0.065769874 0
-0.66999996 0.85381001 -0.069600001 0
-0.54848999 0.84695995 -0.033799998 0
0.55732363 0.83367634 -0.068894729 0
0.63773048 0.86421365 -0.070882097 0
0.74183607 0.85365927 -0.026996257 0
1.0382506 0.83465153 -0.033448488 0
1.1617787 0.82280982 -0.021575786 0
1.2622668 0.84987456 -0.032213509 0
1.3516041 0.84505171 -0.028591821 0
1.442879 0.83552045 -0.050516993 0
1.5516293 0.83944446 -0.071196899 0
1.609 0.847 -0.097999997 0
1.7466168 0.83030319 -0.042655654 0
-1.3380948 0.97612876 -0.0043817703 0
-1.2447538 0.93255144 -0.014557395 0
-1.1339271 0.97838926 -0.035798587 0
-1.0514268 0.94765484 -0.035848048 0
-0.94736004 0.95424128 -0.045382258 0
-0.84584963 0.9430297 -0.063764662 0
-0.76339793 0.94813991 -0.071775466 0
-0.63733751 0.96983743 -0.029000001 0
-0.56950003 0.93245 -0.052999999 0
0.59102571 0.9335438 -0.080545664 0
0.65045857 0.94755626 -0.063892052 0
0.75862014 0.94177651 -0.059866782 0
0.82722688 0.94233418 -0.0045763534 0
1.3451315 0.93471932 -0.025100378 0
1.4268233 0.94770747 -0.031677589 0
-1.324 1.005 -0.0069999993 0
-1.2380378 1.0791899 -0.02892212 0
-1.1573418 1.0632629 -0.02436923 0
-1.054773 1.0495967 -0.042370208 0
-0.95091653 1.0666163 -0.051589832 0
-0.86090147 1.0408711 -0.069905393 0
-0.77896667 1.0579001 -0.035666663 0
-0.66128331 1.0648667 -0.037 0
0.66381425 1.0483595 -0.082864165 0
0.72317189 1.0537256 -0.065314971 0
1.441 1.01 -0.021499999 0
-1.3434917 1.1582114 -0.02578887 0
-1.2452875 1.1552086 -0.0171098 0
-1.1487545 1.1507052 -0.040587485 0
-1.048981 1.1420329 -0.027047466 0
-0.94935971 1.151981 -0.051997561 0
-0.85481405 1.139967 -0.059070956 0
-0.713 1.1109999 -0.0049999999 0
0.76195461 1.1424912 -0.063684978 0
0.83428508 1.1623441 -0.060769767 0
-1.3513708 1.2531347 -0.016117936 0
-1.2601703 1.241279 -0.024854004 0
-1.1473827 1.2551006 -0.021255355 0
-1.0444406 1.237394 -0.035596516 0
-0.94884431 1.2528249 -0.05261261 0
-0.89820004 1.2186 -0.052999999 0
-0.40675166 1.2489552 -0.063725948 0
0.78512847 1.2397192 -0.086728334 0
0.84815395 1.245816 -0.053582471 0
0.90854275 1.2549989 -0.078934021 0
-1.3352219 1.3464727 -0.036377199 0
-1.2589679 1.3367056 -0.013587877 0
-1.1392566 1.3590389 -0.029787362 0
-1.0453334 1.3221908 -0.067257278 0
-0.99800003 1.354 -0.052999999 0
-0.43728855 1.3450661 -0.081244491 0
0.85699099 1.3438139 -0.08521007 0
0.93089724 1.3534006 -0.05518188 0
-1.2179415 1.4696826 -0.012608818 0
-1.1735761 1.4058226 -0.027876735 0
-0.46307379 1.4262217 -0.096037075 0
0.95634961 1.4478036 -0.069289394 0
1.0344527 1.4462783 -0.044333637 0
1.1008079 1.4962211 -0.007629279 0
-1.2640001 1.538 -0.016000003 0
0.97923118 1.5458945 -0.09291099 0
1.0438017 1.5419029 -0.055790506 0
1.1389254 1.5633818 -0.060992073 0
1.0656425 1.6329064 -0.077684186 0
1.118 1.617 -0.0020000003 0
1.2056026 1.6400737 -0.02320976 0
1.258 1.712 -0.030999999 0
1.0881023 1.9971827 -0.043021008 0
1.079764 2.0168293 -0.0562081 0
1.124414 2.0742426 -0.050727647 0
0.79500002 2.1400001 -0.039999999 0
0.8006326 2.1569536 -0.042565327 0
1.1563504 2.1538029 -0.068325773 0
0.82447445 2.2287152 -0.053423997 0
1.1879538 2.2262881 -0.078985535 0
1.23 2.2780001 -0.081666671 0
0.8626107 2.3295605 -0.082890756 0
0.89134759 2.4308207 -0.087158985 0
0.9142108 2.4243152 -0.086402223 0
1.7415597 -1.6216578 0.025915019 0
0.27888036 -1.5545925 0.010809222 0
1.6743073 -1.5589839 0.021947034 0
0.25911477 -1.4344178 0.032156039 0
1.3511794 -1.4233854 0.033029288 0
1.4624606 -1.4367942 0.062056001 0
1.5348161 -1.4480566 0.035479847 0
1.6084955 -1.4976523 0.01806403 0
0.25 -1.3789999 0.041999999 0
1.2604835 -1.3276796 0.013136659 0
1.3495474 -1.3411156 0.035136215 0
1.4363357 -1.3569611 0.024555372 0
1.1938918 -1.2422752 0.0094729364 0
1.255577 -1.2428495 0.01669356 0
1.3321995 -1.2518342 0.0073398696 0
1.2446029 -1.1895494 0.0048771119 0
-0.29699999 -1.005 0.028999999 0
-0.039000001 -1.048 0.006000001 0
0.22414073 -1.0476179 0.0083850976 0
-0.31248543 -0.94509888 0.0020921275 0
-0.28146747 -0.95493245 0.023051374 0
0.1972 -0.92139995 0.0049999999 0
0.20879999 -0.9756 0.0049999999 0
-0.24783856 -0.84653282 0.010172213 0
0.1798 -0.84009999 0.0049999999 0
0.24897721 -0.86555892 0.0075908895 0
-1.37 -0.713 0.0089999959 0
-0.22541927 -0.77426642 0.0015861066 0
0.1566 -0.73169994 0.0049999999 0
0.221375 -0.76807499 3.3899546e-14 0
-1.3570772 -0.69172025 0.023332091 0
-1.2522357 -0.63419229 0.014851335 0
-1.1707212 -0.63231152 0.023802495 0
0.17290001 -0.65569991 0.0016666666 0
-1.2638735 -0.55289114 0.017698204 0
-1.1878313 -0.52085489 0.0032642707 0
-1.0576181 -0.57140982 0.010544993 0
-0.99130911 -0.53570491 0.0027724965 0
0.14532 -0.56279993 0.0019999999 0
0.092799976 -0.43359989 0.0049999999 0
0.12296665 -0.46849999 0.0016666666 0
0.08093331 -0.34126654 0.0033333332 0
0.10924998 -0.37904993 -9.1673851e-15 0
0.063474968 -0.25162488 0.0024999999 0
0.039199971 -0.14995988 0.0019999999 0
0.015366629 -0.05796653 0.0016666666 0
-3.7997921e-17 3.7997921e-17 0.0024999999 0
3.285533 0.11553056 0.0032567084 0
3.335 0.116 0.011999995 0
3.2747636 0.21156779 0.0011601746 0
3.367702 0.21675989 0.017255656 0
-0.64499998 0.37599999 0.006000001 0
-0.72242004 0.48493531 0.018328438 0
-0.65109915 0.42771602 0.018124811 0
-0.83979219 0.56699139 0.012708182 0
-0.77340609 0.53633237 0.022872409 0
-1.0128417 0.67575943 0.0047403183 0
-0.92900819 0.64202499 0.017036526 0
-0.85938191 0.60049045 0.023073073 0
0.87443447 0.68660843 0.0033555022 0
0.95943344 0.69144964 0.0086079333 0
-1.05667 0.73295355 0.013777893 0
-0.98762846 0.70019472 0.019297183 0
-0.83449996 0.78499997 0.035999998 0
0.94433469 0.75023508 0.0084153898 0
1.0282485 0.76447046 0.019788841 0
1.1050558 0.79574937 0.02767989 0
-1.2317933 0.86614257 0.012307252 0
-1.1398523 0.80340683 0.015834667 0
-0.92016268 0.87528855 0.028392784 0
-0.85063463 0.81676292 0.032461189 0
0.77968532 0.83675492 0.003994802 0
0.82702804 0.88713235 0.012492202 0
1.055552 0.84395486 0.018460946 0
1.1737171 0.87526464 0.026142456 0
1.3552986 0.8414278 0.0048466921 0
1.4373425 0.86336941 0.0049212552 0
-1.3425245 0.95621377 0.010647789 0
-1.2824686 0.90478283 0.0091884378 0
-1.0378305 0.97884828 0.016135657 0
-0.97523475 0.9289186 0.021209946 0
0.85800004 0.949 0.0089999996 0
1.154219 0.92492396 0.017001817 0
1.2353516 0.95494336 0.027917495 0
1.3221819 0.97152126 0.033184476 0
1.467 0.91000003 0.013999999 0
-1.1309687 1.0648515 0.011479443 0
-1.0592833 1.0234861 0.0075182514 0
0.77671182 1.0513315 0.040556081 0
1.2917529 1.0432656 0.037394453 0
1.3598074 1.04377 0.04014707 0
1.4694849 1.071601 0.056320399 0
-1.2503495 1.1526073 0.0084010502 0
-1.176339 1.1108495 0.0050848667 0
-0.75575602 1.1752436 0.006840134 0
0.83882105 1.1365893 0.03132192 0
1.3626018 1.1106396 0.027038977 0
1.45507 1.1398925 0.046470024 0
-1.3156748 1.2113037 0.003700525 0
-0.7985121 1.2394874 0.018680267 0
0.89121842 1.2085156 0.023531683 0
0.94361579 1.280442 0.015741441 0
1.478 1.205 0.034000002 0
-1.252816 1.3730811 0.007248776 0
-1.1711109 1.3445077 0.0036799312 0
-0.8626461 1.3358529 0.036440469 0
0.99601316 1.3523684 0.0079512 0
-1.235 1.4059999 0.0074999966 0
-0.90799999 1.404 0.048999999 0
-0.86767685 1.4306884 0.05873476 0
1.0484105 1.4242947 0.00016096048 0
-0.93866235 1.5444936 0.047506489 0
1.1050823 1.5660684 0.0021834448 0
-1.007971 1.6556103 0.036543455 0
1.138 1.613 0.0059999973 0
-1.0541768 1.7296883 0.029234765 0
-1.1234854 1.8408053 0.018271727 0
-1.1927942 1.9519221 0.0073086913 0
-1.239 2.026 -2.0829607e-13 0
