# .PCD v0.7 - Point Cloud Data file format
VERSION 0.7
FIELDS x y z intensity
SIZE 4 4 4 4
TYPE F F F F
COUNT 1 1 1 1
WIDTH 340
HEIGHT 1
VIEWPOINT 0 0 0 1 0 0 0
POINTS 340
DATA ascii
-1.293618 -2.8776808 -0.11822013 2
-1.3460559 -0.46661127 -0.084483862 1.5
-1.3628066 -0.22313681 -0.056679003 2
-1.3728067 0.22070466 -0.037242889 2.5
-1.3651646 0.58941096 -0.06309519 2
-1.3309524 0.92459911 -0.10166966 1.6666666
-1.3158593 1.4181573 -0.021253629 3
-1.2585944 2.2172155 -0.05400461 3
-1.3965495 2.9657521 -0.0070057879 3
-1.3700395 3.3097618 -0.13700621 2.5
-1.3248906 -2.9169102 0.18476212 4.8000002
-1.2276595 -1.9214249 0.21375093 6
-1.3505077 -1.2617722 0.26493323 7.5999999
-1.3494177 -1.1837639 0.29149979 8
-1.334149 -0.50932014 0.15736695 6.6428571
-1.3714886 -0.20604365 0.21677151 8
-1.3750979 0.22125271 0.20562702 7.7368422
-1.3577762 0.48004189 0.11062851 5.5714288
-1.2694699 1.3782775 0.088163152 4.5
-1.3622053 -3.0785038 0.54950225 8.25
-1.3661829 -0.41563669 0.58556062 15
-1.3789209 -0.21082848 0.59882194 15.5
-1.3813187 0.20202613 0.58910066 15.333333
-1.3808157 -0.80370033 1.0339993 21
-1.3834699 -0.59814751 0.95752811 20.5
-1.3835206 -0.24145851 0.91790134 20.75
-1.3866253 0.23872761 0.91509795 20.777779
-1.3906323 0.48853752 1.1579975 23
-1.3844547 -0.68534696 1.5209991 27
-1.3829346 -0.11220258 1.4561234 28
-1.3841287 0.57705212 1.3729973 26
-1.3998884 1.0583453 1.3504969 23.166666
-1.4072574 1.3730956 1.3859025 21.75
-1.3889257 -1.2022477 1.7644998 26.5
-1.3922172 -1.0545619 1.7703328 27.333334
-1.3831902 -0.15068457 1.8001983 31
-1.3951224 0.7205767 1.6469972 28
-1.4116 1.4181632 1.6119963 24
-1.4225947 1.5896797 2.239996 28
-1.4076536 1.7754438 2.2578917 26.875
-1.3842924 2.1117988 2.2330372 25
-1.1530167 -2.8859656 -0.10149769 2.5
-1.020294 -1.8669921 -0.085432209 2
-0.94643021 -1.2929417 -0.065332875 2
-0.98792422 -1.0114393 -0.070396937 1.6363636
-1.009374 -0.68398011 -0.053562552 1.8181819
-0.96824539 0.53834736 -0.041002002 2.1666667
-1.1876342 0.8755849 -0.013002737 3
-1.0516452 1.3441477 -0.10100318 1.5
-1.0066111 2.7987418 -0.15100504 2
-1.1770196 -2.8959548 0.081002288 4
-1.0080771 -1.8810142 0.20189895 6
-1.0083883 -1.3245411 0.20147018 6.8235292
-0.97761267 -1.0076873 0.18297417 7.125
-1.0071954 -0.63489377 0.1992263 8.2325583
-0.9061963 0.3110882 0.26284 11.222222
-0.93519449 0.48974028 0.15283966 7.75
-0.82801497 1.1171279 0.12966409 6
-0.91019547 3.1586709 0.35099462 6.5
-0.83362144 3.2105069 0.31949463 6.5
-0.94943058 -1.7296643 0.45600104 10
-0.95464069 -1.3366612 0.43450049 11
-0.94583029 -0.97012454 0.47330558 13.333333
-0.99293894 -0.69202393 0.5741061 16.571428
-0.97996658 -0.3733401 0.50160474 16.777779
-0.97432655 0.295086 0.5562126 18.142857
-0.83667165 0.45148295 0.53624827 18.5
-1.0102646 3.1501284 0.62303615 8.75
-0.88924468 3.2600462 0.64178342 9
-1.0362943 -0.75958294 0.80999964 20.5
-0.86165959 0.4815245 0.87097025 25
-0.89261121 3.2574244 0.80732793 10
-1.1054982 1.7910959 2.3628864 28.333334
-0.94208241 2.0740294 2.3586376 27.333334
-1.0236416 1.8846992 2.4029963 29
-0.99264205 2.0427096 2.4059958 28
-0.64444059 0.36995912 -0.012001346 2.5
-0.68144363 0.54001325 -0.03000162 2.5
-0.67378885 1.0512929 -0.060582291 2
-0.49774319 1.2056782 -0.085002258 1
-0.64870113 1.8397112 -0.17100331 1
-0.41708291 -1.6732818 0.031001667 4
-0.4111641 -0.50910658 0.2682144 15
-0.6434173 0.37998408 0.16128452 9.6153851
-0.65758967 0.53120214 0.19680896 9.8999996
-0.5501551 0.9807269 0.18847519 8.2777777
-0.7671296 3.2567592 0.33599466 6.5
-0.78900838 0.38812941 0.55149847 20
-0.70395696 0.56515706 0.5027982 18.363636
-0.46179354 0.84326118 0.5823316 19.5
-0.79412514 3.2747591 0.60649461 8.5
-0.67741114 2.0790074 2.3708715 28
-0.68402553 2.0457232 2.4239964 29
-0.20331103 -0.95070851 -0.033999007 2.3333333
-0.16717309 -0.67091519 -0.032354888 1.6666666
-0.15474056 0.90528733 -0.033363204 2.25
-0.35042101 1.2168528 -0.070418745 1.5
-0.30565649 -3.1273813 0.12000374 4
-0.26420265 -2.1862218 0.26250255 6.75
-0.19357666 -1.0032656 0.11450873 6.5
-0.19744171 -0.54488909 0.22481097 14.166667
-0.25968787 -0.36946777 0.27611837 19.636364
-0.13842295 0.87173134 0.16535184 9.0526314
-0.18316361 -0.49822086 0.46875542 24.666666
-0.32576177 -0.34457186 0.4342429 25.5
-0.14464517 0.82514161 0.57884532 21.307692
-0.13508381 0.82411641 0.83260989 27
0.16415444 -3.114466 -0.06649565 2.6666667
0.21089263 -1.8721116 -0.062897235 2
0.24873486 -1.2920628 -0.056164622 2
0.19877702 -0.80789757 -0.016498664 2.6666667
0.27619722 -0.76583278 -0.036470778 1.75
0.1936966 0.84041953 -0.044230253 1.7142857
0.18115219 -3.1258397 0.19392845 5.2222223
0.21968307 -1.8154889 0.22682665 7.0625
0.37158853 -1.2909341 0.14892814 6.6666665
0.16246617 -0.89504981 0.14069933 8
0.17009018 -0.63998181 0.21701223 13.3
0.39120761 0.65820664 0.28026628 14
0.14868656 0.85874343 0.1797713 9.2799997
0.192913 -3.1280727 0.60431695 9.25
0.19055519 -1.7198766 0.46958584 11.166667
0.22082755 -0.61798525 0.47988099 22.818182
0.3930999 0.76866597 0.59899956 21.6
0.078817122 0.82152325 0.55868989 21.1
0.78192198 -0.92221904 -0.053664405 2
0.54885709 -0.75440478 -0.034508597 2
0.74937177 0.37582153 -0.0659995 1
0.67252886 0.61080366 -0.044916585 1.75
0.54147738 0.85604292 -0.078000419 1
0.71023369 1.7706535 -0.088401414 2
0.78326118 -0.91072315 0.076835588 5
0.55134821 -0.75778747 0.19885422 9.5185184
0.59350592 0.33493316 0.3069306 16
0.55161643 0.54308122 0.22393084 11.935484
0.66992652 1.0087246 0.17604284 7.4545455
0.71103972 1.6411494 0.1063321 5
0.72905844 2.1360507 0.23224814 6.25
0.53375196 -0.75790757 0.56492335 19.666666
0.59808475 0.31734753 0.52819097 23.200001
0.49859589 0.5955196 0.58797544 22.666666
0.68835866 1.6291292 0.56316543 12.5
0.6768105 2.0479221 0.46024817 9.5
0.57129049 -0.83156657 1.0265019 27.5
0.61734807 2.1396003 2.3780959 27.666666
0.63626587 2.0607154 2.4252982 29
0.91667211 -0.96237969 -0.038130838 2.4000001
1.1993783 -0.72260249 -0.14999746 0
0.9028762 0.53629464 -0.053999513 2
1.0819242 1.7725903 -0.077900916 2
1.0799927 2.0000105 -0.03600122 3
0.88605589 2.4479325 -0.10200207 2
1.019392 -0.98878103 0.18848397 7.2857141
1.0467238 -0.73267269 0.27945367 9.727273
0.80893719 0.93962157 0.080499828 5
1.0646821 1.7644662 0.19120939 6
0.90540731 -0.95763975 0.45450246 13.5
1.0278553 -0.70542192 0.60909688 16.90909
1.0122747 2.1479924 2.3824046 26.666666
1.0681882 1.9630158 2.5913987 29
1.0272607 2.0610127 2.4660153 28
1.1800326 2.7939608 2.5819979 24
1.1447058 2.8156204 2.5763311 24
1.381301 -0.86868382 -0.08349701 2
1.3196516 -0.62282473 -0.10658075 1.1666666
1.4368093 -0.21073414 -0.14799781 0
1.4116734 0.23204045 -0.14899844 0
1.4826638 0.49782193 -0.10537369 1.5
1.3837119 0.9109751 -0.09394937 1.25
1.4279325 1.8331079 -0.043500535 3
1.2279932 2.2880099 -0.086001411 2
1.4240066 -1.4395728 0.056003802 4
1.5165876 0.86210567 0.18395258 6.5
1.4778785 1.2052429 0.034000363 4
1.5420868 4.3439193 0.0069962828 3
1.272922 -0.73539996 0.60501933 15
1.4525696 -1.82402 2.3860042 27
1.323629 2.0935535 2.3882768 26.333334
1.4209619 -1.7345846 2.5118043 28.428572
1.4294248 -1.4327955 2.5815666 30.5
1.5966452 -1.1602521 2.5820036 31
1.4934844 1.5747546 2.5879169 29.5
1.3815545 1.8128496 2.589339 28.5
1.4251807 2.0713611 2.4404323 26.666666
1.2961785 2.7280686 2.579165 24.5
1.770893 -0.82379556 -0.061996557 2.5
1.7434583 -0.67667562 -0.098830119 1.75
1.8039157 -0.20074278 -0.14458066 1
1.683571 0.21034558 -0.14424805 1
1.6113316 0.58095568 -0.099498637 1.5
1.6703398 0.84971553 -0.040165581 2.5
1.7750942 -0.88321352 0.21656603 6.625
1.7025357 0.85094124 0.16669905 5.875
1.7757792 -0.91993988 0.43900359 10
1.7898322 0.85040838 0.44300124 10
1.8686439 -1.8324637 2.3781717 25.5
1.9173275 0.96340638 2.3947792 28.333334
1.7912688 -1.7467417 2.4663687 26.571428
1.8210731 -1.3923123 2.5168562 28.1
1.8275161 -1.0089763 2.5260727 29.6
1.8993974 -0.63956946 2.5168104 30.142857
1.9165868 -0.30881864 2.5908778 31
1.9235451 0.62539971 2.5935433 30.5
1.8900295 0.9921906 2.467886 28.799999
1.7816259 1.3811924 2.5901117 29
2.2239115 -0.91499889 -0.13599585 2
2.2178946 -0.79303145 -0.13499601 2
2.2279928 4.206008 0.17799738 4
2.1108146 -1.8189588 2.3782554 24.5
2.3417614 -2.2707 2.5923395 23.5
2.273114 -1.7718505 2.4760056 24.666666
2.0249989 -1.4494746 2.4125044 26
2.0064077 -0.9290033 2.4230037 28
2.2590339 -0.59016424 2.5377538 28
2.2313447 -0.21305372 2.5919974 28.799999
2.1402969 0.18108658 2.5915024 29.4
2.1488082 0.47173148 2.5904307 29
2.0463159 0.82496911 2.4585016 28.5
2.5075629 0.22395961 -0.13774697 2
2.4433057 0.55210954 -0.13699749 2
2.5919616 4.3700428 -0.018002359 3
2.6199584 4.3727136 0.23799767 4.6666665
2.4978015 -1.8385389 2.3946724 23
2.6849546 -2.6601276 2.5478904 21
2.4503002 -1.8421744 2.4391723 23.5
2.4328115 -0.58499694 2.5909898 27
2.4321196 -0.21393389 2.5920036 27.666666
2.5660524 0.61973459 2.5900159 26.4
2.4905789 0.92402405 2.5865576 26.333334
3.1508818 -0.62999564 -0.16199498 2
3.1969748 -1.3058388 0.76000595 10
2.8698087 -2.8567834 2.4040077 19
2.9166741 -2.6662829 2.4797854 20
3.1309714 -1.3003429 2.6120059 23
3.132844 -1.0084896 2.6150055 23.333334
3.1628828 -0.66848177 2.6130049 24
3.0958211 -0.030811064 2.6113374 24
3.048708 0.19119428 2.611037 24.333334
3.054796 0.43573436 2.6080036 24
3.1440604 0.94234997 2.602725 23
3.2558582 -1.7247095 -0.062993392 3
3.2653034 -1.2695088 -0.057993982 3
3.2526462 -0.955356 -0.083994418 2.6666667
3.287277 -0.58206016 -0.069061533 2.6666667
3.2904272 -0.25482067 -0.098578632 2.3333333
3.3035686 0.057356086 -0.085495695 2.5
3.3052421 -2.981539 0.15100834 4
3.4434457 -2.5466862 0.16900794 4
3.4626162 -2.1992538 0.095007509 4
3.2700241 -1.3648325 0.28317279 5.8333335
3.3437815 -1.0082079 0.21704048 5.25
3.3138962 -0.61106265 0.18799382 4.9285712
3.2940135 -0.19897258 0.18632726 5
3.3235867 0.099396437 0.18347751 4.875
3.2472339 -1.3581368 0.70156866 9
3.2701504 -1.0130628 0.59551042 8.2857141
3.2848256 -0.62015074 0.54583848 8.166667
3.2985306 -0.16933943 0.52453232 8
3.2899857 0.047690637 0.4785043 7.5
3.3402047 -1.3539835 0.99695063 11.5
3.2604754 -1.0922791 0.97313905 11.6
3.2518876 -0.68630451 0.99600524 12
3.3914845 -1.369476 1.3693396 14.166667
3.2808859 -0.67397088 1.2120053 14
3.5340056 -1.5027699 1.9695066 17.5
3.355257 -0.96873009 1.7973391 17.5
3.5290015 -1.4777752 2.0010066 18
3.3685875 -1.3134243 2.4296761 21
3.3739252 -0.98474056 2.4279056 21.4
3.3076584 -0.5691697 2.4896004 22.285715
3.351064 -0.19009703 2.4742968 22.285715
3.3603809 0.21237111 2.4308488 22
3.3612261 0.57775646 2.4778249 22.125
3.37886 0.99917924 2.4251144 21.166666
3.6946383 0.25009462 0.22995457 5.1999998
3.660615 -0.46598008 0.76425552 9.5
3.6580112 -0.26369265 0.77283853 9.666667
3.6792243 0.20953554 0.55408794 7.8333335
3.661855 -0.49028674 0.96606797 11
3.6580229 -0.18963417 1.0015759 11.5
3.655319 0.07712312 1.0101547 11.4
3.6671858 -0.56465656 1.3742445 14
3.6637542 -0.21549842 1.4159867 14.444445
3.6570747 0.10185277 1.4790826 15
3.6713653 -1.6567291 1.8036737 16
3.6691787 -1.5405847 1.8195069 16.333334
3.6509049 -0.821401 1.9280059 18
3.6607995 -0.58482105 1.7856827 17
3.6591933 -0.21224335 1.7769027 17
3.6574557 0.051153671 1.775227 17
3.6733613 -1.6357323 2.1821737 18.5
3.6694689 -1.2741787 2.2206318 19
3.6533263 -0.8599754 2.1564226 19
3.6570735 -0.58696508 2.149909 19.200001
3.652437 -0.19853963 2.1568048 19.6
3.6601465 0.18889321 2.1678646 19.200001
3.6616769 0.61511111 2.2344375 19.4
3.6503904 0.99923718 2.2508955 19.333334
3.6367679 1.2006482 2.1930034 19
3.6164739 0.18336923 2.414171 21
4.7957296 2.2126365 0.23500343 5
4.7862291 2.2191346 0.5625034 6.5
4.7977285 2.2166371 0.82600337 8
4.7487917 0.3629761 2.2170057 16
4.704977 0.59362441 2.2159305 16
4.6518826 0.97109276 2.2167549 16
4.9287419 1.3703038 -0.11399528 3
4.8834438 0.62031507 0.128089 4
4.8777661 1.0318629 0.19273566 4.5
4.9722071 1.3733431 0.23643811 4.5999999
5.0555606 1.79233 0.29389322 4.6666665
4.9071264 2.0898736 0.33840373 5
4.8849626 0.32833171 0.6576727 7.3333335
4.8877563 0.59974742 0.59582859 7
4.8820171 0.98367232 0.59479684 7
4.9824891 1.399161 0.61587977 6.875
5.0558376 1.8118827 0.65342098 7
4.9115262 2.0980234 0.58750373 6.8000002
4.880794 0.33932945 1.0016727 9.5
4.8818126 0.60246825 0.94486284 9
4.8816304 0.99818051 1.0108176 9.5
4.9911671 1.3980231 1.028362 9.2857141
5.0508924 1.8507036 0.9768042 8.8000002
4.9309988 2.0937371 1.0446347 9.2857141
4.878016 0.34377328 1.4427283 12
4.8730683 0.59943414 1.4372245 12
4.8769007 0.99774295 1.4081718 11.5
4.9401155 1.3318142 1.4442546 11.5
5.0107245 1.9537138 1.3480041 11
5.002223 2.0346985 1.3590039 11
4.8726282 0.32144415 1.8156728 14
4.8704758 0.60224414 1.8543392 14.2
4.876389 0.96820736 1.8070718 13.8
4.911406 1.3789477 1.8039005 13.5
4.9792833 1.7711859 1.8658932 13.333333
4.8127933 0.33698949 2.2210059 16
4.8697758 0.59494579 2.1050057 15
4.8768778 1.0249884 2.0167549 15
4.8829889 1.4046686 2.0501297 15
4.8447323 1.6847372 2.167671 15.5
