# .PCD v0.7 - Point Cloud Data file format
VERSION 0.7
FIELDS x y z intensity
SIZE 4 4 4 4
TYPE F F F F
COUNT 1 1 1 1
WIDTH 130
HEIGHT 1
VIEWPOINT 0 0 0 1 0 0 0
POINTS 130
DATA ascii
-16.07353 -16.748795 11.068191 17
-10.445498 -5.1606245 3.7014546 13
-10.237484 -5.3468127 4.1101804 14
-10.173089 -5.5406976 3.3686423 12
-9.2033987 -6.7630982 1.9468485 8
-9.0079813 -7.0499535 1.321813 7
-9.1168098 -6.6252518 2.241765 9
-8.9189768 -7.2228155 2.6793478 10
-8.8368616 -7.3120508 3.4237037 12
-8.3867655 -7.4517388 1.9429508 8
-8.2157774 -7.4795647 2.1423819 9
-8.3083811 -7.7951512 3.6328328 13
-8.2435122 -8.1415873 4.1586986 14
-6.655817 -3.5628135 3.7731061 17
-6.645474 -3.4145777 3.9278667 18
-6.4099321 -10.602366 3.9095178 12
-6.3514919 2.5050025 2.0069163 12
-6.3415847 -10.460292 3.9923635 13
-6.1756096 3.0544004 1.0737787 8
-6.1970048 2.9944921 1.2637887 9
-5.9749413 1.5382503 1.1584508 9
-5.9018521 1.1352056 1.7889711 12
-5.7496529 -1.5709219 1.0775616 9
-5.3472238 -2.4258256 0.24768393 5
-5.266293 -2.4351451 0.55385798 6
-4.8649592 1.4394944 0.054523442 4
-4.6098557 -0.14027624 0.4276638 6
-4.5541005 -1.0134902 -0.010062784 3
-4.4903989 -1.0792564 0.17015131 4
-4.4789143 -0.78241557 0.18774454 5
-4.5477438 -1.1245648 0.2011129 5
-4.4467235 -0.90306622 0.37297499 6
-3.0309711 2.9352102 0.50358117 7
-3.0754955 2.8486633 0.66856819 8
-2.8294473 3.0085156 0.31488603 5.5
-2.8694124 3.0407166 0.71279037 8.5
-2.9771771 -3.7415164 0.88036853 9
-2.9145422 -3.732965 1.0005027 10
-2.8932261 8.1227646 1.2728401 8
-2.8843126 -3.7023838 1.7025114 14
-2.8276067 -4.6481776 2.7138405 17
-2.8730965 8.1391373 3.043864 13
-2.7690401 2.9242454 0.080058739 4
-2.7555358 8.1403074 1.0830567 7
-2.7243929 -4.5620751 2.763907 18
-2.5822864 -4.7869325 2.7168121 17
-2.2850688 -3.5005147 2.9115577 22
-2.0424812 8.2341518 1.2121476 8
-1.8930672 8.2185116 0.77939731 6
-1.6427805 -3.0411885 0.57115 8
-1.6780605 -2.9431882 0.60782003 9
-1.7496829 -3.5799308 2.7461703 21
-1.5970285 -3.5295448 2.6944714 22
-1.5259527 -3.4321117 3.4154377 25
-1.5824265 -3.3703279 3.4921305 26
-1.3835884 2.2774 0.17298341 5
-1.3303198 2.5100074 0.083881915 4
-1.3733348 2.3143754 0.37547058 7.5
-1.2800162 2.4235404 0.39503562 8
-1.3948928 -3.4911582 2.8819504 23
-1.1068735 -3.1719744 3.7765071 28.5
-0.88892043 -2.206301 0.4072302 8
-0.82461607 -2.1435659 0.72826666 12.5
-0.62183577 -2.2432342 -0.060373988 2.5
-0.66443688 -3.2217519 2.9624658 25
-0.74414653 -3.2310166 3.0322418 26
-0.41596383 -3.4430568 0.41278639 7
-0.45034823 -3.4003119 2.3595843 21
-0.49743754 -3.2387862 3.5900402 28
-0.37891233 2.0329268 -0.046270967 3
-0.21432194 -3.4258859 0.041395757 4
-0.39941338 1.9993175 0.076729707 4
-0.37716553 -3.448714 0.27292439 6
-0.30581474 1.7673073 0.36405033 9
-0.31219369 1.7414466 0.425064 10
-0.22223522 -3.4083276 0.99933374 12
-0.24904422 -3.4021368 1.1072313 13
-0.30178457 -3.3929257 1.693041 17
-0.29395872 -3.3827929 1.8610423 18
-0.2682212 -3.2160726 2.9217186 25
-0.28122458 6.5532351 3.9941626 20
-0.061942056 1.5641415 0.18501461 6.5
-0.032754421 1.5428379 0.22056489 8
-0.15763225 1.6444868 0.45633847 11.5
0.065279052 -3.425823 0.1724245 5
0.05001973 1.5350245 0.29565883 9
0.12894641 6.5974159 4.0996814 20
0.39053017 -2.7018485 0.58095545 10
0.3912456 1.4972366 0.46699169 12
0.23327106 -3.2257326 3.7075489 29
0.41388091 -2.6193204 0.1210226 5
0.46173728 -2.5728743 0.062059682 4
0.54047471 1.52218 0.35708201 10
0.50194377 -2.6758323 0.52597225 9
0.56632352 1.5150985 0.45510346 11
0.9823457 -3.1168184 0.3545984 7
0.98512858 -3.0415771 0.69766521 9.5
1.0180339 -3.124516 0.27159336 6
1.2416269 -2.9205859 0.67779648 10
1.7653047 6.8743677 4.0093822 19
1.9008586 6.8305216 4.3365531 20
4.5364861 3.7745492 0.39284769 5
4.4265237 4.1492047 0.67772567 7
4.4133782 4.248817 0.65169317 6
4.7565084 2.7525826 0.18598616 4
4.7644625 2.5687122 0.36797911 5
4.7565107 2.5806615 0.43697894 6
4.7236848 2.6234901 0.69797748 7
4.7331967 2.7329073 0.92298263 8
5.0697107 7.3019319 5.6477184 20
5.2301259 7.4776516 5.1137214 19
5.6898313 -29.639143 16.42511 18
5.7002926 -29.229431 16.880436 19
7.1925054 -3.092623 0.37846068 5
7.1606064 -2.4807332 0.58302647 6
7.2268472 -3.1393788 0.69541943 6
7.2285905 -3.0937271 0.96546274 7
10.347005 -25.680899 15.702862 19
11.054043 -25.627453 10.634883 14
11.049726 -25.466208 21.768021 23
11.462012 -15.525092 4.4929562 10
12.434026 -15.413462 4.984148 11
12.775337 -25.334959 10.719125 14
12.723857 -25.225388 16.083221 19
13.18983 -24.890133 17.462528 20
19.506969 -14.885221 5.50139 10
19.618954 -14.845983 4.6454391 9
20.57688 -26.871119 20.547127 20
21.340488 -26.843426 20.169214 19
21.771471 -27.280743 13.369838 14
