# .PCD v0.7 - Point Cloud Data file format
VERSION 0.7
FIELDS x y z intensity
SIZE 4 4 4 4
TYPE F F F F
COUNT 1 1 1 1
WIDTH 410
HEIGHT 1
VIEWPOINT 0 0 0 1 0 0 0
POINTS 410
DATA ascii
-4.059835 -3.6897125 2.3606765 15
-3.9725211 -3.8568223 1.9147464 13
-3.9785128 -3.8958018 2.0227563 14
-3.8105943 -3.8665974 2.3347933 15
-3.6663582 -4.8158746 1.6221256 11
-3.2900591 -4.9037371 1.2942713 10
-3.2771204 -4.8916731 1.4652716 11
-3.324224 -4.8896117 1.7532558 12
-3.3643386 -4.8305893 1.8872237 13
-3.2408328 -5.3105149 2.0194237 13
-3.3904054 -4.8565187 2.1742239 14
-3.3170054 -4.3742909 2.540091 16
-2.8007472 -0.18424706 1.2132591 16
-2.7725561 -0.15344632 0.15826233 5
-2.7586026 -0.14605914 0.35559785 7
-2.7656291 -0.16735895 0.57376474 9.5
-2.6949635 0.27985927 0.44725335 8
-2.778666 -0.16133 0.72826177 11
-2.7542064 -0.1452807 0.86026543 12.5
-2.7767425 -0.15675041 1.0822618 14.5
-2.6921635 0.30806223 1.4042526 18
-2.6678553 -0.2060466 1.8342872 21
-2.6732163 -5.7201304 2.0187614 13
-2.574332 0.23380341 -0.077220351 2.5
-2.5788774 0.21435606 0.24627952 6.5
-2.5799394 0.21092179 0.58527946 10
-2.5989387 0.19191755 0.66227645 11
-2.5699787 0.21596709 0.7712813 12
-2.5950177 0.19000384 1.0832775 15
-2.5720539 0.21304621 1.1782811 16
-2.5790484 0.18604648 1.2582809 17
-2.5801494 0.19414926 1.7542803 21
-2.4838948 -0.15392268 1.8333192 22
-2.5113163 0.34431186 2.0722883 24
-2.597645 -5.392941 2.3396726 14
-2.5038471 -5.1878405 2.3796329 15
-2.3406174 -2.8402123 -0.0040992722 3
-2.3762081 0.74915707 -0.14668867 1
-2.3032751 0.83524829 -0.11067236 2
-2.3166437 -2.8461559 0.13490945 4
-2.2896504 -1.9359236 0.1156592 4
-2.3262916 0.82325536 0.047322433 4
-2.3143628 0.82733572 0.4643251 9
-2.3338351 -1.9317689 0.72864741 10.5
-2.2867951 -1.9927176 0.8726747 12
-2.3954632 0.77940887 1.2893072 17
-2.3127878 -0.27587804 1.8313625 23
-2.3139141 -0.14081086 1.8853517 24
-2.2925618 0.79556566 1.8063301 22
-2.222892 -0.22574085 2.1323757 26
-2.2839005 -0.19178391 2.0283613 25
-2.3139913 -2.2502997 2.5467365 23
-2.1314712 -2.0418808 0.074726917 4
-2.1715198 -1.9959067 0.01670434 3
-2.1409686 0.80503905 0.10569736 4.6666665
-2.0832336 -3.1980038 0.35609132 6
-2.1086998 -1.8962533 0.3261939 6.5
-2.1363356 0.80341083 0.32136509 7.5
-2.0854125 -3.0529649 0.41004342 7
-2.0416071 -2.0126851 0.53974223 9
-2.0707331 -1.8846955 0.4427003 8
-2.0513673 -1.3464822 0.56157529 10
-2.1478765 0.80994642 0.55686247 10.5
-2.022578 -2.0536597 0.62375861 10
-2.0074694 -1.2564148 0.60656589 11
-2.1203992 0.80798578 0.69586879 12.5
-2.0550272 -2.1606417 0.82977998 11.5
-2.1309326 0.82051224 0.8598665 14.5
-2.0711744 0.88194448 1.0867143 17
-2.1415009 0.8100813 1.3343641 19.5
-2.0141697 -1.2871828 1.5030711 20.5
-2.131515 0.79560488 1.4723662 21
-2.0586271 -1.4001687 1.7685857 22
-2.1084626 -6.1907697 1.8531442 12
-2.0346835 -1.3651193 1.861583 23
-2.0427768 -0.34969023 2.1374216 27
-2.1106861 -1.5030607 2.3635972 25
-2.0748599 -2.3151603 2.5538187 24
-1.8734117 -1.1254811 -0.066431865 2
-1.8247621 -0.81881493 -0.040477306 2.5
-1.9011971 -0.43566552 -0.06104292 2.5
-1.9164246 -2.0467317 0.18478455 5
-1.9467067 -1.2211654 0.14023843 5
-1.8333179 -0.81426549 0.15902026 5.5
-1.8308309 -0.77727723 0.041514914 4
-1.9448048 -0.37761301 0.1304429 5.5
-1.9239631 -2.049695 0.32028341 6.5
-1.9354565 -1.2044159 0.39857078 8
-1.9024587 -1.1654204 0.26656997 7
-1.8321686 -0.83156657 0.31219 8
-1.9313053 -0.40308931 0.25844795 7
-1.9418535 -0.37955865 0.36244369 8.5
-1.9415131 -2.044663 0.45377731 8
-1.9394587 -1.210412 0.42857119 9
-1.8609161 -0.80718625 0.50851357 11
-1.9577134 -0.38770235 0.51510811 11
-1.9283882 -0.4129943 0.67994952 13.5
-1.992514 -1.2893291 0.93357611 15
-1.8429792 -0.84507895 0.95252335 16
-1.9044046 -0.45193848 0.94245821 17
-1.9559436 -0.39496335 0.83794254 15.5
-1.8168219 -1.0370766 1.195563 19
-1.8060019 -0.84602809 1.077531 18
-1.9119644 -0.4203991 1.0639535 18.5
-1.9525144 -0.41387549 1.2444451 20.5
-1.8607832 1.2064558 1.7389379 23.5
-1.8009839 -1.0478853 1.8885685 25
-1.9437326 -0.39664996 2.1594448 28
-1.932907 -5.8604484 2.3100898 14
-1.9884408 -1.7050424 2.3586743 25
-1.9286745 -1.4749506 2.3606324 26
-1.9359906 -3.0696836 2.5290956 21.5
-1.9011385 -2.0080011 2.5367775 26
-1.924578 -1.5889479 2.4606607 27
-1.6550261 -3.1158504 -0.056797791 3
-1.758656 -0.87333828 -0.15445487 1
-1.6614785 -0.59014064 -0.11497855 1.5
-1.6740049 -3.200804 0.15322506 5
-1.7201092 -3.0928588 0.037172813 4
-1.7239126 -0.91377449 0.094559409 4.5
-1.6640301 -0.59008777 0.10202097 5
-1.733371 -0.9242292 0.29955935 8
-1.672038 -0.61107004 0.23202218 7.5
-1.6670909 -0.59002596 0.35652035 9
-1.7430985 -0.92050844 0.51522338 11
-1.6697762 -0.60533035 0.50852185 11.666667
-1.6991202 -0.58701831 0.44551376 11
-1.7408348 -0.90244716 0.71388727 14
-1.6881739 -0.59794688 0.73251742 15
-1.7613484 -0.95057666 0.96505851 16.5
-1.6641976 -0.60656643 0.88918978 17
-1.786815 -1.0050874 1.0535631 18
-1.6802264 -0.64285374 1.170525 21
-1.7082729 -0.58186686 1.0660113 19.5
-1.7659003 -0.98799556 1.3315643 21
-1.6712481 -0.6388278 1.2485263 22
-1.7404583 -0.95793945 1.450564 22.5
-1.7654086 -0.54928321 1.4679961 23.5
-1.759326 -0.68777049 1.738516 26
-1.71659 -0.9333024 1.8835645 26.5
-1.7118703 -0.66720623 1.8620222 27.5
-1.7998564 1.309051 1.9374555 25
-1.6690347 -0.56007951 2.1085162 29.5
-1.7086238 -3.2880967 2.3672438 20
-1.7368852 -1.241776 2.3736229 28
-1.7642236 -0.9017216 2.2435491 29
-1.6945013 -0.65356576 2.3615236 31
-1.6674832 0.50689787 2.2234678 31
-1.7177564 -1.4017538 2.5596638 29
-1.5034952 -3.5487733 0.0094063776 3
-1.5125993 -3.5436797 0.29940131 6
-1.4626087 -3.5805712 0.51943249 7
-1.5008886 1.7211943 0.81354296 14
-1.5794429 1.5507293 1.8490183 24.5
-1.5241355 -6.384182 2.1264498 13
-1.5188739 1.2532295 2.1755257 28
-1.490431 -3.3969347 2.3883574 20
-1.4887768 -3.0749152 2.3702445 21
-1.5190284 -1.0621053 2.3676322 30.5
-1.4484191 -4.3529105 2.5137196 18
-1.5535177 -1.5756967 2.5587487 29
-1.4487038 -1.3790936 2.5522232 30.5
-1.2870021 1.8324149 1.571601 22
-1.2958789 -2.915755 2.3782556 23
-1.3725814 -2.3527064 2.5350368 26
-1.1074338 1.4857242 1.8533918 26.75
-1.1999254 1.3654345 2.1696138 30
-1.1349525 1.446485 2.1656334 29
-0.81874615 1.2044526 0.59871358 15
-0.80175984 1.1954761 0.75171816 18
-0.90247941 -3.6119788 0.98165655 11
-0.82149589 -3.5908794 1.0706811 12
-0.6883297 0.90413475 -0.068510048 1.5
-0.70519018 0.90258896 0.09793485 6
-0.68741763 0.90602458 0.30054033 11
-0.60870475 1.0505224 0.29726946 10.5
-0.72742957 -3.5129118 0.7616896 10
-0.74624926 1.1674937 0.64423317 16.5
-0.76276541 1.1745024 0.82522863 19.5
-0.70029986 -3.267231 2.5386081 23
-0.73800015 -2.6362462 2.5313575 26
-0.58565396 0.98048979 -0.031226009 2.5
-0.5829075 0.96399748 0.082024224 5.5
-0.46572474 1.0166016 0.17381102 8
-0.45573202 1.0131134 0.24381395 9.5
-0.53071833 0.9970752 0.44429109 14.5
-0.47941491 1.0169548 0.53847373 16.666666
-0.52674419 0.99060518 0.77829206 21.5
-0.48226103 1.0206337 0.69930631 19.5
-0.49276289 0.9946363 0.87930244 23.5
-0.48377499 1.0036505 0.96280533 25
-0.40183046 1.1077201 1.0138315 25
-0.29574007 -1.2614334 -0.053984899 2
-0.34366429 0.78094989 -0.071824335 0.33333334
-0.32718959 -1.3022308 0.10601901 5.5
-0.23052697 -1.18563 0.2000102 8
-0.26676023 0.86072189 0.33686873 14
-0.21028042 0.81976104 0.42738587 17.5
-0.34186664 1.1947649 1.0498486 24
-0.24342172 1.3383332 1.2883737 26.5
-0.2914415 -1.9769104 2.3592837 29
-0.20659909 -2.7767789 2.5286257 25
-0.32116434 -2.3088717 2.5493984 28
-0.16677578 0.81076431 -0.057100605 1
-0.016628448 -0.895509 0.16047697 8.5
-0.043206446 0.95019788 0.14293309 8
-0.14959703 -1.0615733 0.20299272 9
-0.078650311 -0.9545244 0.21297747 10
-0.1105477 0.87025279 0.28962958 13
-0.14858729 -1.6159805 0.50895303 12.5
-0.14632183 0.84331077 0.50957197 19.5
-0.14715226 -1.6204046 0.70620531 16
-0.052180193 -1.4983658 0.61219639 15
-0.11521801 -1.5913196 0.86420697 18
-0.19593093 1.3888501 1.1748852 24
-0.024974674 1.6379132 1.1939185 22
-0.029644199 1.6265829 1.3302513 24
-0.0088755256 -3.3795812 2.5459468 23
0.073574543 1.1274163 -0.054044183 1.5
0.11772218 1.1869364 0.045963489 4
0.1768056 -1.150354 0.20815404 9
0.095723465 1.1786003 0.33362576 11.333333
0.085058697 1.1469326 0.44095796 14
0.061197985 -1.2997748 0.61966527 16.5
0.1968603 -1.4450617 0.86028051 19
0.13418666 -1.3191198 0.8592034 20.5
0.16002378 1.5162063 0.8989597 19.5
0.073916726 -2.1245747 2.3534939 28
0.17828943 -3.4553924 2.5410619 22
0.020156441 -2.4425576 2.5315948 27
0.27392697 -1.0963674 -0.0018260727 3
0.33800665 1.4462417 -0.089506567 1.5
0.26889354 -1.1150717 0.1116797 6.25
0.34300461 1.4412442 0.11374452 5.5
0.29377654 -1.0432273 0.30416098 11
0.3480033 1.4426626 0.28066191 9
0.22067596 -1.1301614 0.59416461 18
0.33564359 -0.97407943 0.58115095 19
0.35450158 1.4407479 0.4842464 12.5
0.24366063 -1.1540797 0.74218428 20
0.34759998 -0.93804657 0.64064139 20.5
0.3197563 1.452741 0.69074029 16.5
0.28259522 -1.0979989 0.86167848 22.5
0.35552177 -0.94993764 0.87414974 25
0.31500593 1.4549912 0.89965624 20
0.3095054 1.4394922 1.0774893 22.5
0.35266647 1.4346663 1.2843299 25
0.58723575 -0.6531657 -0.035871889 2
0.58730751 -1.3139915 0.16140763 7
0.56251055 -0.67996174 0.085128345 6.3333335
0.5899871 1.7683525 0.1076827 5
0.55670226 -1.283465 0.29738057 9.5
0.57854044 -0.65780735 0.3161262 13.6
0.59598744 1.7570187 0.3200171 8
0.53784311 -0.69714934 0.5169245 19.4
0.41163096 -0.91098601 0.65015858 21
0.57060528 -0.66787189 0.61812705 22
0.45757264 -0.89785081 0.85817415 24
0.52851826 -0.75054055 0.86464375 26
0.53699487 1.7550094 1.0320098 19
0.50222075 -2.1991286 2.3467209 27
0.59492707 -2.9269428 2.5460532 24
0.56407213 -2.1049697 2.5617139 29
0.66464287 -1.13635 0.32937241 10.5
0.60680932 -0.66302252 0.21814191 10
0.60466743 -0.66587448 0.53414237 19.5
0.64472437 -0.89566457 0.82926178 23
0.69845611 -2.3379061 2.3478718 26
0.64600527 2.0950027 2.3873448 28
0.66722894 -2.2088544 2.5548053 28
0.80502141 -0.56495965 -0.08380571 1
0.88802451 2.372993 2.3910284 26
0.96163321 -2.4345539 2.4460418 26
0.99240482 -2.2324691 2.5449777 27
0.89002591 2.1229868 2.5890355 29
0.93202972 2.2644873 2.5095356 27.5
1.1852971 -1.0971193 0.56312054 13.5
1.0160366 2.6069882 2.3770337 24
1.39855 -1.0500585 0.11471253 5
1.2954669 -1.1370701 0.36769477 10
1.3747848 -0.93991947 0.45715347 11.5
1.3393559 -1.2647595 0.89077061 17
1.2828311 -1.5230621 2.5418463 31
1.2960275 1.7349106 2.5820646 30
1.3290703 3.2079709 2.4010446 21
1.5445054 0.65698588 -0.030984508 3
1.4057482 -1.2310895 0.029791567 4
1.5484662 -0.93981552 0.19074507 6
1.5652957 0.70771545 0.11801828 5.5
1.4225134 -2.1929467 0.28718537 7
1.5895741 0.74094504 0.26001906 8
1.5078062 -0.94720948 0.51022685 11.5
1.4491837 -0.92170256 0.68393493 14.5
1.4273442 -1.1996548 0.85979015 16
1.5250963 3.0769432 2.3920591 22
1.459092 2.9299421 2.5930579 23
1.6336901 -0.85630071 0.30742103 8
1.6512403 -0.83525175 0.51400459 11.5
1.6384993 0.55788803 0.57199556 13
1.6246103 0.78091562 0.46801955 11
1.7457037 0.98988038 0.59602678 12
1.781373 0.34780595 0.70195067 14.5
1.6951767 0.90038246 0.66852367 13.5
1.7366534 0.82384872 0.82951343 15.5
1.6412046 -1.6946745 2.3511047 26.5
1.7160165 -1.493539 2.370564 27.5
1.7601259 3.3479207 2.3200676 20
1.7808546 0.93467975 2.5720196 31
1.6749495 1.3102831 2.408051 28.5
1.7149996 1.4937814 2.5810566 29
1.9672071 0.21479449 0.17040431 5.5
1.9632 0.1892824 0.25290024 7.5
1.9682251 0.20276509 0.37290207 9
1.9070718 0.49516115 0.26562342 7
1.8579916 0.31913444 0.49793637 11
1.9034514 0.51679659 0.54996037 11
1.8187164 1.0578728 0.49902621 10
1.9192199 0.13773617 0.66889691 13.5
1.9262853 0.20772348 0.79690856 15
1.8252972 0.19674461 0.91992027 17
1.8623281 0.24873951 0.89642423 17
1.9261079 3.2879307 1.007075 11
1.8751279 3.2819114 1.8995733 17.5
1.8881141 -1.5363085 2.3511732 26
1.8059162 1.1887259 2.4040365 28
1.8650098 1.588757 2.4620545 27
2.0653074 0.41080198 -0.04007547 3
2.0747454 1.310864 -0.034974035 3
2.1213188 0.41576973 0.054918215 4
2.1633132 1.5018407 0.10903315 4.5
2.1523058 1.4328245 0.28002918 6.5
2.0751972 0.13769431 0.5278753 10.5
2.1508036 1.3878092 0.42602602 8
2.0418105 0.84056896 2.5659862 29
2.2548132 0.86349362 2.5709662 28
2.4599762 -0.062405478 -0.018220171 3
2.4999461 2.1208098 -0.064950384 3
2.4690096 -0.059441362 0.1947792 6
2.4684608 2.1198022 0.15855099 4.5
2.4680262 -0.063462198 0.33027846 7.5
2.4789741 2.1237869 0.35105079 6.5
2.4680371 -0.071481034 0.44577667 9
2.5550473 -0.14559342 0.86274755 13
2.550194 3.023741 2.1870794 18
2.5269179 1.2574918 2.3679829 24
2.5952737 -0.76301783 2.548228 26
2.4110765 -0.46687198 2.5396907 27
2.520155 -0.32886288 2.4027095 26
2.5371301 2.1816232 2.583051 23
2.7218359 -0.25653851 -0.035302576 3
2.6975813 -0.63061732 0.18560618 5
2.731848 -0.26055863 0.060695026 4
2.687582 -0.64763123 0.27560306 6.5
2.6652708 -0.70951492 0.48174119 8.5
2.6756239 -0.66668957 0.61859983 10
2.7612603 -0.16992256 2.3837121 25
2.7120292 -2.3071394 2.5329266 22
2.6633277 -1.669107 2.5351467 23.5
2.7435093 -0.94783723 2.5433891 25
2.716953 -0.66204816 2.5415952 25
2.6383426 -0.07187324 2.5477524 26
2.6218793 1.1274282 2.4039588 24
2.9425485 -1.7009037 0.17081037 5
2.9684148 -1.5368843 0.095757477 4
2.9442737 -0.89805925 0.2951411 6
2.9567664 -0.41370189 0.20462476 5
2.9218259 -0.35719869 0.33164394 6.5
2.8285201 -0.94277245 0.54443169 9
2.8288682 -0.33368582 0.51966321 8.5
2.874068 2.5567064 0.56005317 8
2.8617785 -0.48674735 0.64962006 10
2.9090729 2.5356863 0.68505043 9
2.8830826 2.5466859 0.81505227 10
2.8610988 2.5596781 1.0510541 11.5
2.8951111 2.5456526 1.2610519 13
2.9031196 2.5346386 1.4140508 14
2.8871336 2.5436301 1.623052 15
2.8701553 2.5446124 1.9710529 18
2.8122168 -2.3810976 2.34501 20
2.9915059 0.26108721 2.3947732 23
2.8132 -2.4110479 2.4520226 21
2.934639 -1.0415705 2.5405319 24
2.9142869 -0.76052642 2.5583985 24
2.8102226 -0.23496127 2.4006898 24
2.8094702 0.14710863 2.5647755 25
2.9805925 0.39010021 2.5658002 24
2.9676707 0.55914783 2.5628333 24
2.8261209 2.0515096 2.5870256 22
3.019783 -0.55888134 0.95907843 12.5
3.0035005 -2.6108503 2.3532045 19
3.0526109 0.4711113 2.4168057 23
3.0120809 1.8284065 2.5809941 22
3.2657938 -1.9293479 2.3650787 20
3.2131536 2.2994437 2.2940166 19
3.3082786 -1.5561126 2.5529509 22
3.3611133 -0.46627527 2.5635533 23
3.3090749 1.8073015 2.5179658 21
3.6370976 1.9362204 2.3839486 19
3.8645744 -1.5565817 0.063252099 4
3.9464455 -1.4833362 2.1652663 18
3.9007976 -0.96261585 2.4933422 20
3.8939559 1.3789909 2.4818501 20
4.1029096 -0.76962966 2.3633659 19
4.1950979 -0.46959117 2.3674321 19
4.0790148 1.6089839 2.3848617 18
4.0900002 -0.678635 2.5653932 20
4.3849521 -0.71773487 2.3663399 18
4.4147844 0.86964554 2.5816996 19
4.7552261 -0.25476623 2.3714061 17
4.8421788 -0.30879617 2.2413809 16
