# .PCD v0.7 - Point Cloud Data file format
VERSION 0.7
FIELDS x y z intensity
SIZE 4 4 4 4
TYPE F F F F
COUNT 1 1 1 1
WIDTH 996
HEIGHT 1
VIEWPOINT 0 0 0 1 0 0 0
POINTS 996
DATA ascii
-2.0400686 -1.3519223 -0.20104702 0
2.3402524 0.26328152 -0.20144942 0
-3.1092706 -2.4069312 -0.11271897 0
-3.0452166 -2.3547449 -0.12637517 0
-2.9811623 -2.3025587 -0.14003138 0
-2.9171083 -2.2503724 -0.15368758 0
-2.8659921 -2.2701967 -0.10660595 0
-2.798744 -2.2173975 -0.11970446 0
-2.853054 -2.1981862 -0.1673438 0
-2.7602482 -2.1552992 -0.15690148 0
-2.664248 -2.1117992 -0.14590149 0
-2.3085854 -2.1581395 -0.10442108 0
-2.2468972 -2.1460125 -0.1105112 0
-2.1777792 -2.1242936 -0.11316609 0
-2.5969999 -2.059 -0.15899999 0
-2.2426605 -2.0309064 -0.14981723 0
-2.1699166 -2.0425434 -0.13269915 0
-2.1550877 -1.9617077 -0.15440944 0
-2.0569959 -1.9410695 -0.14126214 0
-1.9836121 -1.9348085 -0.1382288 0
-1.1664416 -1.925917 -0.18412568 0
-2.1248746 -1.8983371 -0.15401797 0
-2.0593212 -1.8381462 -0.15730111 0
-1.9565862 -1.8510855 -0.1512886 0
-1.8541672 -1.8084852 -0.1549373 0
-1.5322379 -1.8910928 -0.18198819 0
-1.4751663 -1.8231624 -0.18110435 0
-1.1481419 -1.852717 -0.18244168 0
-1.9481598 -1.7583259 -0.16316925 0
-1.8605272 -1.7386618 -0.15693896 0
-1.7894448 -1.7453234 -0.16329153 0
-1.4188569 -1.7561393 -0.18023229 0
-1.2168856 -1.7539382 -0.17933333 0
-1.1644849 -1.7535025 -0.18054715 0
-1.0617558 -1.7304317 -0.17946653 0
-0.95457202 -1.7268833 -0.1780827 0
-1.8626605 -1.6575731 -0.16715056 0
-1.7593111 -1.6652652 -0.16674531 0
-1.6585995 -1.6176625 -0.17997809 0
-1.4760934 -1.6468948 -0.18094482 0
-1.3343925 -1.6556044 -0.17892422 0
-1.262773 -1.6488737 -0.17974563 0
-1.1488554 -1.6513581 -0.17879409 0
-1.0562028 -1.6436061 -0.17829229 0
-0.97684294 -1.6514393 -0.17879333 0
3.3681152 -1.6300088 -0.10393663 0
-1.7513032 -1.5760673 -0.17205952 0
-1.6611716 -1.5552211 -0.1688199 0
-1.5440159 -1.5453596 -0.18097889 0
-1.4447404 -1.554299 -0.17851512 0
-1.3224478 -1.5336316 -0.17981495 0
-1.2577811 -1.5638502 -0.17930523 0
-1.1453795 -1.5432637 -0.17719927 0
-1.0529444 -1.5459392 -0.17860548 0
3.1346462 -1.5088035 -0.14897466 0
3.2513807 -1.5694062 -0.12645565 0
3.3889883 -1.530133 -0.11692087 0
3.4431999 -1.5354729 -0.10302432 0
-2.1125646 -1.4311035 -0.13217679 0
-1.6539682 -1.4665724 -0.17685415 0
-1.5447754 -1.4556082 -0.17780805 0
-1.4605159 -1.4419445 -0.17833884 0
-1.3522885 -1.4480804 -0.17673704 0
-1.2638321 -1.4411888 -0.17796151 0
-1.1569487 -1.4456862 -0.17652136 0
-1.0665001 -1.45225 -0.17725 0
2.9790001 -1.428 -0.17900001 0
3.056823 -1.4684017 -0.16398734 0
3.1471953 -1.4196532 -0.15416835 0
3.2400012 -1.4452353 -0.13472414 0
3.3396444 -1.4525287 -0.12303545 0
3.4804506 -1.4772131 -0.10612362 0
3.5540559 -1.4341964 -0.10780084 0
-2.0435035 -1.3879654 -0.14068286 0
-1.9420646 -1.3246034 -0.15317678 0
-1.7708707 -1.3141215 -0.17791902 0
-1.688 -1.329 -0.177 0
-1.5322924 -1.3276963 -0.17771123 0
-1.4547037 -1.3519826 -0.17676803 0
-1.3429819 -1.3513908 -0.17661099 0
-1.2561129 -1.3356389 -0.17633846 0
-1.1510438 -1.3366542 -0.17626871 0
-1.0856667 -1.3773333 -0.17533334 0
1.3644478 -1.3337624 -0.18068156 0
2.9860001 -1.346 -0.17900001 0
3.0531683 -1.3586067 -0.162452 0
3.1616955 -1.3670321 -0.1474065 0
3.2352252 -1.3706067 -0.14206181 0
3.353528 -1.3475981 -0.14290042 0
3.4572949 -1.3621831 -0.12599379 0
3.5219936 -1.3564119 -0.11486258 0
-1.9449482 -1.256776 -0.19497208 0
-1.8521961 -1.2382523 -0.1849411 0
-1.773 -1.219 -0.17399999 0
-1.6686707 -1.2374327 -0.17554742 0
-1.5409522 -1.2474543 -0.17663382 0
-1.447104 -1.2625946 -0.1762569 0
-1.34921 -1.2370396 -0.17574467 0
-1.2585418 -1.2503769 -0.17475879 0
-1.1601126 -1.2518328 -0.17446242 0
1.2697914 -1.24305 -0.1647262 0
2.7557878 -1.2194133 -0.17918928 0
2.8380113 -1.2560899 -0.17958795 0
2.9390588 -1.2861917 -0.17949665 0
3.0717418 -1.2995355 -0.1660206 0
3.1750002 -1.2455001 -0.177 0
3.2607677 -1.2524738 -0.15216948 0
3.356977 -1.2610557 -0.1309374 0
3.4380713 -1.2576318 -0.10105438 0
-1.9140801 -1.1924708 -0.19427438 0
-1.8687168 -1.144081 -0.18708766 0
-1.7450659 -1.1613576 -0.18498564 0
-1.645185 -1.1591954 -0.17368492 0
-1.5515035 -1.1566565 -0.17472596 0
-1.4531487 -1.157901 -0.17543475 0
-1.3354582 -1.1615077 -0.17522304 0
-1.2399113 -1.1480707 -0.17410871 0
-1.1638334 -1.1498333 -0.17400001 0
1.1435827 -1.1221 -0.14345239 0
1.206687 -1.182575 -0.15408929 0
2.5502291 -1.1277215 -0.17819263 0
2.6612792 -1.1423684 -0.17687427 0
2.7315645 -1.1355716 -0.17452334 0
2.8498363 -1.1443907 -0.17604488 0
3.02 -1.114 -0.178 0
3.1454215 -1.1570895 -0.15491632 0
3.2480788 -1.1125621 -0.1365793 0
3.3294384 -1.140416 -0.12310573 0
3.4107981 -1.1682701 -0.10963216 0
-1.8201317 -1.0639104 -0.16740517 0
-1.7546536 -1.0619359 -0.17789973 0
-1.6357268 -1.0533444 -0.1824055 0
-1.5368443 -1.051731 -0.17612509 0
-1.4459366 -1.0492398 -0.17278957 0
-1.3529148 -1.064389 -0.17400591 0
-1.2646583 -1.0482415 -0.1753823 0
-1.18575 -1.066 -0.17275 0
1.0489261 -1.0313876 -0.12749703 0
2.3446705 -1.0360299 -0.17719598 0
2.4373431 -1.0362831 -0.17656113 0
2.5664234 -1.0684288 -0.17539251 0
2.6502628 -1.0301366 -0.17862117 0
2.775631 -1.0777065 -0.17830297 0
3.0446796 -1.042927 -0.17026322 0
3.1667192 -1.0847081 -0.15005286 0
-1.7340187 -0.94868267 -0.14890906 0
-1.6479594 -0.94348192 -0.16424258 0
-1.553678 -0.95039397 -0.17357115 0
-1.4449606 -0.94714504 -0.17691153 0
-1.354198 -0.95608658 -0.1715429 0
-1.2585168 -0.95128483 -0.17180079 0
0.95426965 -0.94067514 -0.11154167 0
1.648 -0.92400002 -0.116 0
2.060348 -0.91306722 -0.17591031 0
2.1668971 -0.93162405 -0.17698205 0
2.249294 -0.96674812 -0.17696407 0
2.3382244 -0.94342715 -0.17802994 0
2.4413157 -0.95085323 -0.17915149 0
2.5248945 -0.98256654 -0.17893936 0
3.0676625 -0.91563731 -0.12420481 0
3.1806955 -0.94736165 -0.11372933 0
3.2646129 -0.96224618 -0.10937701 0
-1.7286477 -0.89275676 -0.14314656 0
-1.6497132 -0.86123759 -0.15538973 0
-1.5476964 -0.84652549 -0.16212304 0
-1.4509392 -0.84833437 -0.16687752 0
-1.3474804 -0.84386998 -0.17239608 0
-1.2349999 -0.84975004 -0.17037499 0
0.89116532 -0.88020015 -0.10090477 0
1.5710466 -0.88061619 -0.10652024 0
1.7758083 -0.8132481 -0.17467052 0
1.8741438 -0.8301 -0.17470458 0
1.9504956 -0.85910434 -0.17598246 0
2.0625596 -0.84946442 -0.17829813 0
2.1496401 -0.83206779 -0.17948742 0
2.2741578 -0.88742661 -0.17957574 0
2.7569799 -0.83122742 -0.14017901 0
2.8918729 -0.84548879 -0.12537462 0
2.9361668 -0.8495 -0.12916666 0
3.0337255 -0.84446013 -0.11923593 0
3.1264925 -0.85306174 -0.10459776 0
3.2274811 -0.84963363 -0.10545486 0
3.3146417 -0.87384486 -0.10260648 0
-1.5062566 -0.77548647 -0.169276 0
-1.4345083 -0.7569043 -0.17007101 0
-1.3492017 -0.75642306 -0.16717654 0
-1.2578334 -0.73250002 -0.16899998 0
1.5419233 -0.70929921 -0.1724682 0
1.6623688 -0.74184769 -0.17333086 0
1.7665443 -0.74291444 -0.17455739 0
1.8572242 -0.76053905 -0.17569916 0
1.9404567 -0.74709779 -0.17665401 0
2.0529416 -0.7536872 -0.17580645 0
2.109 -0.759 -0.175 0
2.369992 -0.72249097 -0.1610716 0
2.4594374 -0.72445345 -0.15034801 0
2.5459242 -0.7486605 -0.14535333 0
2.6324115 -0.77286756 -0.14035866 0
2.7269068 -0.74486256 -0.12829974 0
2.8270075 -0.75048643 -0.12442106 0
2.9518642 -0.75959396 -0.11696921 0
-1.3588516 -0.68693691 -0.16629474 0
-1.2839999 -0.66600001 -0.17200001 0
1.3815 -0.63049996 -0.171 0
1.4604048 -0.63796109 -0.17243302 0
1.5528725 -0.65347713 -0.17288657 0
1.6437217 -0.64555544 -0.17383365 0
1.7275482 -0.65821046 -0.17438681 0
1.8440065 -0.64538437 -0.1737518 0
1.9514983 -0.65211028 -0.17355227 0
2.0592899 -0.66243064 -0.17272544 0
2.1342437 -0.64485353 -0.17150266 0
2.2582932 -0.66052651 -0.1603272 0
2.3779535 -0.65018123 -0.14964987 0
2.4436364 -0.62573671 -0.15136725 0
2.551441 -0.64853626 -0.14572001 0
2.6610236 -0.68133825 -0.13672724 0
2.7661412 -0.6927194 -0.13354638 0
-3.0011101 -0.5027597 -0.17202671 0
-2.9763417 -0.54030061 -0.16555996 0
-2.8918419 -0.51280057 -0.16755995 0
-1.7271338 -0.54244834 -0.14171453 0
-1.6540554 -0.52873254 -0.1489199 0
-1.5779818 -0.51915836 -0.16494195 0
1.3876667 -0.56533337 -0.171 0
1.452477 -0.54574627 -0.17229772 0
1.5598506 -0.55301791 -0.17251195 0
1.6432463 -0.53588057 -0.17204234 0
1.7396032 -0.55133325 -0.17177723 0
1.8531947 -0.55869615 -0.17197253 0
1.9458563 -0.53268892 -0.17104596 0
2.031075 -0.54384238 -0.17191708 0
2.1473672 -0.54353005 -0.17415622 0
2.2480299 -0.57937503 -0.16204993 0
2.3331833 -0.58434838 -0.16458468 0
2.4559462 -0.51408082 -0.14845048 0
2.5576003 -0.52739406 -0.14271146 0
2.661087 -0.53734303 -0.12954563 0
2.7528915 -0.54775548 -0.11860599 0
-4.4534001 -0.43679565 -0.10049424 0
-4.3639202 -0.4308365 -0.1139954 0
-4.2744403 -0.42487738 -0.12749654 0
-4.1849604 -0.41891825 -0.14099769 0
-4.0507402 -0.40997958 -0.16124943 0
-3.0039999 -0.43000001 -0.17200001 0
-2.9378917 -0.44874781 -0.17493337 0
-2.8310001 -0.493 -0.169 0
-1.6335397 -0.48871136 -0.15446404 0
-1.5410891 -0.47847381 -0.16486517 0
-1.4603422 -0.45922893 -0.17626241 0
-1.3885 -0.43099999 -0.1795 0
1.3933334 -0.43333331 -0.16933334 0
1.453787 -0.45934516 -0.17086186 0
1.5605165 -0.44501749 -0.17099677 0
1.6551689 -0.44155309 -0.17134883 0
1.746364 -0.44766548 -0.17185707 0
1.8584071 -0.45951641 -0.172819 0
1.9605068 -0.43488321 -0.17383862 0
2.0623088 -0.44963211 -0.1732842 0
2.1535041 -0.43496284 -0.1662239 0
2.2301998 -0.45169187 -0.16662729 0
2.3351281 -0.47113502 -0.15314116 0
2.4456971 -0.47871295 -0.13910596 0
2.5768535 -0.49461749 -0.12273919 0
1.386 -0.398 -0.17 0
1.4463639 -0.34385002 -0.17076698 0
1.5530423 -0.36050579 -0.17159122 0
1.6527599 -0.34344426 -0.1716391 0
1.7400688 -0.34882361 -0.17243668 0
1.8407345 -0.35087854 -0.17240174 0
1.9354208 -0.35643739 -0.17090249 0
2.0342546 -0.35621771 -0.1676712 0
1.385 -0.24700001 -0.16749999 0
1.4616446 -0.24427086 -0.17021549 0
1.549925 -0.25296584 -0.16979457 0
1.6444284 -0.25456542 -0.16974977 0
1.7469673 -0.24410053 -0.16815172 0
1.8513777 -0.25072908 -0.16725656 0
1.9647065 -0.24931662 -0.16611856 0
2.0311687 -0.23386002 -0.16348721 0
2.1648602 -0.22497991 -0.15337345 0
2.2615969 -0.22266567 -0.15132399 0
2.348419 -0.22925185 -0.14434043 0
2.4502106 -0.23639938 -0.13332272 0
2.551347 -0.24470663 -0.12805218 0
2.6543014 -0.2369757 -0.11664116 0
2.736685 -0.27702042 -0.12189794 0
1.387 -0.189 -0.169 0
1.4569668 -0.13536978 -0.16915442 0
1.5568279 -0.14956997 -0.16956931 0
1.6574848 -0.1521301 -0.17015348 0
1.748705 -0.14824648 -0.16991299 0
1.8305817 -0.14564005 -0.1700405 0
1.9449509 -0.15789288 -0.16904716 0
2.0428376 -0.14648414 -0.17155845 0
2.1385562 -0.17024526 -0.16877717 0
2.2597532 -0.14627047 -0.14799829 0
2.3584359 -0.14543049 -0.13816884 0
2.4536037 -0.14873168 -0.12976454 0
2.5548415 -0.16838658 -0.12474573 0
2.6273715 -0.18456537 -0.11826341 0
1.37125 -0.060000002 -0.167 0
1.4488176 -0.055150844 -0.16689472 0
1.5499226 -0.054824468 -0.1676832 0
1.6436199 -0.049331218 -0.16776125 0
1.7470104 -0.043733094 -0.16821805 0
1.8506699 -0.052547254 -0.16915756 0
1.9589154 -0.054219104 -0.17029336 0
2.0464962 -0.057314023 -0.16741531 0
2.1643779 -0.062616721 -0.14894605 0
2.2534468 -0.042520631 -0.1340832 0
2.3329639 -0.03376152 -0.12276729 0
2.440001 -0.028101493 -0.1131155 0
1.3658001 0.058600001 -0.1666 0
1.4541734 0.035354342 -0.16752304 0
1.5481545 0.045893159 -0.16789666 0
1.633242 0.047823761 -0.16810821 0
1.7398193 0.053051434 -0.16809306 0
1.8539022 0.049688976 -0.16894215 0
1.9710708 0.0386113 -0.16869426 0
2.0478976 0.033713613 -0.16544466 0
2.1428556 0.028516084 -0.15424579 0
2.2474821 0.034476656 -0.14303006 0
2.3605952 0.044351652 -0.13528097 0
2.4410636 0.046548858 -0.12796573 0
2.5237498 0.028685134 -0.12399649 0
2.645875 0.044212833 -0.13199124 0
2.7320011 0.04614776 -0.12629001 0
2.8820066 0.051886547 -0.11274009 0
2.9720099 0.055329822 -0.10461015 0
1.3430001 0.14033334 -0.16533333 0
1.4339091 0.11325309 -0.16830696 0
1.5256138 0.13062964 -0.17046046 0
1.6317497 0.1384106 -0.17359152 0
1.7503859 0.15167199 -0.177525 0
1.8653644 0.140576 -0.17874697 0
1.9698939 0.14274205 -0.1801116 0
2.0569999 0.14129165 -0.17927346 0
2.1563869 0.15395837 -0.16732207 0
2.2616551 0.17211856 -0.19164184 0
1.2965 0.26449999 -0.16499999 0
1.3504951 0.25443733 -0.16334368 0
1.4628601 0.25248295 -0.16380499 0
1.5479759 0.25473234 -0.1611377 0
1.6378847 0.27386993 -0.15957367 0
1.7613134 0.27394339 -0.15017723 0
1.8840021 0.20625025 -0.18317726 0
1.9725026 0.21731281 -0.18672159 0
2.0610032 0.22837538 -0.19026591 0
2.1495037 0.23943794 -0.19381022 0
2.2380042 0.2505005 -0.19735454 0
2.3299999 0.206 -0.199 0
1.2764 0.35499999 -0.1618 0
1.3616005 0.34087998 -0.1634903 0
1.4511507 0.35449415 -0.1636297 0
1.5515376 0.35217553 -0.16389799 0
1.6450539 0.35660261 -0.16476704 0
1.742921 0.35726887 -0.1644927 0
1.8437265 0.34398222 -0.16257723 0
1.949 0.345 -0.16500001 0
1.2540001 0.42399999 -0.162 0
1.3482342 0.43192098 -0.16248508 0
1.4281503 0.44966859 -0.16285868 0
1.541764 0.44811121 -0.16342199 0
1.6471242 0.46598363 -0.16372749 0
1.757477 0.45234066 -0.16344807 0
1.8298246 0.44338396 -0.16301173 0
1.9565374 0.46115521 -0.14598332 0
2.0733776 0.45464325 -0.12243579 0
2.1508367 0.47285768 -0.10824771 0
-1.354 0.59500003 -0.167 0
-1.291 0.58399999 -0.15700001 0
-1.16 0.56300002 -0.167 0
1.1836667 0.56566668 -0.16033332 0
1.2483197 0.554524 -0.16192789 0
1.3381506 0.57661068 -0.15667568 0
1.4679523 0.54001552 -0.15617596 0
1.5718613 0.53332072 -0.16239254 0
1.6628672 0.54210013 -0.16359514 0
1.7688122 0.55451745 -0.16404398 0
1.8639641 0.53079879 -0.16002265 0
1.9568065 0.55373847 -0.155426 0
2.0641837 0.526048 -0.12815394 0
2.1473284 0.54798079 -0.11620525 0
2.2412086 0.56045228 -0.11615053 0
2.3422129 0.55896908 -0.11041442 0
2.4287484 0.57846391 -0.10131682 0
-1.6434062 0.68075025 -0.16589868 0
-1.5620592 0.67728734 -0.16276483 0
-1.4579006 0.66377652 -0.16237368 0
-1.3460129 0.64756173 -0.16252789 0
-1.2349229 0.65496433 -0.16025071 0
-1.1285 0.65750003 -0.16049999 0
1.1613333 0.65044445 -0.16166666 0
1.2586852 0.65760356 -0.16120745 0
1.351717 0.65893114 -0.16177957 0
1.4438528 0.64996338 -0.15532346 0
1.5287516 0.6530726 -0.14427641 0
1.711 0.61900002 -0.16 0
1.8616091 0.62332606 -0.14113535 0
1.9473214 0.65234214 -0.13332334 0
2.0535605 0.67986125 -0.13199458 0
2.1145117 0.69231671 -0.14456171 0
2.3112879 0.60431635 -0.10294685 0
-1.9045386 0.77196223 -0.17142208 0
-1.8517876 0.77107745 -0.16783385 0
-1.7517053 0.74465084 -0.1668586 0
-1.6401845 0.75315493 -0.16123889 0
-1.5484993 0.76152372 -0.16052958 0
-1.4629015 0.75848913 -0.16122545 0
-1.3547575 0.74192333 -0.16032062 0
-1.2551678 0.74507493 -0.15981667 0
-1.1706351 0.76098287 -0.15853438 0
-1.05 0.75600004 -0.1575 0
1.0836667 0.76466662 -0.15966666 0
1.15018 0.75489044 -0.15960659 0
1.2504174 0.74099112 -0.16136856 0
1.3484545 0.75020951 -0.16153525 0
1.4474159 0.74339181 -0.16088462 0
1.5530249 0.76154101 -0.16109142 0
1.6397879 0.76589209 -0.15869014 0
1.7254108 0.77706373 -0.14318722 0
2.1941397 0.72064584 -0.13920213 0
2.2737677 0.74897504 -0.13384256 0
2.316 0.764 -0.131 0
-1.9858367 0.80360138 -0.1728888 0
-1.854899 0.84788924 -0.15752356 0
-1.7651011 0.83998156 -0.15767029 0
-1.639044 0.85571599 -0.16094379 0
-1.5523617 0.8643195 -0.16077878 0
-1.4372845 0.84895855 -0.16073395 0
-1.3474078 0.84819931 -0.15986095 0
-1.2364708 0.8485086 -0.15934485 0
-1.1378734 0.84801966 -0.15768914 0
-1.0262964 0.87766933 -0.15716344 0
-0.93633336 0.87233329 -0.156 0
-0.88800001 0.88499999 -0.155 0
1.03575 0.84525001 -0.158875 0
1.1363856 0.8503477 -0.15925367 0
1.2489493 0.85188806 -0.159674 0
1.3385534 0.82705802 -0.16010089 0
1.4387685 0.85085535 -0.16079772 0
1.5584548 0.84890288 -0.16087914 0
1.6535683 0.84452349 -0.1553342 0
1.7554169 0.84229147 -0.15974674 0
1.8592393 0.85557824 -0.15173762 0
1.9656967 0.89007115 -0.16228193 0
-2.0101647 0.95596564 -0.12396017 0
-1.9284637 0.91414499 -0.13193627 0
-1.8368404 0.96067494 -0.14363718 0
-1.7447063 0.94294947 -0.15817536 0
-1.6606699 0.95160419 -0.15832114 0
-1.5615119 0.9486227 -0.16361065 0
-1.4505039 0.96033436 -0.16008033 0
-1.3491557 0.94264793 -0.16145121 0
-1.2506928 0.95140928 -0.16102901 0
-1.1430399 0.94889176 -0.15722333 0
-1.0585266 0.9477188 -0.15626039 0
-0.94135314 0.96136987 -0.15519014 0
-0.8502 0.95080006 -0.15440001 0
0.88700002 0.99599999 -0.153 0
0.93816668 0.95733333 -0.15633334 0
1.0511134 0.95173442 -0.15832156 0
1.1569455 0.94408923 -0.15891254 0
1.2599708 0.94898605 -0.15872386 0
1.358374 0.9365477 -0.15891241 0
1.464219 0.96082658 -0.15942355 0
1.5541042 0.94352704 -0.15999003 0
1.6420588 0.93829882 -0.15716203 0
1.7363262 0.94057387 -0.14568099 0
1.8336591 0.94867224 -0.14284863 0
1.934706 0.95671213 -0.14735623 0
2.0424652 0.94697654 -0.16708337 0
2.125 0.96499997 -0.175 0
-1.9396558 1.0662562 -0.1158588 0
-1.8559264 1.0656523 -0.11890213 0
-1.7517822 1.0411673 -0.15244505 0
-1.6426971 1.05255 -0.15641701 0
-1.5610638 1.0466043 -0.16086201 0
-1.4608659 1.0468668 -0.16883428 0
-1.3481956 1.052956 -0.16292024 0
-1.2506266 1.0581737 -0.1584589 0
-1.1596214 1.0388885 -0.15717129 0
-1.055985 1.033622 -0.15691966 0
-0.96143883 1.0637045 -0.15454955 0
-0.89252949 1.0368811 -0.15531945 0
0.86866665 1.0556668 -0.15666667 0
0.96468145 1.0510789 -0.15593953 0
1.0495906 1.0540208 -0.15694873 0
1.1546354 1.0555974 -0.15817082 0
1.2545811 1.0456651 -0.1587719 0
1.3529969 1.052049 -0.15826549 0
1.4278662 1.0197527 -0.15801671 0
1.538496 1.047769 -0.15130544 0
1.6498543 1.0345938 -0.15197673 0
1.7528371 1.0471125 -0.14689289 0
1.8637323 1.0541778 -0.13328533 0
1.9658768 1.0523815 -0.12466663 0
2.0706422 1.038792 -0.12760146 0
2.1484909 1.0619828 -0.11448997 0
2.2142124 1.0967495 -0.1389055 0
-1.8009781 1.1861506 -0.1268584 0
-1.7292756 1.1474487 -0.15832706 0
-1.6455994 1.1457419 -0.1758336 0
-1.5356724 1.1605738 -0.17471373 0
-1.4515634 1.130981 -0.16771455 0
-1.3511425 1.1584455 -0.15795968 0
-1.2398894 1.1467336 -0.15845953 0
-1.1475111 1.1354854 -0.15752816 0
-1.0449939 1.1499647 -0.15615736 0
-0.96047235 1.13636 -0.15628789 0
0.76099998 1.1720001 -0.15800001 0
0.84218562 1.1414897 -0.15610676 0
0.94286716 1.1571289 -0.15555732 0
1.0495014 1.1510724 -0.15655875 0
1.1575503 1.154608 -0.15766925 0
1.2432672 1.1511347 -0.15772375 0
1.3332646 1.1452683 -0.15897886 0
1.4716375 1.1098998 -0.15894276 0
1.5887792 1.1017336 -0.13889655 0
1.6575111 1.134931 -0.13831563 0
1.7572451 1.1595296 -0.13561749 0
1.8548179 1.1563501 -0.14148712 0
1.9519687 1.1439201 -0.13073187 0
2.0262623 1.1478058 -0.1332694 0
2.1368251 1.1448274 -0.13046697 0
2.2495966 1.157142 -0.14109659 0
-1.832 1.207 -0.124 0
-1.6489861 1.2371244 -0.18100749 0
-1.5556421 1.2494076 -0.15985818 0
-1.4502918 1.2308993 -0.14134423 0
-1.3407998 1.2293671 -0.15868755 0
-1.2682161 1.2466074 -0.15884069 0
-1.1529962 1.2484004 -0.15685847 0
-1.0515304 1.240689 -0.15889275 0
0.68166667 1.2796665 -0.15633334 0
0.75088567 1.2478273 -0.1553589 0
0.84783965 1.255253 -0.15603168 0
0.94471467 1.2500331 -0.15582868 0
1.0481443 1.2512699 -0.15658538 0
1.1571758 1.2668977 -0.15754615 0
1.2516332 1.2376897 -0.15890525 0
1.3592354 1.2765857 -0.15921529 0
1.4470361 1.2830476 -0.15681349 0
1.750625 1.2038105 -0.12673739 0
1.8338133 1.2521778 -0.12052723 0
1.9420972 1.2499819 -0.12909859 0
2.0490937 1.2490798 -0.13124739 0
2.155695 1.2502953 -0.13124719 0
2.217 1.2180001 -0.107 0
-1.6141776 1.3712195 -0.10978478 0
-1.5537581 1.3209146 -0.12183858 0
-1.4559979 1.3445063 -0.13231312 0
-1.3090014 1.3329942 -0.14420375 0
-1.2437694 1.3378416 -0.14873195 0
-1.1578609 1.3408078 -0.15794146 0
-1.0822958 1.3244463 -0.16675371 0
0.57550001 1.3710001 -0.15625 0
0.64768392 1.3481457 -0.15449481 0
0.74778396 1.3457816 -0.15534772 0
0.85150623 1.346113 -0.15473458 0
0.95677233 1.3469579 -0.15656573 0
1.0527829 1.3609378 -0.15583982 0
1.1295553 1.3231822 -0.15728094 0
1.2303722 1.3575919 -0.1566222 0
1.3636866 1.3603797 -0.16057476 0
1.4186647 1.3580739 -0.15968911 0
1.5145543 1.3435713 -0.15672024 0
1.8843377 1.3052006 -0.10268965 0
1.947624 1.3342502 -0.11623274 0
2.056632 1.3575262 -0.10841756 0
2.1596363 1.3396314 -0.12175131 0
-1.632498 1.4510062 -0.10281312 0
-1.5441967 1.42581 -0.11450098 0
-1.4210058 1.4799769 -0.10481502 0
-1.348051 1.4529524 -0.12706777 0
-1.2392746 1.4463288 -0.1484081 0
-1.1871595 1.4560771 -0.17525618 0
0.56448114 1.4443806 -0.15569673 0
0.65045851 1.4500915 -0.1555032 0
0.74900544 1.4350737 -0.15524128 0
0.84937292 1.4580926 -0.15480867 0
0.94465691 1.4434208 -0.15566702 0
1.0322834 1.4421926 -0.15767936 0
1.1546693 1.4212123 -0.1552531 0
1.2521243 1.44928 -0.15553597 0
1.339089 1.4687914 -0.15653116 0
1.4708512 1.4389538 -0.15976387 0
1.5650332 1.4431586 -0.15784715 0
1.6495904 1.4646189 -0.15653372 0
2.0573833 1.412308 -0.10636336 0
2.2160001 1.4069999 -0.106 0
-1.5052266 1.5945593 -0.11317046 0
-1.4485812 1.5364474 -0.12233637 0
-1.3526931 1.5483621 -0.12894773 0
-1.268508 1.5267979 -0.16507053 0
0.5740602 1.5485765 -0.15751034 0
0.64519972 1.5539174 -0.15563197 0
0.74179584 1.5523216 -0.15440258 0
0.84675503 1.53223 -0.15605758 0
0.96142143 1.5398232 -0.15541813 0
1.0526992 1.5715967 -0.15548478 0
1.1509118 1.5401442 -0.156331 0
1.2522641 1.554618 -0.1548705 0
1.3889081 1.5630909 -0.1542569 0
1.4370689 1.5546446 -0.15672065 0
1.5530596 1.5551392 -0.1597243 0
1.6126589 1.5442959 -0.15875645 0
1.7508675 1.5554047 -0.15639383 0
-1.531 1.6210001 -0.109 0
-1.4480945 1.662233 -0.10926549 0
-1.3906759 1.6391928 -0.11681004 0
0.54876852 1.6565287 -0.17037466 0
0.66243076 1.6589365 -0.15791196 0
0.7228266 1.6502918 -0.15281838 0
0.81957608 1.6400845 -0.15444708 0
0.93910855 1.6550647 -0.15478417 0
1.0600731 1.6666179 -0.15467183 0
1.1718068 1.6466683 -0.15621105 0
1.2706972 1.6518753 -0.1546312 0
1.3386072 1.6367687 -0.15435182 0
1.4530693 1.643652 -0.15527689 0
1.5347328 1.6930516 -0.15473315 0
1.662535 1.6294444 -0.15887231 0
1.7419883 1.6684439 -0.15813467 0
1.8521446 1.6461904 -0.15625395 0
0.57099998 1.721 -0.16 0
0.66979176 1.7431674 -0.16343032 0
0.7492066 1.7624006 -0.14413252 0
0.84764957 1.7302349 -0.15467066 0
0.97389078 1.7549852 -0.15382358 0
1.0380287 1.750968 -0.15359436 0
1.1238303 1.7472314 -0.15381746 0
1.2333845 1.7458776 -0.15538342 0
1.3357016 1.7708448 -0.15503395 0
1.4432695 1.7524476 -0.15438806 0
1.5680891 1.7679092 -0.15369956 0
1.6231207 1.7523779 -0.15501113 0
1.7424327 1.7498987 -0.1588738 0
1.8389854 1.7615548 -0.15766835 0
1.9534217 1.736976 -0.15611407 0
0.67542076 1.8058743 -0.16093358 0
0.74278003 1.8527323 -0.14119047 0
0.85210431 1.8278471 -0.15255514 0
0.94837976 1.8781828 -0.1539333 0
1.0574263 1.8458828 -0.1537389 0
1.1424843 1.8447043 -0.15346777 0
1.2346141 1.8974931 -0.15345195 0
1.3291137 1.8678366 -0.15492211 0
1.4536171 1.8486373 -0.15385392 0
1.5487779 1.867415 -0.15436234 0
1.6564771 1.8272355 -0.15397754 0
1.7471552 1.8842001 -0.15387146 0
1.8371193 1.8472784 -0.15844858 0
1.9569912 1.8748329 -0.15710101 0
2.036 1.811 -0.156 0
0.77811497 1.9354767 -0.12166605 0
0.84677243 1.9592797 -0.13393272 0
0.96860445 1.9728856 -0.15458834 0
1.0555694 1.92928 -0.15321495 0
1.1651992 1.9452044 -0.15241747 0
1.2703303 1.9756947 -0.15276079 0
1.3539358 1.9463905 -0.15402246 0
1.4492786 1.9392394 -0.15461244 0
1.5852321 1.9702766 -0.15316847 0
1.6673098 1.9297603 -0.15391186 0
1.7472702 1.9727273 -0.15314224 0
1.8255862 1.9675556 -0.15315081 0
1.9186218 1.9310992 -0.15808254 0
2.0910001 1.9119999 -0.161 0
2.1587899 1.9699445 -0.15094945 0
0.78799999 2.016 -0.124 0
0.87431854 2.0562792 -0.11738265 0
0.96213031 2.0710933 -0.15537232 0
1.0474129 2.0285149 -0.15186486 0
1.1551507 2.0509963 -0.15234593 0
1.2464896 2.0532093 -0.15188153 0
1.3335702 2.0488508 -0.15248942 0
1.441391 2.042165 -0.15386103 0
1.5531498 2.0609953 -0.15401904 0
1.6415913 2.0414186 -0.15307608 0
1.7503246 2.0423577 -0.15373915 0
2.2604747 2.0568609 -0.13587365 0
0.9437874 2.1513765 -0.1422382 0
1.0492409 2.1346531 -0.15453348 0
1.1551337 2.1690879 -0.15013674 0
1.2585734 2.1525064 -0.15153058 0
1.3474408 2.1514356 -0.15117396 0
1.4252491 2.1603866 -0.15230758 0
1.5565706 2.1698186 -0.15313567 0
1.6665 2.1240001 -0.15349999 0
2.3621597 2.1437778 -0.12079781 0
0.9844296 2.2679229 -0.13182436 0
1.0375028 2.2363019 -0.15592125 0
1.1503464 2.247221 -0.1504214 0
1.2592746 2.2406845 -0.15164496 0
1.3449358 2.2638125 -0.15090679 0
1.4431673 2.2457552 -0.15127416 0
1.539 2.217 -0.153 0
2.4638445 2.2306948 -0.105722 0
1.0284814 2.3511517 -0.13693415 0
1.1591396 2.3542762 -0.15433295 0
1.233 2.3180001 -0.149 0
1.3 2.312 -0.15099999 0
1.478 2.302 -0.15000001 0
1.0749843 2.4144361 -0.154 0
1.1473701 2.476825 -0.15674464 0
1.222495 2.4386029 -0.13582905 0
1.367 2.4990001 -0.146 0
1.2688686 2.5412536 -0.13378629 0
1.3396521 2.5869143 -0.13599534 0
1.410302 2.5776606 -0.13631274 0
1.381304 2.6658285 -0.12599069 0
1.4536041 2.656321 -0.12662548 0
1.4599311 2.7398624 -0.11646213 0
1.4646082 2.823657 -0.10598136 0
1.5402082 2.8136423 -0.10725097 0
-3.1781626 -2.4630587 -0.098031387 0
-3.0813682 -2.4392972 -0.0646552 0
-2.2612023 -2.4434566 -0.079687856 0
-3.0004883 -2.3757949 -0.080408916 0
-2.9332402 -2.3229959 -0.093507431 0
-2.471 -2.3099999 -0.071000002 0
-2.365 -2.3069999 -0.089000002 0
-2.198 -2.3859999 -0.092 0
-2.4231706 -2.2652786 -0.080842152 0
-2.336551 -2.231163 -0.094544619 0
3.5237613 -1.7108123 -0.073911279 0
3.6549976 -1.7789434 -0.048594844 0
3.4459383 -1.6704105 -0.088923961 0
3.5501838 -1.6037862 -0.092089221 0
3.6472511 -1.6247962 -0.070994392 0
3.7471006 -1.6688541 -0.055374227 0
3.802 -1.617 -0.059 0
3.4991162 -1.5389839 -0.088467531 0
3.5718055 -1.5433651 -0.084767848 0
3.6439342 -1.5482842 -0.082164831 0
3.7449477 -1.5418028 -0.071862653 0
3.8499999 -1.562 -0.056000002 0
3.904 -1.505 -0.042999998 0
3.659379 -1.4442267 -0.089027435 0
3.765739 -1.451221 -0.069009505 0
3.8469872 -1.482824 -0.053725153 0
3.6324852 -1.3489701 -0.074913792 0
3.7725282 -1.3725374 -0.039497897 0
3.835 -1.3940001 -0.027999997 0
1.256325 -1.2330453 -0.037189852 0
1.3698969 -1.2290729 -0.068821497 0
1.4460001 -1.2373333 -0.034666669 0
3.5476012 -1.2551682 -0.08417514 0
3.632 -1.244 -0.072999999 0
1.1697103 -1.1490813 -0.034426108 0
1.2462298 -1.1367025 -0.073569268 0
1.3324198 -1.1502125 -0.039787762 0
1.4053032 -1.1937883 -0.040120415 0
3.4921577 -1.1961241 -0.096158586 0
3.6925433 -1.119866 -0.049777724 0
3.7620161 -1.1300578 -0.034221277 0
3.8340001 -1.141 -0.015000001 0
1.052363 -1.032943 -0.074571408 0
1.1660469 -1.0363678 -0.052951436 0
1.2525805 -1.0796518 -0.043976195 0
3.3523018 -1.0128144 -0.085876517 0
3.4363909 -1.0277233 -0.078958675 0
3.5216227 -1.0545106 -0.067368448 0
3.6347485 -1.069176 -0.052180968 0
3.7356808 -1.0294524 -0.028176965 0
3.8354809 -1.0449044 -0.064494409 0
0.96018147 -0.94547153 -0.085785702 0
1.0566206 -0.93841076 -0.060378622 0
1.1209769 -0.95810777 -0.041032355 0
3.199496 -0.90355158 -0.093838423 0
3.2767847 -0.95622683 -0.090842888 0
3.3541827 -0.94325322 -0.077491902 0
3.4746637 -0.94872409 -0.073532335 0
3.5611629 -0.97206706 -0.066565491 0
3.6546659 -0.9842127 -0.06011343 0
3.7504435 -0.99490094 -0.088364586 0
0.66399997 -0.82099998 -0.061999999 0
0.87194854 -0.83902383 -0.085831679 0
0.97202444 -0.84667981 -0.05135582 0
1.0482762 -0.89698493 -0.041201159 0
1.4940932 -0.83723229 -0.097040467 0
3.1330123 -0.85993391 -0.095003471 0
3.2185183 -0.88290089 -0.084005207 0
3.3421173 -0.80269271 -0.0060200617 0
3.4018021 -0.89805609 -0.099758103 0
0.61235577 -0.75686121 -0.048672456 0
0.85588002 -0.7407769 -0.045983858 0
0.92997688 -0.78024673 -0.031297881 0
1.2632331 -0.70708072 -0.068601176 0
1.3401865 -0.75046456 -0.078080937 0
1.4171399 -0.7938484 -0.087560706 0
2.993 -0.72100002 -0.064999998 0
3.0802794 -0.74142319 -0.050255015 0
3.1675587 -0.76184636 -0.03551003 0
3.2705927 -0.74708915 -0.027510421 0
3.3774846 -0.71812826 -0.013171395 0
3.4605789 -0.75051457 -0.01242632 0
3.5476947 -0.76981747 -0.0015115887 0
0.68599999 -0.61549997 -0.059 0
0.75287807 -0.63678491 -0.03809448 0
0.82541835 -0.65797102 -0.0069334405 0
1.1478031 -0.64200485 -0.054381527 0
3.03 -0.63166666 -0.049333334 0
3.1379681 -0.66057986 -0.041151606 0
3.2519057 -0.66476357 -0.018438293 0
3.3855925 -0.6775986 -0.0074007995 0
0.69300002 -0.59899998 -0.048 0
0.77499998 -0.59899998 -0.0089999996 0
0.958 -0.53500003 -0.031000003 0
1.032373 -0.57692909 -0.040161878 0
-4.9339004 -0.46879563 -0.027994245 0
-4.8113203 -0.46063215 -0.046489641 0
-4.7218404 -0.45467302 -0.059990793 0
-4.6323605 -0.4487139 -0.073491946 0
-4.5428801 -0.44275478 -0.086993091 0
3.0766988 -0.35604441 -0.082390949 0
3.141 -0.37599999 -0.075000003 0
2.5318289 -0.11370902 -0.098897189 0
2.4592226 -0.050581824 -0.096121162 0
2.523 -0.0049999999 -0.096000001 0
3.0620131 0.058773093 -0.096480191 0
3.1520166 0.062216368 -0.088350244 0
3.2420199 0.065659642 -0.080220297 0
3.3320231 0.069102913 -0.072090343 0
3.4220266 0.072546184 -0.063960388 0
3.5120301 0.075989462 -0.055830434 0
3.6225166 0.080216371 -0.045850243 0
2.2336707 0.11438335 -0.08784993 0
2.3471766 0.12095839 -0.068124823 0
2.4733412 0.12826671 -0.046199858 0
1.8430001 0.28999999 -0.092999995 0
1.9398192 0.2953347 -0.079681054 0
2.1730001 0.228 -0.057999998 0
2.253099 0.22727332 -0.050128549 0
2.3451679 0.204 -0.046159476 0
2.404 0.204 -0.039000001 0
1.8706251 0.30810302 -0.083226465 0
1.9688754 0.3208091 -0.068679377 0
2.0445445 0.32952014 -0.056288682 0
2.1399877 0.34467739 -0.041711912 0
2.2490971 0.36964095 -0.021756778 0
2.3679488 0.38359284 -0.00417565 0
2.0569999 0.493 -0.048999999 0
2.2535203 0.46542135 -0.065482877 0
2.3710206 0.42592263 -0.0011853315 0
2.0470264 0.53298634 -0.043879945 0
2.1487739 0.56048888 -0.048857652 0
2.2493906 0.5618692 -0.05043507 0
2.3520935 0.58143252 -0.070851199 0
2.4559267 0.58408237 -0.071594074 0
2.5152838 0.5979588 -0.092219219 0
1.5450001 0.65799999 -0.077500001 0
1.6407479 0.6694423 -0.065632544 0
2.0433919 0.62170053 -0.063271731 0
2.1543257 0.66703945 -0.062754311 0
2.2627158 0.63188499 -0.055969536 0
2.357163 0.6544165 -0.066661626 0
2.4611585 0.67011964 -0.067020804 0
2.5243213 0.6410138 -0.078099012 0
2.6152732 0.62048453 -0.081707209 0
-0.25299999 0.79799998 -0.044 0
1.5813408 0.70415342 -0.093542643 0
1.7224958 0.70288467 -0.062265083 0
1.8451178 0.75304818 -0.057213902 0
2.0380664 0.70792997 -0.090368986 0
2.1551166 0.7506274 -0.07564573 0
2.2673955 0.7546199 -0.060777526 0
2.3782279 0.7207548 -0.058863297 0
2.4364319 0.74299896 -0.057412017 0
-0.26822495 0.85454983 -0.053424977 0
1.9449933 0.84535223 -0.026874039 0
2.0494876 0.83665401 -0.048795257 0
2.1312356 0.87009633 -0.045427799 0
2.3545997 0.82339489 -0.050553486 0
2.0406234 0.94124639 -0.0092926826 0
2.1589999 0.995 -0.017000001 0
2.2379918 0.91376936 -0.041030172 0
-1.9809999 1.035 -0.098999999 0
-0.0024739886 1.0411272 -0.057687864 0
2.0313027 1.0898196 -0.096630909 0
2.1960001 1.056 -0.097999997 0
-1.91 1.118 -0.096000001 0
0.077974275 1.146891 -0.062193632 0
2.0627387 1.170544 -0.091827713 0
2.1466281 1.1537744 -0.081288628 0
2.2604275 1.1421065 -0.088683173 0
0.085000001 1.207 -0.07 0
2.1690488 1.2293646 -0.078858308 0
2.2390001 1.205 -0.068999998 0
1.9582274 1.3560673 -0.093637921 0
-1.6530304 1.4360737 -0.09711691 0
2.0321169 1.406934 -0.084586196 0
2.1291308 1.4565868 -0.089749008 0
2.2252553 1.4980147 -0.086476423 0
-1.5350088 1.5989654 -0.07922253 0
-1.4676194 1.5561397 -0.089914188 0
2.1859479 1.5128338 -0.065741375 0
2.2165763 1.5141283 -0.090401404 0
-1.5235 1.6140001 -0.077000007 0
0.81346464 2.0365593 -0.086204953 0
0.89337295 2.1526239 -0.094489656 0
0.91714042 2.1535246 -0.09779682 0
0.94280368 2.2396653 -0.085828811 0
2.5655293 2.3176112 -0.090646185 0
2.6333194 2.3755558 -0.080595635 0
2.7265546 2.4552503 -0.06677255 0
1.3289796 2.6714118 -0.093316153 0
1.3644745 2.7490146 -0.079145186 0
1.3999693 2.8266175 -0.064974226 0
1.5835102 2.8923028 -0.097563714 0
1.4427321 2.9201102 -0.04790163 0
1.5270863 2.9420285 -0.090974376 0
1.6268122 2.9709632 -0.087876454 0
1.5895643 3.0604 -0.075967394 0
1.6701143 3.049624 -0.078189202 0
1.6312163 3.1393142 -0.065962739 0
1.7134163 3.1282845 -0.068501942 0
1.6728684 3.2182286 -0.055958077 0
1.7313592 3.2439723 -0.053407341 0
1.8000205 3.2856054 -0.04912743 0
1.814 3.3110001 -0.046000004 0
-3.085 -2.517 -1.6975704e-14 0
-3.0140634 -2.4614267 0.0085351486 0
-2.9431269 -2.4058533 0.017070297 0
-2.8721902 -2.35028 0.025605444 0
-2.8012538 -2.2947068 0.034140594 0
-2.7303171 -2.2391336 0.042675741 0
-2.6593807 -2.1835601 0.051210888 0
-2.588444 -2.1279869 0.059746038 0
-2.5175076 -2.0724137 0.068281189 0
-2.4465709 -2.0168405 0.076816335 0
-2.356317 -1.9461335 0.087675743 0
3.6129999 -1.834 0.034000002 0
3.3761482 -1.7211956 0.043743905 0
3.4550986 -1.758797 0.040495936 0
3.5340493 -1.7963985 0.037247971 0
3.1392963 -1.6083912 0.053487808 0
3.2577224 -1.6647934 0.048615858 0
2.9811974 -1.533094 0.059991874 0
3.0603456 -1.5707897 0.056735776 0
1.465 -1.204 0.033 0
1.3751342 -1.1130074 0.025050865 0
1.4608977 -1.1589836 0.039114472 0
1.51 -1.174 0.039000001 0
1.0432975 -1.0291818 0.011533586 0
1.1037232 -1.0888864 0.0011501871 0
1.2583716 -1.0341682 0.019696519 0
1.3329525 -1.049199 0.030042211 0
1.4144845 -1.099277 0.032762248 0
0.95265919 -0.93962502 0.027108684 0
1.1754225 -0.94302148 0.019403562 0
1.2469246 -0.9782601 0.023988076 0
3.7785139 -0.90480858 0.067704841 0
3.8657932 -0.92523175 0.082449824 0
3.9460001 -0.94400001 0.096000001 0
0.866 -0.85399997 0.041999996 0
1.0493948 -0.84070003 0.010099827 0
1.1204703 -0.88212436 0.01702638 0
3.4293966 -0.82311589 0.0087249205 0
3.5166759 -0.84353906 0.023469903 0
3.6475949 -0.87417382 0.045587376 0
3.7219262 -0.80842328 0.020317882 0
3.848021 -0.83636314 0.036116309 0
3.902 -0.815 0.046000004 0
0.89160502 -0.71551389 0.0037035344 0
0.95376122 -0.74837178 0.0066751214 0
3.4691324 -0.7235561 0.0052478313 0
3.5590739 -0.72673261 0.0124481 0
3.6428277 -0.75933218 0.017316239 0
3.7345984 -0.76214343 0.03009747 0
3.8223608 -0.77984887 0.03892215 0
3.9129908 -0.7789982 0.048998997 0
0.8327142 -0.66174412 0.0016877893 0
3.4734907 -0.69449818 0.0019989982 0
2.4617856 0.38291499 0.0068656951 0
2.5427318 0.39589372 0.019332118 0
2.4454269 0.42649293 0.010175452 0
2.5512486 0.44076619 0.028045526 0
2.6155715 0.44852865 0.032356419 0
2.3586986 0.61235178 0.0093126632 0
2.4391232 0.63406467 0.022265829 0
2.5347738 0.65988886 0.037609499 0
1.5599999 0.72299999 0.022 0
1.6460351 0.76206768 0.016398378 0
1.7644117 0.81582129 0.0086910594 0
1.8433293 0.85165703 0.0035528466 0
2.1760001 1.534 0.016000001 0
2.2443643 1.5863779 0.028347123 0
2.3469102 1.6649445 0.046867806 0
2.4494562 1.7435112 0.065388493 0
2.5178204 1.795889 0.077735618 0
2.5861845 1.8482668 0.090082742 0
2.6545484 1.9006445 0.10242986 0
2.7019999 1.937 0.111 0
