# .PCD v0.7 - Point Cloud Data file format
VERSION 0.7
FIELDS x y z intensity
SIZE 4 4 4 4
TYPE F F F F
COUNT 1 1 1 1
WIDTH 298
HEIGHT 1
VIEWPOINT 0 0 0 1 0 0 0
POINTS 298
DATA ascii
-4.4495602 -3.474319 1.7595743 12
-4.4030414 -2.9375794 2.0234783 14
-4.3753181 -3.2614911 1.8895462 13
-4.3519535 -2.856678 2.0764732 15
-4.1814265 -3.4226587 2.0426183 14
-4.0127759 -3.7497239 2.2387266 15
-4.1628642 -2.8129036 2.325501 16
-3.9461164 -3.1980226 2.3446202 16
-3.912986 -3.066102 2.4555998 17
-3.6930664 -4.7569232 2.1400511 13
-3.6680465 -4.0731177 2.3138821 15
-3.3272772 -4.9504399 2.3332002 14
-3.248728 -0.99913126 2.3603947 21
-3.1812119 -4.9496889 2.3452401 15
-2.4698174 -3.2905989 1.0889755 11
-2.5312483 -2.3604317 2.3617356 21
-2.2170794 -1.752683 -0.022325868 3
-2.340795 -1.5065591 0.08310803 4.5
-2.0351679 -2.4777956 -0.00012632627 3
-2.0847766 -2.4981787 0.10786711 4.5
-2.14658 -2.0426757 0.12374749 4.5
-2.0218184 -0.60034925 0.18754868 6
-2.1164463 -2.5625372 0.39387551 7
-2.1878102 -2.2999833 2.3657966 22
-2.0334911 -2.1202841 2.3537889 23.5
-2.0889142 -0.85570931 2.355561 27
-2.0514271 -1.593389 2.5326755 26
-2.1219077 -0.92658776 2.5545635 28
-1.8163054 -2.9011426 -0.062960029 3
-1.8074107 -2.9180586 0.29904708 6
-1.8124696 -0.66958654 0.26108545 7.5
-1.80143 -0.72948712 0.71359253 14
-1.9180723 -5.7842402 1.5838815 11
-1.873912 -0.6910764 2.3670783 29
-1.9386996 -3.930064 2.5363014 19
-1.972375 -1.9753813 2.52477 25
-1.8556848 -0.84198487 2.5615959 30
-1.7627921 -2.9006841 0.15355425 4.5
-1.7752748 -0.73363847 0.13759692 5
-1.789421 -2.9240651 0.39605361 7
-1.725899 -0.92162728 0.2166255 7
-1.6327137 -2.8883183 0.57358646 8.5
-1.6763355 -2.9051909 0.72407907 10
-1.7966198 -2.9619005 0.92906219 11
-1.7365801 -2.9589715 1.0825777 12.5
-1.6855644 -3.9975975 2.3863993 18
-1.7130452 -2.1647983 2.3638725 24
-1.7230635 -0.52535671 2.3725879 31
-1.6846088 -2.7357013 2.5270295 23
-1.790198 -1.1879239 2.5526528 29
-1.781652 -0.79610705 2.5606027 31
-1.4621962 1.0343654 -0.10530986 1
-1.4658281 -2.851754 0.19912289 5
-1.5429564 1.0234481 0.025672209 4
-1.4238006 -2.8498006 0.33413434 6
-1.550565 -0.94586045 0.300657 8
-1.5990851 -0.7208367 0.39662248 10
-1.4718513 1.02841 0.28202093 8
-1.5751384 -0.94879091 0.44565338 10.5
-1.439187 -2.9415216 1.184157 14
-1.5370412 -5.2848544 2.3258531 15
-1.5349395 -2.3330362 2.525959 25
-1.3157603 -3.0011249 -0.050788939 3
-1.2917752 -3.0021257 0.12121864 4
-1.3322121 1.0692691 0.047221348 4
-1.2663734 -2.9461293 0.31054342 6.3333335
-1.2251 1.0722126 0.33124536 9.5
-1.2417873 -2.9851162 0.51922882 8
-1.2261015 1.0702252 0.47824502 12
-1.2728047 -2.9350007 0.70020425 9.5
-1.3951682 -3.0196831 0.91119295 11
-1.3356731 1.0413457 0.86471808 17
-1.3442435 -3.0852399 1.0632278 12.5
-1.3772166 -2.9966085 1.3031912 15
-1.3895261 1.0224754 1.7907047 27
-1.2641479 -3.4304571 2.5323582 21
-1.3706081 -2.2783451 2.5269868 26
-1.1776853 -3.0143096 0.32225743 6
-1.0120798 1.4580572 0.34782678 9
-1.1911634 1.0532005 0.44975132 12
-1.0146028 1.4685647 0.48532704 11.5
-1.0623171 1.0946288 0.70028478 16.5
-1.0071073 1.4550691 0.62282789 13
-1.0612005 -5.4649158 2.3300836 15
-1.0936494 -3.5448332 2.4779501 21
-1.1528895 -1.9527923 2.534955 28
-0.88250726 1.4109882 -0.080646753 1.5
-0.94191736 1.1302701 0.069566362 4.5
-0.86516839 1.2549872 0.051845342 4
-0.80243433 -3.1761408 0.36443123 7
-0.86364174 1.240496 0.23584452 7.5
-0.8940028 1.2360264 0.59383696 14
-0.91755676 1.4860221 0.41885057 10
-0.97827691 1.1270725 0.61980754 15
-0.87217283 1.2570219 0.68884385 16
-0.81512147 1.5270001 0.68087691 15
-0.99422222 1.1251029 0.9618035 20.5
-0.93254793 1.502046 0.8348484 17
-0.89974886 1.5220464 1.1488572 21
-0.90363115 1.4770536 1.2388532 22
-0.9971925 1.1101398 1.4868017 27
-0.80486923 -3.5634627 2.5345554 21
-0.76640368 -3.1972456 0.29945043 6
-0.77604562 -0.14852959 0.82621086 27.5
-0.65500587 1.5849755 0.8584165 17.5
-0.77816671 1.464002 1.004881 20
-0.76827252 1.4800242 1.6892179 27
-0.73377109 -4.9246879 2.3370278 16
-0.56732082 1.5279423 -0.17206715 0
-0.51755077 1.5029517 0.29494265 9
-0.53894073 1.5024567 0.55643797 13.5
-0.42804378 1.4999661 0.75696236 17
-0.59620124 1.5309695 0.95692658 19
-0.42804274 1.4959705 1.1019622 22
-0.57194006 1.5924784 1.3559351 23.5
-0.45737147 1.4859746 1.4804552 26.5
-0.44429731 -4.8013835 2.3790991 17
-0.32998478 -1.5560555 -0.067927502 2
-0.32984847 -1.5523511 0.052571367 4.5
-0.26202995 1.5400029 1.1779987 23
-0.28190741 1.5323341 1.6249942 27.666666
-0.26057032 -1.9758238 2.3522315 29
-0.1445429 -1.5429093 -0.087870806 2
-0.1440945 -1.5523753 0.022132467 3.5
-0.078067064 -1.2650244 0.1203936 6
-0.162576 1.4940403 0.074016944 5
-0.055518616 -1.6260152 0.38918796 10
-0.08981435 -1.259959 0.21105471 8
-0.04875426 -1.6157475 0.502437 12.5
-0.056726176 1.537093 0.43853778 11.5
-0.044299357 1.5485969 0.67404026 15.5
-0.061196342 1.5460837 0.93403721 19.5
-0.14567687 1.5050406 1.2220206 24
-0.019297119 -2.1484716 2.355377 28
0.021301409 1.6541419 0.30805323 9
0.14361867 1.6212229 0.46707159 12
0.021607928 -1.6521348 0.71622485 16
0.1645696 -1.5206088 0.62823403 15
0.064694338 -1.6627176 0.85524458 17.5
0.12376253 1.6941864 1.1870698 22
0.16751269 1.629215 1.3280752 24
0.16106503 1.663202 1.5560747 25.5
0.18741448 1.6342194 1.6290779 27
0.23217364 1.7272882 0.36108506 9
0.20134939 1.7142459 0.97408086 19
0.29983559 1.700322 1.0424263 20
0.39737248 1.7173688 1.8391045 28
0.28015792 -2.9663179 2.344774 23
0.22702257 -2.0876758 2.3659527 28.5
0.44769201 -1.1028339 0.14819951 7
0.43563783 -1.0947615 0.2271917 9
0.45126042 -1.628484 0.79338694 16
0.49985224 -1.5176437 0.87886876 18.5
0.51187944 1.827494 1.0381163 18
0.52477944 1.7644917 1.536117 24
0.59499806 -2.2132411 2.5446513 28
0.50317895 -2.0909579 2.5535693 29
0.74882281 -1.3659611 -0.086576432 2
0.75905967 0.79434717 -0.0088863391 3
0.74593574 0.86727184 -0.096384406 0.5
0.65933257 -1.1233357 0.069296867 5
0.78488487 0.78438997 0.098112687 6
0.75813216 0.80832845 0.034614068 4.5
0.63945907 -1.1335251 0.22529189 8
0.77803957 0.80734223 0.23911357 10
0.64927113 1.8816572 0.35412776 9
0.78479385 -1.3468368 0.59743297 14
0.63927394 1.8386495 0.47112647 10
0.77969056 1.8557858 0.68813491 13
0.66712344 1.7996658 0.85712779 16
0.71247232 1.8387032 0.89413112 16
0.69943589 -1.4258249 1.0179229 20.5
0.74681664 1.824731 1.106133 19
0.69503218 1.8086702 1.25113 20
0.70702344 1.8326625 1.5031308 23
0.78401881 1.4138501 1.8551277 29
0.66037661 1.7301168 1.8531263 26.75
0.96828783 0.53901064 -0.085913494 0.5
0.93313563 0.78166562 -0.034894221 2
0.96685475 1.8450617 -0.047858752 3
0.82033986 -1.3102232 0.0074358573 3
0.88122088 0.64470786 0.068601646 5
0.90411437 1.8419738 0.11713949 5
0.99615544 -1.256838 0.25149724 8
0.97872233 0.78070766 0.28010282 9.75
0.90165752 1.8564543 0.29463959 7.5
0.97701079 0.78201145 0.4914363 14.333333
0.8464154 1.8703738 0.4451381 9.5
0.87845939 -1.4640617 0.79151714 16
0.98919713 -1.2136481 0.71147865 16
0.84643269 1.868853 0.76213813 14
0.89147472 -1.4660912 0.83852363 17
0.93178779 0.79004341 0.92210633 22.5
0.87706769 0.91231948 1.1961144 26
0.8859185 0.88335109 1.2461129 27
0.90422016 1.8568823 1.3591399 21
0.86132228 1.4969184 1.8506309 27.5
1.1610854 -1.2126795 -0.1314415 1
1.0686419 0.47575894 -0.020431221 2.5
1.0877179 -1.2202803 0.11252681 5
1.1035587 0.47130591 0.096063398 5.5
1.0187579 0.77480912 0.059099503 5
1.0996939 0.52652919 0.32840371 11
1.1035973 -1.2292155 0.40353757 11
1.0856154 0.56509852 0.50907606 15
1.0178709 0.78673571 0.5491004 15
1.0157101 1.8460754 0.58714223 11.5
1.0544039 -1.2204336 0.62901145 14.5
1.0711734 0.77929503 0.85259569 20.5
1.0437069 1.8570168 1.7601429 24
1.0028496 1.8459674 1.8201423 25
1.2891103 -1.2580887 0.027635586 4
1.2206488 0.44552743 0.17104459 7
1.2639259 -1.2528403 0.38662174 10
1.2082804 0.45844397 0.46754804 13.5
1.4461248 0.42496106 -0.04899244 2
1.4481292 0.42094606 0.094006613 5
1.5682495 -2.5350604 2.3477123 23.5
1.5013442 -2.3433132 2.5261149 25
1.736672 0.60083216 2.3859904 31
1.6566254 0.88443136 2.3860421 30
1.9206243 0.67504406 2.3889744 29
1.9042464 0.91578865 2.383014 28.5
2.0003026 0.66638368 1.0899605 18
2.0486035 0.50588262 2.5839236 29.5
2.2601483 -0.48909831 2.4188116 27.5
2.3327117 -0.33904743 2.4077849 27
2.5901599 -0.60487318 0.18201992 5
2.436528 -0.52526712 2.3969128 26
2.4167149 0.37794539 2.5774987 28
2.4328668 0.53694367 2.5748639 27
2.7004492 -1.2265946 0.35031286 7
2.7182994 -1.0833222 0.3112683 6.5
2.7707429 -1.3516723 0.53439349 8
2.7096117 -1.0157826 0.46223873 8
2.7212682 -1.3284415 0.65536058 9.5
2.6144867 -1.1610569 0.90424639 13
2.6607597 -0.19948414 2.4058862 26
2.8743 -1.1345581 -0.043635659 3
2.8738606 -2.2563806 0.48776239 7.5
2.8609686 -0.47391918 0.52409959 9
2.8607159 -0.4957751 0.76510847 11
2.856714 4.7851357 2.0862405 14
2.8085496 -0.23803136 2.3899753 25
2.9365845 4.7782078 2.2842381 15
2.9435415 0.90388173 2.5048506 23.5
2.9054632 4.3692675 2.6422181 17
3.0063052 -2.3209646 0.22585058 5
3.1396985 -2.1350293 0.42535356 6.5
3.0073063 -0.41949496 0.64414918 10
3.0841582 4.5024924 1.8752187 13
3.076158 4.4434862 2.0847154 14.5
3.1437891 0.829777 2.3878016 22
3.043263 4.4934087 2.3542199 16
3.0471625 -2.5929348 2.5479636 20
3.0061929 -1.9292716 2.4137161 21
3.044297 0.35253838 2.5808263 24
3.3702872 -0.28311786 0.54427063 8
3.336153 0.16648115 2.3700576 22
3.2961047 -1.7915076 2.406812 20
3.2679632 -1.0299767 2.5575197 23
3.4581385 -0.24812776 0.29129902 5.5
3.4453981 -0.27547261 0.44130433 7
3.4061744 -1.5780387 2.5617909 21
3.5210943 -0.50101274 2.4859357 21.5
3.762717 -3.3333056 2.3585715 16
3.8251665 -3.5737774 1.5036833 12
3.8258412 -3.6160903 1.8936976 13.5
3.9964721 -1.5913401 2.562089 19
4.1961007 0.16506563 0.31648454 6
4.2390594 -3.4184792 1.402841 11
4.2897573 -3.4414127 1.9658744 14
4.2712631 0.85546786 2.3906093 18
4.3314948 -0.093036994 2.5796645 19
4.4951735 0.90729421 2.1865811 16.5
4.4660687 -0.1885701 2.3837714 18
4.6919441 0.26221552 0.66418755 7.5
4.7188196 0.17031389 0.8777414 9
4.7211862 0.24628899 0.99370921 10
4.7339392 0.22137433 1.2057266 11
4.6858988 0.23919353 1.4936949 12.5
4.7745433 0.19449393 1.6897585 14
4.645474 -3.3058484 1.988009 13
4.7608032 0.088808775 1.9947983 15
4.7724338 0.033885378 2.126828 16
4.6724944 -3.2668214 2.3380101 15
4.9471898 -0.42960173 1.6261092 13
4.974967 -0.43952155 1.9821272 15
4.9227686 -0.30253366 1.8160447 14
4.8810496 -0.38500509 2.3810582 17
4.8986692 -2.7469544 2.5559475 16
5.123105 -0.80977815 1.9223492 14
5.0108094 -0.82010269 2.3772979 16
5.3704219 -1.3632268 1.9406856 13
5.2939434 -2.2819338 2.3719833 15
5.3948836 -1.4330423 2.3887241 15
5.3160853 -2.2410018 2.48298 16
5.5420051 -1.8633355 2.1969564 14
