# .PCD v0.7 - Point Cloud Data file format
VERSION 0.7
FIELDS x y z intensity
SIZE 4 4 4 4
TYPE F F F F
COUNT 1 1 1 1
WIDTH 956
HEIGHT 1
VIEWPOINT 0 0 0 1 0 0 0
POINTS 956
DATA ascii
-2.105 -1.881 -0.213 0
-2.0496159 -1.8680657 -0.2039932 0
-1.9445491 -1.7384012 -0.20581563 0
-1.8428051 -1.6479774 -0.20125994 0
-1.3188403 -3.3775249 -0.10729022 0
-1.1443135 -3.373625 -0.191 0
-1.2686502 -3.2595782 -0.12255639 0
-1.1107643 -3.2815249 -0.191 0
-1.2184601 -3.1416311 -0.13782255 0
-1.1361971 -3.147954 -0.15303862 0
-1.0644703 -3.1544375 -0.191 0
-0.90350002 -3.148 -0.14750001 0
-1.1847119 -3.0621793 -0.14807795 0
-1.0582604 -3.0374472 -0.17490879 0
-0.96562254 -3.0628171 -0.18488702 0
-0.87367195 -3.0569699 -0.14934491 0
-1.4436498 -2.9589679 -0.13437061 0
-1.3848296 -2.9451039 -0.11857037 0
-1.224802 -2.9774241 -0.1615403 0
-1.1444952 -2.9475765 -0.15896368 0
-1.0672956 -2.9651809 -0.16355793 0
-0.9595089 -2.9463267 -0.18773919 0
-0.84575284 -2.9567261 -0.16624492 0
-1.5328228 -2.8377047 -0.1064708 0
-1.4206543 -2.8575132 -0.15140066 0
-1.3526638 -2.8702831 -0.13185629 0
-1.1477786 -2.8402061 -0.16810817 0
-1.0207217 -2.8416357 -0.17066845 0
-0.9318071 -2.8631616 -0.18759134 0
-0.81853414 -2.8499897 -0.17438821 0
-1.918 -2.7260001 -0.105 0
-1.7421995 -2.7923875 -0.1090523 0
-1.6968853 -2.7173319 -0.1194734 0
-1.4719406 -2.7246959 -0.12459292 0
-1.3504286 -2.7862926 -0.15041585 0
-1.2883319 -2.7206416 -0.15842815 0
-1.1188775 -2.7211552 -0.17255037 0
-1.0784272 -2.7593076 -0.17684677 0
-0.94986796 -2.7456326 -0.18438947 0
-0.87035215 -2.7460141 -0.18373919 0
-0.77475232 -2.7327168 -0.18474014 0
-1.8685973 -2.6562107 -0.1136293 0
-1.6515712 -2.6422768 -0.1298945 0
-1.4313525 -2.6493568 -0.13667434 0
-1.3400644 -2.6967325 -0.15997829 0
-1.2779677 -2.6310816 -0.1679906 0
-1.068651 -2.661962 -0.18002015 0
-0.94309849 -2.6357269 -0.18251932 0
-0.864043 -2.6385937 -0.18843187 0
-0.76514739 -2.6267784 -0.17753966 0
-1.8175226 -2.5840592 -0.12255064 0
-1.766448 -2.5119081 -0.13147198 0
-1.6062568 -2.5672214 -0.14031559 0
-1.3907644 -2.5740175 -0.14875576 0
-1.2417372 -2.5534759 -0.17677796 0
-1.0517265 -2.5586932 -0.17953022 0
-0.91204923 -2.5533633 -0.18725966 0
-0.82099998 -2.5304999 -0.18700001 0
-0.74111789 -2.5392227 -0.17763174 0
-1.7153733 -2.4397566 -0.14039332 0
-1.5382855 -2.4546385 -0.15594724 0
-1.3298823 -2.4610088 -0.16687788 0
-1.2191796 -2.4555614 -0.17284474 0
-1.018151 -2.4774621 -0.18302014 0
-0.88099998 -2.471 -0.192 0
-0.7170884 -2.4516671 -0.1777238 0
-1.6642987 -2.3676052 -0.14931464 0
-1.4703141 -2.3420553 -0.1715789 0
-1.2690001 -2.348 -0.185 0
-1.1788847 -2.3751712 -0.17713356 0
-0.96778774 -2.3556156 -0.18825504 0
-0.69305897 -2.3641112 -0.17781587 0
-0.52754378 -2.3458691 -0.17475022 0
-1.613224 -2.295454 -0.15823598 0
-1.5621493 -2.2233026 -0.16715732 0
-1.425 -2.267 -0.182 0
-1.1385899 -2.2947807 -0.18142237 0
-1.0982949 -2.2143905 -0.18571118 0
-0.64301473 -2.2642779 -0.18095396 0
-0.4991751 -2.2164764 -0.15300091 0
-1.92 -2.1140001 -0.13 0
-1.5110747 -2.1511514 -0.17607866 0
-1.058 -2.1340001 -0.19 0
-0.64499998 -2.1889999 -0.178 0
-0.5931592 -2.1691248 -0.16987212 0
-0.48026264 -2.1302147 -0.13850136 0
2.8464296 -2.1170461 -0.11425044 0
2.9400935 -2.1446381 -0.10527731 0
-2.52 -2.013 -0.103 0
-1.9649999 -2.0195 -0.1285 0
-1.8580214 -2.0470889 -0.13546869 0
-1.46 -2.079 -0.185 0
-0.55739796 -2.0448122 -0.14868028 0
-0.4613502 -2.0439529 -0.12400182 0
0.078000002 -2.0090001 -0.118 0
2.7386007 -2.0381322 -0.13307531 0
2.8521848 -2.0402021 -0.12259963 0
-2.4515438 -1.9594696 -0.11018653 0
-1.9510126 -1.9597106 -0.13473748 0
-1.8497908 -1.9458325 -0.13987511 0
-1.7669588 -1.9487791 -0.14350364 0
-1.135 -1.933 -0.18700001 0
-0.52163672 -1.9204993 -0.12748845 0
-0.44243777 -1.9576911 -0.10950228 0
0.074382894 -1.9204358 -0.10956009 0
2.5588858 -1.9066092 -0.16445009 0
2.6500726 -1.9335279 -0.14870453 0
2.7424979 -1.9607834 -0.13634519 0
-2.3450367 -1.8761849 -0.1213676 0
-2.2740321 -1.8206618 -0.12882166 0
-2.0370185 -1.8412664 -0.10853917 0
-1.9469682 -1.8363396 -0.15204853 0
-1.8603175 -1.8683927 -0.14656729 0
-1.7518972 -1.8562943 -0.15987399 0
-1.6658092 -1.8205905 -0.169175 0
-1.079155 -1.8443686 -0.18519855 0
-0.94400001 -1.8150001 -0.182 0
-0.49779594 -1.8376241 -0.11336056 0
0.070765786 -1.8318714 -0.10112017 0
2.4821832 -1.8504003 -0.17694135 0
2.5596867 -1.8284187 -0.15925443 0
-2.2395139 -1.7520692 -0.12013786 0
-2.1320229 -1.7096156 -0.14372975 0
-1.9384558 -1.7460513 -0.13933611 0
-1.8546977 -1.7912035 -0.11879133 0
-1.745654 -1.7564055 -0.15151995 0
-1.6356529 -1.7456398 -0.17643428 0
-1.5848336 -1.7521595 -0.1595735 0
-1.2425001 -1.74 -0.18450001 0
-1.180169 -1.7212999 -0.1855839 0
-1.0331289 -1.7431791 -0.18205443 0
-0.94889671 -1.7507205 -0.18027353 0
2.3297608 -1.7364894 -0.17508537 0
2.4324446 -1.7553164 -0.17371149 0
-2.435401 -1.6551006 -0.1085998 0
-2.3268056 -1.6515965 -0.10640128 0
-2.2458973 -1.6703945 -0.1093602 0
-2.1772032 -1.6348445 -0.1149763 0
-2.0610185 -1.6540924 -0.1511838 0
-1.9658689 -1.6454935 -0.18860814 0
-1.8616748 -1.6744099 -0.15276979 0
-1.7491601 -1.6567581 -0.17245069 0
-1.6563091 -1.6332935 -0.17297727 0
-1.5400976 -1.6506867 -0.18011904 0
-1.4634168 -1.6210798 -0.17028674 0
-1.250146 -1.6379478 -0.18343085 0
-1.135402 -1.6482719 -0.18015154 0
-1.0530783 -1.6385542 -0.18096466 0
-0.97800004 -1.6930001 -0.1805 0
0.15899999 -1.63 -0.108 0
2.1869721 -1.6297781 -0.1733467 0
2.2724171 -1.6564746 -0.17319226 0
2.3575456 -1.681618 -0.17252989 0
-2.330837 -1.5890732 -0.12970895 0
-2.2718866 -1.5491905 -0.12101722 0
-2.1578517 -1.5425541 -0.13500528 0
-2.0530274 -1.5466219 -0.13176522 0
-1.9545114 -1.5708078 -0.16236487 0
-1.8433154 -1.5661113 -0.17598686 0
-1.742437 -1.5506157 -0.17956586 0
-1.6324806 -1.5318948 -0.17900079 0
-1.5648701 -1.5605317 -0.18565257 0
-1.4551797 -1.5450011 -0.18220577 0
-1.3368782 -1.5406034 -0.18221387 0
-1.2530756 -1.5381927 -0.18057345 0
-1.1514404 -1.5522827 -0.18129973 0
-1.0532501 -1.55275 -0.18124999 0
-0.12800001 -1.574 -0.105 0
2.0441833 -1.5230669 -0.17160802 0
2.1299448 -1.5513165 -0.1719615 0
2.2153897 -1.5780128 -0.17180707 0
-2.2447844 -1.4522048 -0.11356771 0
-2.1284111 -1.4544624 -0.14408764 0
-2.0462358 -1.4334625 -0.16640902 0
-1.9542572 -1.4488177 -0.15257905 0
-1.8617792 -1.4536719 -0.16144529 0
-1.7319071 -1.4565014 -0.17701049 0
-1.6405816 -1.4479285 -0.17976953 0
-1.5584264 -1.4541737 -0.18485995 0
-1.4387116 -1.457191 -0.18294527 0
-1.3361785 -1.4613736 -0.18174386 0
-1.2588675 -1.4652765 -0.18051586 0
-1.1455634 -1.4384865 -0.18069033 0
-1.091 -1.466 -0.178 0
1.9370916 -1.4430335 -0.170304 0
2.0376949 -1.4485064 -0.17090353 0
-2.3596632 -1.3507501 -0.11318649 0
-2.2863307 -1.3078001 -0.12754919 0
-2.1479018 -1.3649493 -0.12958398 0
-2.051841 -1.3545885 -0.16628081 0
-1.9554427 -1.344414 -0.1620591 0
-1.8440961 -1.3618691 -0.17065886 0
-1.7530063 -1.3197557 -0.18016797 0
-1.6654427 -1.3901922 -0.18372978 0
-1.5495186 -1.3505198 -0.18249851 0
-1.4386065 -1.354964 -0.18156573 0
-1.3574665 -1.3414047 -0.18118337 0
-1.2514733 -1.3524668 -0.17917983 0
-1.1607901 -1.3620125 -0.17972539 0
1.7988043 -1.3393302 -0.16930346 0
1.84 -1.3483334 -0.16933334 0
1.931078 -1.3708025 -0.17036141 0
2.5826514 -1.3245891 -0.17610465 0
2.6433024 -1.3561784 -0.1742093 0
2.7089767 -1.3903837 -0.17215699 0
-2.2129979 -1.26485 -0.14191189 0
-2.1408389 -1.2436788 -0.12886167 0
-2.0439878 -1.2427436 -0.15219799 0
-1.9545729 -1.25503 -0.17155945 0
-1.850487 -1.2554178 -0.1781022 0
-1.7550787 -1.2303542 -0.18099721 0
-1.6495832 -1.2471669 -0.18041791 0
-1.5445634 -1.2640316 -0.18115687 0
-1.4498354 -1.2433544 -0.18047893 0
-1.3584656 -1.2462733 -0.17948601 0
-1.2664227 -1.2429364 -0.17918399 0
-1.1806666 -1.2456666 -0.17766666 0
1.4907879 -1.2137051 -0.16499208 0
1.5637171 -1.2826068 -0.15032277 0
1.6608603 -1.2346644 -0.17064533 0
1.7298323 -1.2869973 -0.16997439 0
2.5220001 -1.293 -0.178 0
2.656364 -1.2138331 -0.10022824 0
-2.0666661 -1.148975 -0.17781866 0
-1.9630213 -1.1516118 -0.17564687 0
-1.8406367 -1.1552452 -0.17870398 0
-1.7615278 -1.1588924 -0.18183057 0
-1.6540451 -1.150703 -0.18055843 0
-1.5650719 -1.1778661 -0.18094139 0
-1.4507794 -1.1507223 -0.1797736 0
-1.35484 -1.148701 -0.17836002 0
-1.2541752 -1.1399597 -0.17778452 0
1.356786 -1.1199069 -0.16468304 0
1.4507731 -1.1521157 -0.1662612 0
1.5559758 -1.1518594 -0.17108105 0
1.660405 -1.1341681 -0.17337836 0
1.7541851 -1.142992 -0.17210573 0
1.851 -1.187 -0.16599999 0
2.4521875 -1.1213852 -0.1229694 0
2.5746934 -1.1768539 -0.1093247 0
2.8640001 -1.1109999 -0.107 0
-2.0599632 -1.0831504 -0.18415742 0
-1.9519196 -1.0597233 -0.18371075 0
-1.8435419 -1.0595708 -0.18009049 0
-1.7465369 -1.0584728 -0.17862348 0
-1.652923 -1.0499817 -0.17971423 0
-1.5564415 -1.0495056 -0.17852774 0
-1.4509933 -1.0761778 -0.18023305 0
-1.3566952 -1.0691952 -0.17764489 0
-1.2566667 -1.0427908 -0.17682953 0
-1.199 -1.086 -0.176 0
1.267 -1.036 -0.17050001 0
1.3536739 -1.046593 -0.17199564 0
1.4488126 -1.0449882 -0.1707608 0
1.5595131 -1.0453485 -0.1722064 0
1.6479537 -1.0544624 -0.17195705 0
1.7157508 -1.0486765 -0.17279434 0
1.8696787 -1.022734 -0.1666317 0
2.2480114 -1.0289373 -0.14571059 0
2.3365362 -1.0331184 -0.13983884 0
2.4321012 -1.0224661 -0.12267935 0
2.5516186 -1.0486125 -0.12978487 0
2.6646075 -1.0624135 -0.12331209 0
2.7357426 -1.0393651 -0.12406637 0
2.8381348 -1.0672015 -0.10845556 0
3.2449999 -1.003 -0.121 0
-2.1400001 -0.95999998 -0.106 0
-2.0495608 -0.94103903 -0.16167991 0
-1.9325784 -0.95321053 -0.1826634 0
-1.8257936 -0.94540948 -0.18187587 0
-1.767555 -0.9289574 -0.17992988 0
-1.6435477 -0.96169889 -0.17577991 0
-1.5377829 -0.95846045 -0.17934796 0
-1.4413807 -0.95502758 -0.17794104 0
-1.3431165 -0.95577049 -0.17719184 0
-1.2556667 -0.95333338 -0.17633332 0
1.276 -0.94550002 -0.16850001 0
1.3376714 -0.95727587 -0.17060219 0
1.4494451 -0.94517571 -0.17233349 0
1.5514969 -0.95631397 -0.17063239 0
1.646798 -0.95194536 -0.17088063 0
1.7354525 -0.94482273 -0.17042114 0
1.9712307 -0.90378618 -0.17267053 0
2.0302236 -0.9303264 -0.16996783 0
2.162302 -0.9345336 -0.14951515 0
2.2680044 -0.9421702 -0.13767003 0
2.3517356 -0.96341354 -0.12506232 0
2.4491303 -0.9559474 -0.15252759 0
2.539752 -0.97046143 -0.15317915 0
2.6426489 -0.97697091 -0.13472538 0
2.9504952 -0.91757643 -0.13753361 0
3.0798402 -0.95509404 -0.13027212 0
3.1660702 -0.98010582 -0.12543114 0
-2.043 -0.80900002 -0.184 0
-1.9395363 -0.8814612 -0.15802953 0
-1.8470598 -0.86480808 -0.17440008 0
-1.7656765 -0.83802032 -0.17559032 0
-1.6574353 -0.85100919 -0.18046638 0
-1.5508935 -0.85215712 -0.17820708 0
-1.4607892 -0.85000813 -0.1774946 0
-1.3624138 -0.82958573 -0.17636622 0
-1.2806667 -0.84999996 -0.176 0
1.2975 -0.847 -0.168 0
1.3561335 -0.85240734 -0.17058645 0
1.4513695 -0.85883313 -0.1703635 0
1.5575562 -0.85430789 -0.16884582 0
1.6690582 -0.85722095 -0.16894926 0
1.850625 -0.84982622 -0.1714198 0
1.9488096 -0.82198203 -0.16314873 0
2.0434926 -0.84305447 -0.15645288 0
2.1490557 -0.87865889 -0.14444815 0
2.4000001 -0.88700002 -0.169 0
2.5624602 -0.80502349 -0.15931803 0
2.6486902 -0.83003527 -0.15447704 0
2.7296505 -0.83106261 -0.14762145 0
2.8368578 -0.85486341 -0.14345276 0
3.1345077 -0.81201053 -0.12785754 0
3.2476711 -0.83978367 -0.12225418 0
-2.8168271 -0.75483245 -0.1004084 0
-2.7304018 -0.73151773 -0.10925191 0
-2.6439767 -0.70820302 -0.11809542 0
-2.42869 -0.7097199 -0.10138628 0
-2.3812382 -0.72672927 -0.10545948 0
-2.2980001 -0.70200002 -0.114 0
-2.1494987 -0.75509644 -0.15433334 0
-2.051311 -0.74760848 -0.182 0
-1.9614916 -0.73948467 -0.18289134 0
-1.88 -0.73100001 -0.184 0
-1.717 -0.78299999 -0.18700001 0
-1.6159124 -0.77811432 -0.18203273 0
-1.5410632 -0.76643038 -0.18057355 0
-1.4417508 -0.75261587 -0.17927763 0
-1.3341098 -0.74989772 -0.17700191 0
-1.2920001 -0.78200001 -0.176 0
1.3539753 -0.74468553 -0.16666195 0
1.4596604 -0.75566989 -0.16737986 0
1.548484 -0.75548828 -0.16754632 0
1.653854 -0.74763423 -0.16860412 0
1.74263 -0.75411105 -0.17022026 0
1.8607663 -0.74827474 -0.16738917 0
1.9349999 -0.77999997 -0.16599999 0
2.3831058 -0.73013282 -0.1613908 0
2.4697418 -0.75536531 -0.15794846 0
2.5626235 -0.73518234 -0.15546873 0
2.6649983 -0.74135619 -0.15255083 0
2.7664299 -0.74401224 -0.1524041 0
2.8390026 -0.76267016 -0.1499525 0
2.9588394 -0.76889706 -0.13655585 0
3.0466735 -0.79045379 -0.13220669 0
-2.5575514 -0.6848883 -0.12693894 0
-2.4711261 -0.66157359 -0.13578245 0
-2.3569551 -0.66602451 -0.12959182 0
-2.2825575 -0.63078678 -0.14976272 0
-2.1523137 -0.63762116 -0.17299417 0
-2.0418298 -0.6594162 -0.18014354 0
-1.9518933 -0.63950706 -0.18029109 0
-1.8513131 -0.653404 -0.1807863 0
-1.7741696 -0.62165546 -0.18054165 0
-1.679 -0.62300003 -0.182 0
-1.347 -0.69200003 -0.17900001 0
1.32725 -0.64674997 -0.16575 0
1.450032 -0.65873945 -0.16671883 0
1.5571018 -0.65725344 -0.166825 0
1.6594563 -0.65828162 -0.16703002 0
1.7572874 -0.63949239 -0.16729486 0
1.8584933 -0.63484365 -0.16744679 0
1.9379889 -0.65179288 -0.16550201 0
2.0280423 -0.60345316 -0.16195633 0
2.1150846 -0.62890631 -0.15991265 0
2.2389238 -0.65075612 -0.15943861 0
2.3284221 -0.6300602 -0.16538849 0
2.4437983 -0.65063268 -0.15412813 0
2.5253344 -0.64255673 -0.14115083 0
2.6075027 -0.68267018 -0.15395251 0
-2.2118504 -0.59162945 -0.16231298 0
-2.1254253 -0.56831473 -0.1711565 0
-2.0349402 -0.57885671 -0.18326087 0
-1.9391005 -0.55930841 -0.18231884 0
-1.8495473 -0.56217891 -0.17980324 0
-1.7531332 -0.54138875 -0.1794465 0
-1.6519445 -0.53892428 -0.17919894 0
-1.5599049 -0.52023053 -0.17845048 0
1.3439999 -0.56166667 -0.16599999 0
1.4343388 -0.54720151 -0.16634661 0
1.5459732 -0.54820263 -0.16632237 0
1.6618558 -0.55300337 -0.16640557 0
1.7578532 -0.54989147 -0.16636987 0
1.849081 -0.52671045 -0.16691257 0
1.937004 -0.55891895 -0.16531219 0
2.0408065 -0.53954709 -0.16120419 0
2.1508868 -0.54374868 -0.14807527 0
2.2562883 -0.54848766 -0.13444354 0
2.3683686 -0.5690226 -0.1214813 0
-1.7148243 -0.4880152 -0.18059394 0
-1.6567341 -0.47776955 -0.17877905 0
-1.5434738 -0.46655655 -0.17766058 0
-1.4673333 -0.46966663 -0.17833333 0
1.35525 -0.45400003 -0.1645 0
1.4558605 -0.44374478 -0.16444434 0
1.5595274 -0.43687335 -0.16518718 0
1.6606188 -0.45606256 -0.16594952 0
1.7521499 -0.45079887 -0.16598539 0
1.8545393 -0.44033286 -0.1665199 0
1.9427819 -0.44897437 -0.1616945 0
2.0192373 -0.42956948 -0.1578407 0
2.1150558 -0.48745367 -0.13783495 0
2.9505866 -0.41166401 -0.17341843 0
3.083904 -0.4307968 -0.17510211 0
3.155 -0.44100001 -0.176 0
1.3646666 -0.36366668 -0.16466667 0
1.4334543 -0.34725925 -0.16411427 0
1.5434244 -0.33756059 -0.16372909 0
1.6584361 -0.35923061 -0.164465 0
1.7568537 -0.34359789 -0.1644617 0
1.8438915 -0.35327148 -0.16530177 0
1.9305588 -0.36433583 -0.16290227 0
2.0009999 -0.31099999 -0.162 0
2.2839999 -0.31600001 -0.16500001 0
2.3728781 -0.3287552 -0.16612247 0
2.4617565 -0.34151042 -0.16724493 0
2.5636563 -0.3276276 -0.16751364 0
2.6532354 -0.33875436 -0.16821319 0
2.7428141 -0.34988111 -0.16891274 0
2.8323932 -0.36100784 -0.16961229 0
2.9377971 -0.33898273 -0.16776648 0
3.0139999 -0.347 -0.168 0
-1.318 -0.26899999 -0.127 0
-1.236756 -0.25288412 -0.1173637 0
-1.155512 -0.23676822 -0.10772739 0
1.3625 -0.26300001 -0.164 0
1.4547259 -0.26726854 -0.16457784 0
1.5243994 -0.25555536 -0.16414177 0
1.6543424 -0.25626493 -0.16423608 0
1.7609737 -0.23988883 -0.1638511 0
1.8359444 -0.25995225 -0.16409366 0
1.9334457 -0.26614869 -0.16334057 0
2.0291498 -0.24331582 -0.16497208 0
2.1252797 -0.25349829 -0.16527666 0
2.2155595 -0.26299655 -0.1655533 0
2.3559725 -0.25365219 -0.16547348 0
2.4712992 -0.25366357 -0.16561908 0
2.5464399 -0.22520292 -0.16522586 0
2.6366799 -0.23457006 -0.16559683 0
2.7269197 -0.24393722 -0.16596781 0
2.8171597 -0.25330436 -0.16633879 0
2.9426999 -0.26633579 -0.16685489 0
1.3655 -0.15549999 -0.164 0
1.4569217 -0.14125974 -0.16300192 0
1.5601504 -0.15895 -0.16358559 0
1.6516093 -0.15063561 -0.16351354 0
1.7596298 -0.16152862 -0.16438162 0
1.8485838 -0.15123665 -0.16415998 0
1.9280014 -0.14611481 -0.16342017 0
2.0420489 -0.15555954 -0.16483931 0
2.1603413 -0.16847193 -0.16491921 0
2.2505624 -0.17576027 -0.16515294 0
2.3156071 -0.15962863 -0.16628942 0
2.4509106 -0.16744295 -0.16643412 0
2.5862141 -0.17525728 -0.16657883 0
2.6764164 -0.18046683 -0.1666753 0
2.7666187 -0.18567637 -0.16677178 0
2.8364782 -0.14635579 -0.16582832 0
2.9362934 -0.15097545 -0.16598795 0
1.3455908 -0.045960154 -0.16250733 0
1.4436303 -0.040500391 -0.163124 0
1.5531464 -0.032812193 -0.16296108 0
1.6564645 -0.057904612 -0.16324943 0
1.7510102 -0.056783438 -0.16306092 0
1.8357048 -0.05956484 -0.16322251 0
1.9296659 -0.042617049 -0.16338833 0
2.0398502 -0.05749625 -0.16438568 0
2.1611958 -0.049272597 -0.1636679 0
2.2512441 -0.051184785 -0.16366799 0
2.3546362 -0.052028354 -0.16415027 0
2.461313 -0.05524436 -0.16363458 0
2.5513613 -0.057156548 -0.16363467 0
2.6414096 -0.059068736 -0.16363476 0
2.7314579 -0.060980916 -0.16363484 0
2.8247948 -0.040617879 -0.16237216 0
2.927 -0.052999999 -0.16500001 0
1.299 0.028999999 -0.16 0
1.3457984 0.067026429 -0.16165546 0
1.4480945 0.056164503 -0.16204108 0
1.5570366 0.057640187 -0.16176175 0
1.6646665 0.044375435 -0.16205987 0
1.7503332 0.046469294 -0.16194984 0
1.8478332 0.049542099 -0.16155986 0
1.9465863 0.057513256 -0.16109218 0
2.041831 0.031254489 -0.16188273 0
2.1520574 0.046852898 -0.16137448 0
2.2428684 0.048324063 -0.16192487 0
2.355371 0.058065504 -0.16257243 0
2.4698658 0.052327 -0.16330233 0
2.5606766 0.053798169 -0.16385271 0
2.6514878 0.055269334 -0.1644031 0
2.7422986 0.0567405 -0.16495349 0
2.8331096 0.058211669 -0.16550386 0
2.915 0.059500001 -0.16599999 0
3.2750001 0.077 -0.15899999 0
3.3627973 0.078972965 -0.14431234 0
3.4505944 0.080945939 -0.12962468 0
3.5383916 0.082918905 -0.11493703 0
3.6261885 0.084891871 -0.10024938 0
1.2900001 0.15333334 -0.16133334 0
1.3566536 0.16478035 -0.16130549 0
1.4593228 0.13591596 -0.16145973 0
1.558758 0.14671718 -0.16142136 0
1.646396 0.15158193 -0.16231899 0
1.7410792 0.15046847 -0.16150008 0
1.8428764 0.14539349 -0.16091011 0
1.9480991 0.16315246 -0.16193362 0
2.049983 0.13303903 -0.16055162 0
2.1397376 0.13868071 -0.1604941 0
2.2470295 0.14274049 -0.16053566 0
2.3494899 0.15143041 -0.16050127 0
2.453052 0.15065366 -0.16058281 0
2.5779395 0.14416149 -0.16146632 0
2.6680932 0.1492275 -0.16164961 0
2.7582469 0.15429351 -0.1618329 0
2.8340001 0.1585 -0.162 0
1.2655001 0.24399999 -0.16049999 0
1.3505504 0.26133004 -0.16043401 0
1.4561895 0.2200902 -0.16071689 0
1.540784 0.23330195 -0.16057535 0
1.6499802 0.26072875 -0.1613794 0
1.7411568 0.24971394 -0.16065574 0
1.8495219 0.25296912 -0.16030274 0
1.9572935 0.26377046 -0.16073121 0
2.0535269 0.23434666 -0.16229671 0
2.1427541 0.24478225 -0.16214219 0
2.2319813 0.25521785 -0.16198766 0
2.3212085 0.26565343 -0.16183314 0
2.4112763 0.24324554 -0.1619422 0
2.5366051 0.24072993 -0.16049193 0
2.6620357 0.23495829 -0.1587141 0
2.7448487 0.25222099 -0.15904799 0
2.8069999 0.28799999 -0.161 0
1.4631047 0.35540235 -0.16036801 0
1.5480584 0.3404541 -0.16126901 0
1.64535 0.35236278 -0.16136847 0
1.7655338 0.35002229 -0.15944485 0
1.8429091 0.34936404 -0.15970179 0
1.9295574 0.35695776 -0.15943888 0
2.0595286 0.34146717 -0.15900195 0
2.1487517 0.35553777 -0.15905112 0
2.2379746 0.3696084 -0.15910029 0
2.3304086 0.35344654 -0.16045567 0
2.442826 0.33187434 -0.1611598 0
2.5653393 0.36830544 -0.16119568 0
2.6783919 0.34139884 -0.16112253 0
2.7794955 0.35361046 -0.16101252 0
-1.065073 0.47728071 -0.12142018 0
-0.9568041 0.46005413 -0.10558941 0
1.332 0.454 -0.15800001 0
1.4244642 0.46805429 -0.15710317 0
1.5459867 0.4475221 -0.15824272 0
1.6536961 0.42133319 -0.16016427 0
1.7550148 0.43899992 -0.15974879 0
1.8613034 0.43708038 -0.15983056 0
1.9479538 0.43802842 -0.15965961 0
2.0644217 0.4493556 -0.15922835 0
2.1528599 0.46804988 -0.15894024 0
2.2694814 0.45919168 -0.15946634 0
2.3498638 0.44332704 -0.15879519 0
2.4372141 0.46028528 -0.158408 0
2.5488102 0.46034756 -0.15790321 0
2.668453 0.4595122 -0.1590028 0
2.7454085 0.44944653 -0.15945569 0
2.8039999 0.42500001 -0.162 0
-1.3072683 0.58357018 -0.15860505 0
-1.2137203 0.56358612 -0.14505777 0
-1.1452963 0.55706275 -0.14154127 0
-1.0402144 0.52292937 -0.11976067 0
1.4838568 0.50021726 -0.15841265 0
1.5597851 0.52332586 -0.15861899 0
1.6455148 0.52833891 -0.15822457 0
1.7468773 0.55700928 -0.14060737 0
1.8533781 0.57675189 -0.13907796 0
1.9292835 0.59828103 -0.13287172 0
2.0451605 0.51627988 -0.15911232 0
2.1325474 0.53837317 -0.15881643 0
2.2171926 0.53356206 -0.15853894 0
2.3363762 0.54269493 -0.15827094 0
2.4562073 0.55037218 -0.15801188 0
2.5360441 0.54927099 -0.15769164 0
2.653029 0.5594781 -0.15740402 0
2.7118607 0.53113359 -0.15732253 0
2.8485379 0.54524732 -0.15663859 0
2.9289999 0.56300002 -0.156 0
-1.3507847 0.65749168 -0.16495469 0
-1.2520651 0.64235175 -0.15762404 0
-1.1255 0.63499999 -0.1585 0
1.9435973 0.60369873 -0.16061805 0
2.0567513 0.63611388 -0.1582059 0
2.3947082 0.60465306 -0.15792875 0
2.4820948 0.62674636 -0.15763286 0
2.5694818 0.64883965 -0.15733698 0
2.6681926 0.63981211 -0.15703896 0
2.7878208 0.61282015 -0.15722001 0
2.858 0.62800002 -0.15700001 0
-1.7066171 0.78477818 -0.16599999 0
-1.6266081 0.77366978 -0.16206409 0
-1.5489744 0.75748628 -0.16359116 0
-1.451387 0.74948663 -0.16058734 0
-1.3422241 0.76314169 -0.16095048 0
-1.2389113 0.74695575 -0.15886173 0
-1.1509198 0.73777395 -0.16233249 0
-1.0300001 0.77999997 -0.15933333 0
-1.8380001 0.84799999 -0.16599999 0
-1.7739258 0.81716728 -0.16599999 0
-1.6265016 0.84431344 -0.16107805 0
-1.5487609 0.85330218 -0.16371684 0
-1.4326203 0.86846042 -0.16187848 0
-1.3498932 0.85027111 -0.16140245 0
-1.2604471 0.82976663 -0.16176954 0
-1.145902 0.86610419 -0.14819521 0
-1.0596377 0.85092217 -0.15440984 0
-1.7481509 0.97684604 -0.16600749 0
-1.6370754 0.91992301 -0.16550374 0
-1.5436039 0.96070129 -0.16228196 0
-1.452467 0.9386363 -0.16116767 0
-1.3672776 0.92153335 -0.16136882 0
-1.2481194 0.95657498 -0.13526194 0
-1.150692 0.94789362 -0.13760294 0
-1.967 1.089 -0.167 0
-1.8592265 1.0337691 -0.16651124 0
-1.7399375 1.0944198 -0.15926586 0
-1.6629455 1.0462424 -0.15935762 0
-1.521 1.018 -0.163 0
-1.4519029 1.0188639 -0.13872005 0
-1.3561821 1.0295553 -0.12816967 0
-1.261837 1.0406836 -0.12028096 0
-2.116574 1.1755955 -0.16428541 0
-2.0417869 1.1322978 -0.16564269 0
-1.8554258 1.1666859 -0.15912822 0
0.76033336 1.1603333 -0.15533334 0
0.83493567 1.1938747 -0.15629421 0
-2.2661481 1.2621911 -0.16157082 0
-2.191361 1.2188933 -0.1629281 0
-1.9630001 1.234 -0.15899999 0
0.67733335 1.258 -0.15433334 0
0.75597221 1.2483094 -0.15472783 0
0.85021824 1.2667886 -0.15369858 0
-2.4531155 1.3704354 -0.15817758 0
-2.340935 1.3054887 -0.16021352 0
-1.0549999 1.3279999 -0.106 0
-0.72233105 1.3467129 -0.16408136 0
0.579 1.3759999 -0.15700001 0
0.64278167 1.3457198 -0.15502322 0
0.76717234 1.3502765 -0.15367673 0
0.85014915 1.3515106 -0.153951 0
0.95330954 1.3688593 -0.15401188 0
-2.5179999 1.408 -0.15700001 0
-0.80848956 1.485208 -0.14236617 0
-0.76209325 1.4396567 -0.15262675 0
0.46225002 1.45675 -0.156 0
0.54903281 1.4563162 -0.1588051 0
0.64883995 1.441367 -0.1553309 0
0.75153732 1.4493848 -0.15293555 0
0.85513967 1.4617186 -0.15328737 0
0.93366742 1.445415 -0.15349431 0
1.0327628 1.4691517 -0.15371296 0
-2.5480361 1.5545816 -0.15419878 0
-2.473 1.506 -0.16599999 0
-0.15151827 1.5500563 -0.14274415 0
0.37400001 1.5779999 -0.15700001 0
0.44480619 1.5464294 -0.15495659 0
0.54190904 1.5509878 -0.15644734 0
0.65351057 1.5468917 -0.15634717 0
0.74568319 1.5432004 -0.15298189 0
0.84192711 1.5464293 -0.14907965 0
0.94885665 1.5534718 -0.14156617 0
1.0632508 1.5511537 -0.15302396 0
-2.6605902 1.6274542 -0.13649698 0
0.38932523 1.6307368 -0.15609851 0
0.44425246 1.6555195 -0.15094388 0
0.54978651 1.6435363 -0.1559587 0
0.65150452 1.6484587 -0.15939896 0
0.77809155 1.631744 -0.14642125 0
0.84905177 1.6656312 -0.12972344 0
0.95406717 1.6411322 -0.12943824 0
1.0382227 1.6602532 -0.13714507 0
1.1621696 1.6545312 -0.15299535 0
-2.8481801 1.7489082 -0.10699396 0
-2.773144 1.7003266 -0.11879517 0
0.48899999 1.745 -0.125 0
0.57942605 1.7289222 -0.15872926 0
0.622823 1.7398869 -0.1319544 0
0.72877622 1.7552305 -0.16068397 0
0.86460632 1.7371736 -0.11474325 0
0.92886633 1.7752757 -0.11491322 0
1.0366944 1.7496725 -0.11183447 0
1.1461307 1.7544087 -0.14719559 0
1.2398137 1.765759 -0.15256479 0
0.64300001 1.801 -0.124 0
0.74699998 1.8 -0.161 0
0.96100003 1.818 -0.112 0
1.0910591 1.8189104 -0.1083499 0
1.1510412 1.8442954 -0.12828654 0
1.2554753 1.8651813 -0.1515986 0
1.1938741 1.9135315 -0.12821579 0
1.2863793 1.9498781 -0.15149051 0
1.3692205 1.9511385 -0.15184721 0
1.3541869 2.0437987 -0.15158103 0
1.4468646 2.0623662 -0.15141664 0
1.3766837 2.1004858 -0.15260795 0
1.4550377 2.1562147 -0.15183321 0
1.522 2.1700001 -0.15099999 0
1.4741751 2.2305763 -0.15297064 0
-1.4221103 -3.6202092 -0.075878948 0
-1.3857605 -3.5347874 -0.086935334 0
-1.3523004 -3.4561563 -0.097112775 0
-1.557 -3.053 -0.096000001 0
-1.812 -2.908 -0.093000002 0
-1.5331501 -2.9420702 -0.088793278 0
-1.7875137 -2.8674426 -0.098631203 0
-1.5645103 -2.8677433 -0.079581119 0
-1.4737252 -2.8686056 -0.074189916 0
-2.0610001 -2.312 -0.059999999 0
3.1339731 -2.3274832 -0.064050786 0
3.2214999 -2.3495002 -0.063000001 0
-2.0333302 -2.2821038 -0.062703371 0
-1.9845535 -2.2294025 -0.067468919 0
2.9902015 -2.2222648 -0.089150615 0
3.0620873 -2.274874 -0.076600701 0
3.1446826 -2.2519855 -0.085944831 0
-1.9357767 -2.1767013 -0.072234459 0
-1.887 -2.1240001 -0.077 0
3.034996 -2.1725667 -0.099690385 0
-2.155618 -1.9275651 -0.074109755 0
-1.9780884 -1.9160426 -0.091853932 0
-2.1193404 -1.8890063 -0.0822054 0
-2.0958006 -1.8319762 -0.087880783 0
-0.4235253 -1.8714292 -0.095002733 0
-2.401 -1.778 -0.078000002 0
-2.3400655 -1.7323967 -0.088351071 0
-2.0300756 -1.7736042 -0.099645689 0
-0.439284 -1.7699581 -0.089867935 0
0.067148678 -1.7433071 -0.092680253 0
-2.4557283 -1.6532936 -0.086756922 0
-0.45011434 -1.6718737 -0.085104793 0
-0.37624419 -1.6557748 -0.058753874 0
0.06353157 -1.6547427 -0.084240332 0
-2.4589019 -1.5659494 -0.082583979 0
-2.3662462 -1.5457082 -0.094367445 0
-0.428 -1.595 -0.071999997 0
-0.35699999 -1.568 -0.044 0
-0.13595843 -1.5504678 -0.050856523 0
-0.055500001 -1.5595 -0.096500002 0
0.035597671 -1.5616555 -0.090505563 0
0.15105096 -1.5486088 -0.095558032 0
-2.5181096 -1.4435501 -0.0821537 0
-2.4353781 -1.4144697 -0.057367112 0
-0.12495142 -1.4471306 -0.058872432 0
-0.051433884 -1.4464735 -0.079104848 0
0.024568057 -1.4538032 -0.077609897 0
0.14310193 -1.4672177 -0.083116069 0
-2.4329958 -1.3937001 -0.098823786 0
-2.3518045 -1.3608118 -0.058360908 0
-2.247031 -1.3216441 -0.082621887 0
-0.12774435 -1.3437529 -0.045381609 0
-0.032054827 -1.3335367 -0.064611651 0
0.040089302 -1.347281 -0.059502982 0
0.13117838 -1.3451309 -0.064453125 0
0.74199998 -1.322 -0.0020000001 0
2.8506739 -1.3398995 -0.075197615 0
2.9617033 -1.3596525 -0.069724575 0
-2.2482905 -1.2954841 -0.040430155 0
-2.191 -1.2640001 -0.032000002 0
-0.11653535 -1.2637095 -0.040457495 0
-0.048069078 -1.2502267 -0.056180827 0
0.033099629 -1.2343955 -0.047364723 0
0.11925483 -1.223044 -0.045790169 0
2.7380342 -1.2508123 -0.091131762 0
2.8259017 -1.2905972 -0.081345104 0
2.9391422 -1.2115476 -0.040635563 0
-2.3283026 -1.1299068 -0.046527255 0
0.113 -1.159 -0.035999998 0
0.20876835 -1.1582372 -0.027892658 0
2.6939137 -1.1146381 -0.07490845 0
2.7693706 -1.1444572 -0.064362675 0
2.8448272 -1.1742764 -0.0538169 0
3.023 -1.118 -0.081 0
-2.2436597 -1.0862743 -0.053731814 0
-2.144814 -1.0426555 -0.011011384 0
2.535651 -1.0519038 -0.096793294 0
2.6184568 -1.0848191 -0.085454226 0
2.9661803 -1.0969321 -0.089025885 0
-2.6585 -0.91700006 -0.0059999991 0
-2.517 -0.96700001 -0.098999999 0
-2.4366043 -0.93639123 -0.084140152 0
-2.351403 -0.92159414 -0.058093429 0
-2.2717259 -0.9077251 -0.029956732 0
-2.951 -0.89600003 -0.046999998 0
-2.8806677 -0.87510496 -0.05421634 0
-2.7678735 -0.82867402 -0.063684754 0
-2.6305778 -0.84836996 -0.048387066 0
-2.5518358 -0.86718559 -0.030946851 0
-2.4734685 -0.83854842 -0.044957485 0
-2.3951015 -0.80991131 -0.058968116 0
-2.272202 -0.88291997 -0.05271567 0
-2.1530044 -0.84557962 -0.025683247 0
-2.8989999 -0.77700001 -0.092 0
-2.7434506 -0.79659951 -0.062931381 0
-2.6647604 -0.77487957 -0.072545104 0
-2.547055 -0.75359583 -0.087436609 0
-2.4644766 -0.75145859 -0.096918955 0
-2.3167343 -0.7812742 -0.072978742 0
-2.2383671 -0.75263709 -0.086989373 0
-2.0339956 -0.79000616 -0.013942238 0
-1.9549562 -0.76533103 -0.007054463 0
2.4497969 -0.57205856 -0.09894824 0
2.5009999 -0.58499998 -0.093000002 0
-1.439 -0.34999999 -0.046 0
-1.3587447 -0.32931048 -0.037490606 0
-1.2784895 -0.30862099 -0.028981211 0
-1.322 -0.266 -0.048999999 0
-1.2394915 -0.24922122 -0.040687576 0
-1.157732 -0.26253864 -0.021603128 0
-1.0621554 -0.22762281 -0.041868944 0
-0.99302387 -0.20453644 -0.088454783 0
-1.0568852 -0.13485855 -0.02881447 0
-0.94633132 -0.14191237 -0.034644868 0
-0.84373492 -0.14380442 -0.038654622 0
-0.75999999 -0.14300001 -0.017000001 0
-1.0435722 -0.088428631 -0.0622858 0
-0.94869703 -0.045430291 -0.02723879 0
-0.84969312 -0.078334011 -0.032404225 0
-0.78200001 -0.089000002 -0.017999999 0
-0.90899998 0.0099999998 -0.0049999999 0
-0.83465004 0.021895833 -0.012341662 0
-0.73473066 0.054670215 -0.011682105 0
-0.63915056 0.062232483 -0.011616695 0
-0.56300002 0.077 -0.012 0
3.7139857 0.086864844 -0.085561715 0
3.8456814 0.089824297 -0.063530236 0
3.9773769 0.092783749 -0.041498758 0
4.0705872 0.094878361 -0.025905557 0
-0.90600002 0.182 -0.039000001 0
-0.8460266 0.13862048 -0.031538773 0
-0.75262618 0.15971774 -0.015955798 0
-0.64659429 0.15304008 -0.013233392 0
-0.56673282 0.14564379 -0.010605577 0
-0.94067806 0.28164369 -0.034977727 0
-0.8335405 0.26150721 -0.028785238 0
-0.75602913 0.24414235 -0.023900846 0
-0.65093642 0.24027303 -0.024459846 0
-0.58233333 0.22166668 -0.018333333 0
-0.93266672 0.32733333 -0.053000003 0
-0.84998029 0.33149272 -0.04582699 0
-0.75614792 0.34182352 -0.064798668 0
-0.66712773 0.32777554 -0.060103104 0
-0.90360951 0.40642104 -0.096630268 0
-0.86464274 0.43028688 -0.091345787 0
1.237 0.43700001 -0.011 0
1.3186479 0.46794912 -0.00040263496 0
1.455 0.458 -0.048999995 0
1.5174919 0.47648352 -0.060050987 0
1.5998502 0.50084305 -0.074615128 0
1.6822085 0.52520251 -0.089179277 0
-1.303 1.196 -0.079000004 0
-1.2433461 1.139855 -0.08777263 0
-0.95817351 1.1624401 -0.03270831 0
-1.0220232 1.2660897 -0.060099609 0
-0.94666648 1.249894 -0.069017842 0
-1.1109999 1.35 -0.011 0
-1.0740408 1.304641 -0.01624988 0
-0.98392242 1.3534776 -0.045678861 0
-1.0294418 1.4181082 -0.041509148 0
-2.9232161 1.7974899 -0.09519276 0
-3.073288 1.8946531 -0.071590349 0
-2.9982522 1.8460715 -0.083391555 0
0.8847326 1.8189523 -0.099369958 0
0.92700005 1.862 -0.092500001 0
1.0617651 1.8260374 -0.098426439 0
1.141 1.876 -0.086000003 0
-3.2233601 1.9918163 -0.047987945 0
-3.148324 1.9432347 -0.059789144 0
-3.2360001 1.9999999 -0.046000004 0
-0.14 -1.62 0.015000001 0
-0.13635938 -1.5715933 0.0094716586 0
-0.13051954 -1.493945 0.0006037429 0
0.55519962 -1.3402081 0.0059168348 0
0.75 -1.321 0.018999999 0
0.51079863 -1.2388324 0.0086673405 0
0.71556228 -1.2629933 0.011049231 0
0.46909899 -1.1436243 0.011250505 0
0.64946687 -1.1446886 0.0088558029 0
-2.1570001 -0.93300003 0.0020000001 0
-2.0559402 -0.94466364 0.010347513 0
-1.9536281 -0.95131117 0.022977225 0
-1.8771536 -0.9147734 0.036572672 0
-2.5678287 -0.89532757 0.010665976 0
-2.4417143 -0.86321259 0.025109962 0
-2.3399105 -0.83327448 0.03752654 0
-2.2750142 -0.82947755 0.036778338 0
-2.197521 -0.80171633 0.04716751 0
-2.0202293 -0.8449285 0.014899778 0
-1.9313331 -0.83843482 0.02993972 0
-1.828395 -0.84257436 0.044710539 0
-1.796 -0.87599999 0.050999999 0
-2.2471428 -0.78063786 0.061329883 0
-2.1434996 -0.76296026 0.065776274 0
-2.0671117 -0.72916228 0.081202559 0
-1.9612869 -0.75512147 0.034745093 0
-1.8517805 -0.73346961 0.023238853 0
-1.7589442 -0.76619565 0.051283099 0
3.1874785 -0.70491612 0.02226048 0
3.273 -0.72299999 0.02 0
2.759871 -0.61449695 0.03356288 0
2.8453925 -0.63258076 0.0313024 0
2.9309139 -0.65066463 0.02904192 0
3.0164354 -0.66874844 0.02678144 0
3.1019571 -0.68683231 0.02452096 0
2.592 -0.579 0.037999999 0
2.6743495 -0.59641314 0.03582336 0
-1.3765978 -0.32779539 0.034492116 0
-1.2757565 -0.3032726 0.027387388 0
-1.1513985 -0.25719693 0.019328078 0
-1.0656009 -0.22976799 0.014300452 0
-0.958 -0.226 0.0049999994 0
-1.0114086 -0.15529624 0.0076464238 0
-0.94400758 -0.14128554 0.017378855 0
-0.84028929 -0.13878603 0.0080570579 0
-0.78600001 -0.15700001 0.0049999994 0
-1.046 -0.057999998 0.0080000004 0
-0.94505417 -0.054602779 0.017706335 0
-0.84615278 -0.049668476 0.019636018 0
-0.80000001 -0.0060000001 0.011 0
-0.83473748 0.029844312 0.021666313 0
-0.74421692 0.039630387 0.012746205 0
-0.64724219 0.054565933 0.0087239509 0
-0.56936055 0.076763563 0.006865914 0
-0.84478557 0.18632098 0.010050504 0
-0.73549205 0.16644391 0.016330104 0
-0.65056956 0.15241385 0.0083905933 0
-0.56428987 0.15044826 0.0072303433 0
-0.93473488 0.23630446 0.01060761 0
-0.82819563 0.25371999 0.019237839 0
-0.74799871 0.24360786 0.013766759 0
-0.65753502 0.23883881 0.0069955974 0
-0.58400726 0.22088408 0.0085643027 0
-0.82942986 0.3270545 0.022582028 0
-0.75658447 0.32064301 0.016501524 0
1.4041479 0.48594913 0.005097365 0
1.4857759 0.51553786 0.013807541 0
1.567404 0.54512668 0.022517715 0
1.649032 0.57471544 0.03122789 0
1.7344329 0.58591372 0.027291939 0
0.87300003 0.66799998 0.017999999 0
1.7268872 0.62269473 0.052584194 0
1.8531021 0.64868736 0.053003326 0
1.9471288 0.68229949 0.062380444 0
2.0179999 0.68400002 0.050999999 0
0.9377166 0.72154254 0.013344126 0
1.012 0.78299999 0.0080000004 0
