# .PCD v0.7 - Point Cloud Data file format
VERSION 0.7
FIELDS x y z intensity
SIZE 4 4 4 4
TYPE F F F F
COUNT 1 1 1 1
WIDTH 1403
HEIGHT 1
VIEWPOINT 0 0 0 1 0 0 0
POINTS 1403
DATA ascii
0.068808541 -3.5553319 -0.20477596 0
0.161272 -3.5611868 -0.20525703 0
0.23557729 -3.5432332 -0.20322886 0
0.32477149 -3.5402248 -0.20255733 0
-2.816 -3.4690001 -0.23 0
-2.7577879 -3.4021826 -0.21501671 0
-1.1657859 -3.4458373 -0.21611845 0
-1.0908186 -3.4854059 -0.21725087 0
-0.90519702 -3.4432721 -0.21403724 0
-0.82848477 -3.4772274 -0.21274129 0
-0.76598859 -3.4451265 -0.20994087 0
-0.65453184 -3.4366863 -0.20956188 0
-0.41596413 -3.4667201 -0.20950958 0
-0.25400001 -3.447 -0.208 0
-0.175 -3.4549999 -0.206 0
0.13690138 -3.4400039 -0.204 0
0.27149999 -3.467 -0.20300001 0
0.33161542 -3.484473 -0.20333597 0
0.43895167 -3.4301963 -0.20098835 0
-2.6995757 -3.3353653 -0.2000334 0
-1.1393393 -3.360878 -0.21633883 0
-1.0537616 -3.3562536 -0.2167818 0
-0.84756058 -3.3743331 -0.21309283 0
-0.76896465 -3.3311496 -0.21081948 0
-0.64076591 -3.3518431 -0.20928094 0
-0.40900001 -3.3840001 -0.20900001 0
0.127 -3.3399999 -0.204 0
0.37225521 -3.3557794 -0.20430858 0
0.47124803 -3.3561442 -0.20041676 0
-1.1128929 -3.2759185 -0.21655922 0
-1.0167047 -3.2271016 -0.21631272 0
-0.86439902 -3.2710907 -0.21334575 0
-0.74977338 -3.2439938 -0.21042144 0
-0.62699997 -3.267 -0.20900001 0
0.462062 -3.2502861 -0.2008542 0
-1.1842005 -3.1387439 -0.2051394 0
-1.0732231 -3.1484795 -0.2168898 0
-0.99199998 -3.141 -0.21600001 0
-0.84399998 -3.1849999 -0.213 0
-0.70532572 -3.1794176 -0.20829391 0
-7.2549376 -3.0702653 -0.21361443 0
-7.1337752 -3.011306 -0.23124577 0
-2.2037885 -3.0278115 -0.20078687 0
-1.15 -3.0599999 -0.213 0
-0.67499435 -3.0465634 -0.20747043 0
-7.053 -2.9719999 -0.243 0
-4.0170002 -2.9059999 -0.255 0
-2.1531043 -2.9564099 -0.20510302 0
-0.64466286 -2.9137089 -0.20664695 0
-3.9526601 -2.8630192 -0.25513104 0
-3.8815501 -2.815516 -0.25527588 0
-2.1024203 -2.8850083 -0.20941919 0
-2.0517364 -2.8136067 -0.21373536 0
-0.62444192 -2.8251393 -0.20609798 0
-3.8104401 -2.7680128 -0.25542068 0
-3.7393301 -2.7205095 -0.25556552 0
-2.0010521 -2.7422051 -0.21805152 0
-1.629385 -2.7441816 -0.20242205 0
-1.5666226 -2.7087765 -0.21482024 0
-1.4809999 -2.7049999 -0.226 0
-0.60422093 -2.7365696 -0.20554899 0
-3.66822 -2.6730065 -0.25571036 0
-3.59711 -2.6255033 -0.25585517 0
-1.9503682 -2.6708033 -0.22236767 0
-1.6450863 -2.6255388 -0.20966974 0
-1.522 -2.631 -0.226 0
-1.4540375 -2.6563947 -0.2249798 0
-0.58399999 -2.648 -0.205 0
-3.526 -2.5780001 -0.25600001 0
-1.8517615 -2.5525599 -0.21966797 0
-1.640705 -2.5498362 -0.21586883 0
-1.5390053 -2.5552778 -0.22570068 0
-1.4336455 -2.5488517 -0.22354603 0
-1.3682781 -2.501796 -0.22173485 0
-4.3060002 -2.4170001 -0.257 0
-4.2975097 -2.4123731 -0.25696424 0
-1.7537335 -2.4568522 -0.20921339 0
-1.5899515 -2.4693301 -0.2258914 0
-1.454339 -2.4480679 -0.22302192 0
-1.3253984 -2.4244967 -0.22011237 0
-0.97157121 -2.4193134 -0.20212348 0
-4.2193418 -2.3697762 -0.25663486 0
-4.1411743 -2.3271792 -0.25630552 0
-1.8174205 -2.3088591 -0.20771386 0
-1.7379471 -2.3565979 -0.21398254 0
-1.648 -2.3099999 -0.22499999 0
-1.5358725 -2.3864915 -0.22396491 0
-1.4478916 -2.3319385 -0.22162186 0
-1.3669522 -2.3664343 -0.22066766 0
-1.2825187 -2.3471973 -0.2184899 0
-1.0174787 -2.3758066 -0.20672713 0
-0.93699998 -2.339 -0.214 0
-4.0630064 -2.2845821 -0.25597614 0
-3.9848387 -2.2419851 -0.2556468 0
-1.7617102 -2.2379296 -0.21635692 0
-1.6418662 -2.2453985 -0.22430763 0
-1.4399089 -2.2394938 -0.22054636 0
-1.3405054 -2.259778 -0.21895069 0
-1.2587051 -2.2420793 -0.21723402 0
-0.98400003 -2.2950001 -0.21600001 0
-4.5339999 -2.148 -0.26300001 0
-4.468205 -2.1172462 -0.26283512 0
-3.906671 -2.199388 -0.25531745 0
-3.8285034 -2.156791 -0.25498807 0
-3.7503355 -2.1141942 -0.25465873 0
-1.7299055 -2.1631403 -0.22063214 0
-1.6654031 -2.1161816 -0.22345713 0
-1.5320756 -2.1499834 -0.22091198 0
-1.3522069 -2.1602006 -0.21795626 0
-1.2331809 -2.1381738 -0.21606706 0
-1.1753194 -2.1539493 -0.2144337 0
-1.0880001 -2.1129999 -0.214 0
-4.3461709 -2.0602052 -0.26252925 0
-4.2241368 -2.0031641 -0.26222342 0
-3.6721678 -2.0715971 -0.25432935 0
-3.5940001 -2.029 -0.25400001 0
-1.723 -2.085 -0.22400001 0
-1.6524016 -2.0491216 -0.22213732 0
-1.4554186 -2.0441697 -0.21820872 0
-1.3439454 -2.0924964 -0.21712781 0
-1.2608167 -2.0344679 -0.21483131 0
-1.1497953 -2.0500436 -0.21326676 0
-4.1427808 -1.9651368 -0.26201952 0
-4.0614243 -1.9271095 -0.26181561 0
-1.6605881 -1.9462894 -0.21732225 0
-1.5471592 -1.9364796 -0.2184061 0
-1.4043139 -1.9736272 -0.21640652 0
-1.3532094 -1.9030848 -0.21460435 0
-1.2479818 -1.9454987 -0.21370926 0
-1.159 -1.9579999 -0.21250001 0
-3.9800684 -1.8890821 -0.2616117 0
-3.8580341 -1.832041 -0.26130587 0
-1.707 -1.876 -0.215 0
-1.6738124 -1.8400029 -0.21412203 0
-1.5632297 -1.8481413 -0.21517307 0
-1.4480299 -1.8440778 -0.21519591 0
-1.3021047 -1.8325424 -0.21280217 0
-1.2 -1.872 -0.212 0
-3.7360001 -1.775 -0.26100001 0
-1.754758 -1.725293 -0.2158965 0
-1.6163436 -1.7776691 -0.21260169 0
-1.551337 -1.748575 -0.21177734 0
-1.458079 -1.7401055 -0.21257854 0
-1.3665149 -1.742039 -0.21209796 0
-1.251 -1.762 -0.211 0
-2.1900001 -1.613 -0.22 0
-1.808 -1.641 -0.21699999 0
-1.736383 -1.6545943 -0.21514729 0
-1.6567285 -1.6562326 -0.21274127 0
-1.5014062 -1.6530014 -0.20956101 0
-1.4318995 -1.6544073 -0.20973668 0
-1.3596777 -1.6514411 -0.21012612 0
-1.285 -1.64 -0.20900001 0
-2.256 -1.541 -0.226 0
-2.1669259 -1.5971445 -0.21948437 0
-2.066448 -1.5281012 -0.21723905 0
-1.8310001 -1.5465 -0.2165 0
-1.7677341 -1.5673494 -0.21525699 0
-1.6604937 -1.5580271 -0.21226442 0
-1.56591 -1.5667629 -0.20981888 0
-1.4439374 -1.5906676 -0.20804067 0
-1.3466047 -1.5577593 -0.20747218 0
-4.3239999 -1.469 -0.244 0
-4.269948 -1.4501343 -0.24444918 0
-4.1864548 -1.4209925 -0.24514304 0
-2.23 -1.487 -0.22 0
-2.1524518 -1.4537048 -0.22025548 0
-1.9659703 -1.4590578 -0.21499375 0
-1.8989851 -1.4130288 -0.21349688 0
-1.7449012 -1.4625235 -0.21311195 0
-1.6394894 -1.455233 -0.21067132 0
-1.5590677 -1.4529054 -0.20860851 0
-1.4590327 -1.4386015 -0.20607573 0
-1.329 -1.466 -0.205 0
-4.1029611 -1.3918507 -0.24583688 0
-4.0194674 -1.3627089 -0.24653074 0
-3.9359741 -1.3335671 -0.2472246 0
-3.8524804 -1.3044254 -0.24791844 0
-2.2162671 -1.3627791 -0.22168919 0
-2.1258085 -1.3061628 -0.21978077 0
-2.0443392 -1.3819993 -0.21699788 0
-1.9722642 -1.3341956 -0.21482617 0
-1.832 -1.367 -0.212 0
-1.6625952 -1.3722463 -0.20962906 0
-1.5503689 -1.3441882 -0.20687668 0
-1.4333559 -1.3376352 -0.20420285 0
-1.3585 -1.3310001 -0.2025 0
-3.7689869 -1.2752836 -0.2486123 0
-3.6437469 -1.231571 -0.24965307 0
-2.0500824 -1.2587675 -0.21818317 0
-1.9409304 -1.2471721 -0.21376798 0
-1.8497006 -1.2556624 -0.2117746 0
-1.5307976 -1.2651231 -0.20481452 0
-1.4588311 -1.23642 -0.20288923 0
-1.383 -1.2309999 -0.2015 0
-1.8607672 -1.1402791 -0.21418917 0
-1.7435824 -1.186541 -0.20957232 0
-1.6689368 -1.1349057 -0.20717923 0
-2.3550043 -1.0611188 -0.22093952 0
-2.2439678 -1.0254736 -0.21877164 0
-1.7471782 -1.0691861 -0.2117928 0
-1.671452 -1.0217907 -0.2101952 0
-1.5569685 -1.0574529 -0.20358962 0
-2.2406695 -0.94691253 -0.21412635 0
-2.1511827 -0.95332623 -0.21440843 0
-2.0548685 -0.93638551 -0.21288225 0
-1.9814863 -0.90959299 -0.2118327 0
-1.557863 -0.95069766 -0.20779881 0
-2.260771 -0.8526271 -0.21164215 0
-2.1624057 -0.85970289 -0.21104063 0
-2.0582016 -0.83856589 -0.21044642 0
-1.9433054 -0.86002976 -0.20910874 0
-1.8576621 -0.84603095 -0.20711091 0
-2.2738862 -0.75480843 -0.21192992 0
-2.1533818 -0.77085161 -0.21105471 0
-2.054369 -0.75745988 -0.20909379 0
-1.958989 -0.7608493 -0.20805331 0
-1.8599027 -0.75914216 -0.20655416 0
-1.7550081 -0.75228882 -0.20513773 0
-1.6637158 -0.73627329 -0.20258677 0
-1.5785811 -0.72076553 -0.20030545 0
-2.2595115 -0.6402275 -0.20943849 0
-2.1440527 -0.65769935 -0.20866688 0
-2.0254574 -0.6395179 -0.2067664 0
-1.9403811 -0.61293161 -0.20513867 0
-1.8458818 -0.68185157 -0.20655471 0
-1.7207897 -0.63648659 -0.20503126 0
-1.6492573 -0.64276332 -0.20405619 0
-1.5608174 -0.64475387 -0.20139067 0
-4.0009999 -0.57700002 -0.223 0
-3.9391551 -0.56851518 -0.22545117 0
-3.8250887 -0.5528658 -0.22997209 0
-3.7490444 -0.5424329 -0.23298605 0
-3.6730001 -0.53200001 -0.236 0
-2.2329419 -0.55282301 -0.20788521 0
-2.1347675 -0.53653735 -0.20692754 0
-2.0421686 -0.56477004 -0.20578502 0
-1.961 -0.54185796 -0.20450589 0
-1.8756524 -0.56567264 -0.20375547 0
-1.7702286 -0.55975896 -0.2018832 0
-1.6851524 -0.53317261 -0.20025547 0
-1.554 -0.57599998 -0.20299999 0
-2.313 -0.44 -0.212 0
-2.2467997 -0.45622557 -0.21124458 0
-2.1467409 -0.46499842 -0.20679173 0
-2.0732505 -0.49234262 -0.20687428 0
-1.9598126 -0.46283567 -0.20621857 0
-1.8636625 -0.49289188 -0.20245351 0
-1.7779968 -0.47016892 -0.20109013 0
-3.9843707 -0.38942781 -0.22295386 0
-3.8504395 -0.37581515 -0.22185606 0
-3.7221379 -0.36277467 -0.22080441 0
-3.6366034 -0.354081 -0.22010331 0
-3.551069 -0.34538734 -0.21940221 0
-3.4655344 -0.33669367 -0.21870109 0
-3.3800001 -0.32800001 -0.21799999 0
-3.249465 -0.31427336 -0.21813199 0
-3.1139178 -0.30001968 -0.21826904 0
-2.3628755 -0.36307386 -0.21752492 0
-2.2680626 -0.3502869 -0.21938747 0
-4.0100002 -0.206 -0.226 0
-3.9691181 -0.20358549 -0.22517687 0
-3.0456975 -0.25003761 -0.21695438 0
-2.9366863 -0.27393413 -0.21753988 0
-2.84693 -0.26544207 -0.21779631 0
-2.7571735 -0.25694996 -0.21805274 0
-2.667417 -0.24845791 -0.21830919 0
-2.5776608 -0.23996584 -0.21856563 0
-2.4603682 -0.22830363 -0.2189337 0
-2.348716 -0.23782724 -0.21752615 0
-2.2567978 -0.24690962 -0.21994452 0
-4.007 -0.114 -0.227 0
-3.940845 -0.11143585 -0.22554699 0
-3.866734 -0.15319684 -0.22350419 0
-3.7540157 -0.16191898 -0.22105114 0
-3.6462312 -0.14197008 -0.21890265 0
-3.5290444 -0.17759456 -0.21631633 0
-3.4410295 -0.17239638 -0.21454421 0
-3.3530149 -0.16719818 -0.2127721 0
-3.2650001 -0.162 -0.211 0
-2.9403129 -0.19685392 -0.21762662 0
-2.8510237 -0.19137217 -0.21804829 0
-2.7617345 -0.18589044 -0.21846996 0
-2.6724455 -0.18040869 -0.21889164 0
-2.5831563 -0.17492695 -0.21931331 0
-2.4492228 -0.16670436 -0.21994582 0
-2.3152893 -0.15848173 -0.22057833 0
-2.2260001 -0.153 -0.221 0
-3.5869226 -0.097717926 -0.21777348 0
-3.4542017 -0.092573702 -0.21485843 0
-3.3214808 -0.087429479 -0.21194337 0
-3.233 -0.083999999 -0.20999999 0
-3.0218611 -0.058710426 -0.21607722 0
-2.9164197 -0.056818537 -0.21658173 0
-2.8271174 -0.055216219 -0.21700901 0
-2.7378149 -0.053613901 -0.2174363 0
-2.6485124 -0.052011587 -0.21786357 0
-2.5592098 -0.050409269 -0.21829087 0
-2.4699073 -0.04880695 -0.21871814 0
-2.380605 -0.047204632 -0.21914543 0
-2.2466512 -0.044801161 -0.21978635 0
-3.9260001 0.068999998 -0.22499999 0
-3.8537149 0.068802498 -0.22341999 0
-3.721772 0.068442002 -0.22053599 0
-3.63381 0.068201669 -0.21861333 0
-3.5458479 0.067961335 -0.21669066 0
-3.457886 0.067721002 -0.21476801 0
-3.3699241 0.067480668 -0.21284534 0
-3.2819619 0.067240335 -0.21092267 0
-3.1846426 0.066869341 -0.20901006 0
-3.0315447 0.053449064 -0.21370906 0
-2.9680214 0.042444281 -0.2145157 0
-2.8520715 0.05383978 -0.21308672 0
-2.7382336 0.055915296 -0.21526375 0
-2.6289289 0.047348659 -0.21509214 0
-2.5393901 0.045994874 -0.21541351 0
-2.4498518 0.044641089 -0.21573488 0
-2.3603132 0.043287303 -0.21605627 0
-2.2707744 0.041933518 -0.21637762 0
-2.1855001 0.034499999 -0.22 0
-2.9534144 0.15128089 -0.2139201 0
-2.8597586 0.17090964 -0.2081767 0
-2.771436 0.1655654 -0.20836575 0
-2.6831131 0.16022117 -0.20855479 0
-2.5506291 0.15220483 -0.20883836 0
-2.4181452 0.14418846 -0.20912191 0
-2.3298225 0.13884422 -0.20931095 0
-2.2414999 0.13349999 -0.2095 0
-3.0501251 0.2075946 -0.20107602 0
-2.9543335 0.20194596 -0.20213513 0
-2.6334298 0.25897789 -0.20072795 0
-2.5505438 0.2493823 -0.20238236 0
-2.457695 0.26843569 -0.20347476 0
-2.3507154 0.24550326 -0.20588176 0
-2.2344148 0.24945386 -0.20776808 0
-2.5299764 0.30844623 -0.20121698 0
-2.4313378 0.35366517 -0.20093633 0
-2.336833 0.36638197 -0.202742 0
-2.2564163 0.35219097 -0.205121 0
-2.1760001 0.338 -0.20750001 0
-9.0340004 1.329 -0.219 0
-8.9799366 1.3589543 -0.2284977 0
0.71899998 -3.823 -0.198 0
-2.3453553 -3.7508543 -0.18171369 0
0.71106732 -3.7780838 -0.1981072 0
-2.2747934 -3.6385062 -0.15844811 0
-1.3937018 -3.6211038 -0.15698791 0
0.59837568 -3.6292136 -0.19990724 0
0.68772274 -3.6459031 -0.19842267 0
0.86313593 -3.6467724 -0.19499081 0
-2.227752 -3.5636072 -0.14293773 0
-1.3552032 -3.5324636 -0.16583639 0
0.58481306 -3.5408447 -0.19958937 0
0.66437817 -3.5137224 -0.19873813 0
0.72399998 -3.5109999 -0.19400001 0
0.82367235 -3.5262952 -0.19344173 0
0.93020952 -3.5619426 -0.19395834 0
-2.1571898 -3.4512591 -0.11967216 0
-1.9766133 -3.4233823 -0.1121012 0
-1.3210026 -3.4537196 -0.17369699 0
0.44150001 -3.4745002 -0.2 0
0.57125044 -3.4524758 -0.1992715 0
0.64881516 -3.425602 -0.19894844 0
0.74358064 -3.4566138 -0.19367005 0
0.82141751 -3.4626358 -0.1947853 0
0.94141912 -3.4424436 -0.19124167 0
1.066 -3.427 -0.192 0
-7.9120002 -3.3900001 -0.118 0
-7.8607507 -3.3650615 -0.12545772 0
-7.7799759 -3.3257554 -0.13721195 0
-2.01 -3.3069999 -0.103 0
-1.923604 -3.3309879 -0.12538216 0
-1.2868021 -3.3749757 -0.1815576 0
0.55768788 -3.3641067 -0.19895363 0
0.63325214 -3.3374817 -0.19915876 0
0.75358272 -3.3501489 -0.19407623 0
0.84141278 -3.3710947 -0.19411024 0
0.93341017 -3.3226008 -0.19 0
1.041114 -3.3436973 -0.1915634 0
1.1255293 -3.3401337 -0.19179809 0
1.4608815 -3.3588543 -0.18503341 0
-7.658813 -3.2667961 -0.1548433 0
-7.5376506 -3.2078369 -0.17247464 0
-2.6413636 -3.2685478 -0.1850501 0
-2.5831513 -3.2017303 -0.1700668 0
-2.0740252 -3.2386808 -0.12384419 0
-1.9678614 -3.2366452 -0.1144164 0
-1.8789814 -3.2532115 -0.13656192 0
-1.2355013 -3.2568598 -0.1933485 0
0.54412526 -3.2757378 -0.19863574 0
0.65484452 -3.2671807 -0.19718453 0
0.77128154 -3.2638636 -0.19479448 0
0.85929334 -3.2798193 -0.19334169 0
0.91494012 -3.2450671 -0.19 0
1.0525277 -3.2439342 -0.19097182 0
1.1857004 -3.2679768 -0.1908693 0
1.4203683 -3.2583213 -0.18520014 0
-7.4568753 -3.1685307 -0.18422887 0
-7.3761001 -3.1292245 -0.1959831 0
-2.5249393 -3.134913 -0.15508351 0
-2.2420001 -3.1085 -0.16749999 0
-2.0223451 -3.1565256 -0.13481954 0
-1.9220991 -3.1602402 -0.12681457 0
-1.8343587 -3.1754351 -0.14774168 0
0.53056264 -3.1873689 -0.19831787 0
0.60212606 -3.1612408 -0.19957937 0
0.75167239 -3.1547952 -0.19444174 0
0.84964371 -3.1547022 -0.19203611 0
0.98909116 -3.1695578 -0.19065073 0
1.0618469 -3.1452136 -0.19007695 0
1.1498007 -3.1727149 -0.19030395 0
1.2955004 -3.1146541 -0.19023471 0
1.3529868 -3.1724672 -0.18816672 0
-2.4376211 -3.034687 -0.13260856 0
-2.2562361 -3.0541067 -0.16573536 0
-2.1766677 -3.0442605 -0.14606696 0
-1.9507875 -3.0427713 -0.15001628 0
-1.8534555 -3.0456326 -0.14541185 0
-1.7674246 -3.0587704 -0.16451132 0
-1.2309999 -3.0220001 -0.113 0
0.55178154 -3.08606 -0.19889484 0
0.7574746 -3.0198088 -0.19353059 0
0.87800002 -3.0899999 -0.19 0
0.96307975 -3.0824881 -0.19019438 0
1.0641706 -3.0427127 -0.189376 0
1.1222005 -3.0994768 -0.1898693 0
1.2643753 -3.0422406 -0.18917604 0
1.3393815 -3.057354 -0.1855334 0
-2.3503027 -2.9344606 -0.11013361 0
-2.2586246 -2.9391131 -0.13706826 0
-2.123801 -2.9708347 -0.15396026 0
-1.87923 -2.9290171 -0.16521302 0
-1.7426512 -2.9365654 -0.17264503 0
-1.2424664 -2.9629867 -0.13326828 0
-1.1789988 -2.9011946 -0.13086434 0
0.57099998 -2.9849999 -0.2 0
0.73649001 -2.9319873 -0.19338566 0
0.92406267 -2.9518833 -0.18950987 0
1.0363176 -2.9630802 -0.18877885 0
1.2620198 -2.9533005 -0.18692537 0
-2.2352471 -2.8408306 -0.14289084 0
-2.1367617 -2.848042 -0.15371604 0
-2.0445008 -2.8606954 -0.16580021 0
-1.831525 -2.8531809 -0.17534418 0
-1.7390496 -2.8546202 -0.17640728 0
-1.6558679 -2.8643293 -0.19246072 0
-1.2183506 -2.8606453 -0.15108991 0
-1.1444275 -2.8208811 -0.14274086 0
0.6819272 -2.8469546 -0.19409817 0
0.74908382 -2.8413768 -0.19238333 0
0.88504559 -2.821279 -0.18882537 0
0.96347642 -2.8441203 -0.18741828 0
1.171 -2.825 -0.186 0
1.2302599 -2.8769002 -0.1864627 0
1.4382892 -2.8745792 -0.18579984 0
-2.242723 -2.7538941 -0.10903383 0
-2.1516819 -2.7344363 -0.15585545 0
-2.0552742 -2.7398582 -0.16629556 0
-1.9652007 -2.7505565 -0.17764017 0
-1.7599676 -2.7394266 -0.19054094 0
-1.6932871 -2.7782152 -0.18880546 0
-1.1473641 -2.7602034 -0.15749007 0
0.662 -2.7590001 -0.19400001 0
0.7270419 -2.7536883 -0.19219168 0
0.85903418 -2.7342093 -0.18836902 0
0.92131758 -2.7150803 -0.18627885 0
1.226 -2.776 -0.186 0
1.3747892 -2.7525792 -0.18479984 0
-2.1607299 -2.6483674 -0.12717126 0
-2.0484605 -2.6656213 -0.1695902 0
-1.9123338 -2.6771302 -0.18553348 0
-1.8594671 -2.6037042 -0.19342679 0
-1.134654 -2.6586289 -0.17427209 0
-1.075285 -2.660254 -0.16649391 0
0.70499998 -2.6659999 -0.192 0
0.86311728 -2.6380963 -0.18671596 0
1.324 -2.655 -0.184 0
-2.1060138 -2.5779464 -0.13927487 0
-2.0457792 -2.5500512 -0.16226001 0
-1.9655879 -2.5586305 -0.18242645 0
-1.8922995 -2.5234904 -0.1914546 0
-1.298 -2.54 -0.12899999 0
-1.0625749 -2.5586801 -0.18327591 0
0.83605862 -2.5515482 -0.18610798 0
-1.9627111 -2.4439113 -0.17695488 0
-1.8379747 -2.4513679 -0.19984095 0
-1.2499876 -2.4423747 -0.14843355 0
-1.0285499 -2.4781201 -0.19385061 0
0.78100002 -2.473 -0.18700001 0
0.83700001 -2.457 -0.184 0
-1.941865 -2.3666837 -0.17558563 0
-1.8731307 -2.3797886 -0.19907078 0
-1.1959918 -2.3325832 -0.17028904 0
-1.8597906 -2.2610521 -0.19374102 0
-1.1599946 -2.2593887 -0.18485937 0
-1.1239973 -2.1861944 -0.19942968 0
2.4570169 -2.1356001 -0.17268404 0
2.5239999 -2.1949999 -0.17299999 0
2.3566022 -2.0465529 -0.17221038 0
2.2561874 -1.9575059 -0.17173672 0
2.4548638 -1.9371067 -0.17176968 0
2.5220001 -1.9910001 -0.17200001 0
2.0888295 -1.8090942 -0.17094731 0
2.1557727 -1.8684589 -0.17126308 0
2.351691 -1.8542855 -0.17141576 0
2.5646114 -1.8316432 -0.17575735 0
2.0218863 -1.7497294 -0.17063154 0
2.2485182 -1.7714641 -0.17106181 0
2.3996673 -1.7132149 -0.17388602 0
2.4714451 -1.7647507 -0.17470035 0
2.5717947 -1.7455075 -0.17637983 0
2.615 -1.775 -0.177 0
1.888 -1.631 -0.17 0
1.9549432 -1.6903647 -0.17031577 0
2.0765636 -1.6334285 -0.17047192 0
2.1453454 -1.6886427 -0.17070788 0
2.2561114 -1.6101432 -0.17225735 0
2.3278892 -1.661679 -0.17307168 0
2.4623332 -1.6707873 -0.17480862 0
2.564683 -1.6517724 -0.17461926 0
2.8578169 -1.6386037 -0.167 0
1.939 -1.523 -0.17 0
2.0077817 -1.5782143 -0.17023596 0
2.1484447 -1.5328395 -0.17103583 0
2.2798975 -1.5462537 -0.17218992 0
2.3596106 -1.5600864 -0.17259499 0
2.4515676 -1.538667 -0.17333804 0
2.5378022 -1.5514418 -0.17485513 0
2.6323316 -1.5761474 -0.17299242 0
2.7495704 -1.5777868 -0.167 0
2.8596458 -1.550876 -0.167 0
1.212 -1.424 -0.16500001 0
1.969 -1.404 -0.169 0
2.0407779 -1.4555359 -0.16981433 0
2.1339488 -1.4466269 -0.17009495 0
2.2395375 -1.4674627 -0.17069203 0
2.3510871 -1.4373554 -0.17204973 0
2.4333169 -1.4001038 -0.167 0
2.5519118 -1.4667349 -0.167 0
2.6422188 -1.4365642 -0.167 0
2.7622626 -1.4996769 -0.167 0
1.1761999 -1.3484688 -0.16412905 0
1.2305 -1.347 -0.16350001 0
1.984718 -1.3448473 -0.16798069 0
2.0663223 -1.3656173 -0.16851899 0
2.1548562 -1.3525558 -0.16911268 0
2.2571242 -1.3400829 -0.16868323 0
2.3542535 -1.355683 -0.167 0
2.4421461 -1.3313761 -0.167 0
2.5221751 -1.3734512 -0.167 0
2.7541285 -1.3272626 -0.16511381 0
2.8429999 -1.368 -0.16500001 0
1.178 -1.256 -0.162 0
1.2089961 -1.290737 -0.16253442 0
1.8292308 -1.242866 -0.16706607 0
1.9508462 -1.2893519 -0.16725203 0
2.0523431 -1.2548172 -0.16756108 0
2.1565952 -1.2446311 -0.167 0
2.2420731 -1.2261881 -0.167 0
2.3621168 -1.2893009 -0.167 0
2.5505614 -1.23395 -0.16537444 0
2.6319883 -1.271275 -0.16527018 0
-1.399 -1.158 -0.2 0
1.6803076 -1.14519 -0.16619004 0
1.7547692 -1.194028 -0.16662805 0
1.9556653 -1.1355639 -0.16668206 0
2.0363333 -1.1586667 -0.167 0
2.1220293 -1.1630752 -0.167 0
2.3469939 -1.1406376 -0.16563508 0
2.4691343 -1.196625 -0.16547871 0
2.6415293 -1.1232411 -0.16476223 0
2.7241764 -1.1565613 -0.16487113 0
2.8144116 -1.1929407 -0.16499001 0
1.5313846 -1.047514 -0.16531403 0
1.6058462 -1.096352 -0.16575204 0
1.7236658 -1.0044774 -0.1656763 0
1.8396655 -1.0700206 -0.16617918 0
1.9791458 -1.0280864 -0.16656762 0
2.059 -1.0385001 -0.1665 0
2.1434269 -1.047325 -0.16589573 0
2.2248538 -1.08465 -0.16579148 0
2.3935881 -1.0232806 -0.16443557 0
2.4762352 -1.0566008 -0.16454445 0
2.5588822 -1.0899209 -0.16465335 0
2.7793715 -1.0241051 -0.16405621 0
-1.4450001 -0.98000002 -0.2 0
1.3452308 -0.92541903 -0.16421901 0
1.456923 -0.998676 -0.16487601 0
1.5689995 -0.91708642 -0.16500577 0
1.6463326 -0.96078193 -0.16534103 0
1.7413411 -0.90767902 -0.16522977 0
1.8602434 -0.96788275 -0.1658987 0
2.0376506 -0.93578839 -0.16492197 0
2.145647 -0.92332011 -0.16410889 0
2.2282941 -0.9566403 -0.16421779 0
2.3109412 -0.98996043 -0.16432667 0
2.4809999 -0.92400002 -0.16599999 0
2.5534358 -0.94830257 -0.1655281 0
2.6610756 -0.94660765 -0.16149443 0
1.4529998 -0.85154319 -0.16450289 0
1.5828047 -0.82740742 -0.16433786 0
1.6620729 -0.86754322 -0.16478381 0
1.7679381 -0.81536043 -0.16415247 0
1.8487258 -0.8514325 -0.16438296 0
1.9295135 -0.88750458 -0.16461346 0
2.063 -0.88999999 -0.164 0
2.3909278 -0.82438171 -0.16033553 0
2.4736598 -0.85022712 -0.15966941 0
2.5643539 -0.8446784 -0.15911141 0
2.6442373 -0.83246326 -0.15716466 0
1.3410001 -0.74650002 -0.16350001 0
1.4242682 -0.74713582 -0.16344595 0
1.5145559 -0.74720788 -0.16367644 0
1.6467566 -0.76125228 -0.16380672 0
2.0602205 -0.72424239 -0.163 0
2.1427319 -0.74684542 -0.16233389 0
2.2254639 -0.77269083 -0.16166776 0
2.3081958 -0.79853624 -0.16100165 0
2.4447157 -0.73498744 -0.16183735 0
2.5277257 -0.76728332 -0.16006696 0
2.6297197 -0.75894344 -0.15726814 0
-1.507 -0.64300001 -0.199 0
-1.498 -0.68300003 -0.198 0
1.364 -0.63499999 -0.163 0
1.4447876 -0.67107207 -0.16323049 0
1.7548718 -0.618909 -0.163 0
1.8794959 -0.66254538 -0.163 0
1.9625785 -0.69163626 -0.163 0
2.063704 -0.6160292 -0.163 0
-1.6000762 -0.50658631 -0.19862773 0
1.4640827 -0.51709092 -0.163 0
1.5471654 -0.5461818 -0.163 0
1.630248 -0.57527268 -0.163 0
1.7242042 -0.51602918 -0.163 0
1.8502808 -0.5531652 -0.163 0
1.9763572 -0.5903011 -0.163 0
2.039 -0.50599998 -0.161 0
3.2590966 -0.50527358 -0.1501435 0
3.3482337 -0.51680779 -0.14953643 0
3.427 -0.52700001 -0.149 0
-1.6494985 -0.43608445 -0.19904506 0
-1.518 -0.44099998 -0.197 0
1.3845 -0.45249999 -0.163 0
1.472051 -0.44175729 -0.163 0
1.556102 -0.46651459 -0.163 0
1.6417232 -0.44955367 -0.16260973 0
1.7277241 -0.42878056 -0.16195925 0
1.8543706 -0.46019825 -0.16156897 0
1.9810172 -0.49161595 -0.16117868 0
2.0450001 -0.40599999 -0.161 0
2.546 -0.41299999 -0.155 0
2.6351371 -0.42453417 -0.15439294 0
2.7242742 -0.43606839 -0.15378587 0
2.8134112 -0.44760257 -0.15317881 0
2.9471169 -0.46490389 -0.15226823 0
3.0808225 -0.48220518 -0.15135762 0
3.1699595 -0.49373937 -0.15075056 0
1.39 -0.345 -0.163 0
1.474431 -0.36594513 -0.16273981 0
1.560199 -0.34802479 -0.16247906 0
1.6468039 -0.32623899 -0.16221772 0
1.7320719 -0.34331864 -0.16195697 0
1.8173397 -0.36039829 -0.16169621 0
1.9452417 -0.3860178 -0.16130507 0
2.0380001 -0.30599999 -0.161 0
1.391 -0.2405 -0.16249999 0
1.4764997 -0.25566512 -0.16230337 0
1.5624627 -0.23250118 -0.16173498 0
1.6481941 -0.24575178 -0.16160248 0
1.7339255 -0.25900239 -0.16146998 0
1.8196568 -0.27225298 -0.16133747 0
1.9618443 -0.26277021 -0.16111128 0
2.0250001 -0.208 -0.161 0
1.387 -0.138 -0.162 0
1.4730035 -0.14743613 -0.1618652 0
1.5590072 -0.15687226 -0.16173039 0
1.6450107 -0.16630839 -0.1615956 0
1.7310144 -0.17574452 -0.16146079 0
1.817018 -0.18518065 -0.16132599 0
1.9030216 -0.19461678 -0.16119118 0
1.397 -0.0060000001 -0.161 0
1.4877197 -0.0044246833 -0.16109267 0
1.5784394 -0.0028493665 -0.16118532 0
1.6691591 -0.0012740493 -0.16127799 0
1.7598788 0.00030126702 -0.16137066 0
1.8505985 0.0018765833 -0.16146334 0
1.9413182 0.0034518996 -0.16155599 0
2.0320377 0.0050272169 -0.16164866 0
2.1227574 0.0066025332 -0.16174133 0
2.2134771 0.0081778495 -0.16183399 0
2.3400984 0.010376584 -0.16196333 0
2.355 0.183 -0.162 0
2.4451635 0.1901634 -0.16152243 0
2.535327 0.19732681 -0.16104488 0
-2.7181578 0.26878673 -0.19903678 0
2.3540001 0.23999999 -0.162 0
2.4440694 0.24900693 -0.16171557 0
2.5341387 0.25801387 -0.16143113 0
2.6248493 0.23575552 -0.16085702 0
2.7149656 0.24384068 -0.16047603 0
2.8501401 0.25596845 -0.15990452 0
2.9861441 0.23314384 -0.15865707 0
3.0763073 0.24030724 -0.15817952 0
3.1664708 0.24747065 -0.15770195 0
3.2778172 0.25631702 -0.15711221 0
-2.6444066 0.3456026 -0.19750708 0
-2.5525069 0.37349772 -0.1974045 0
-2.0512726 0.3922818 -0.18983258 0
-1.9656575 0.38395041 -0.18906966 0
-1.8821574 0.37595043 -0.18856965 0
-1.795 0.36000001 -0.18799999 0
2.3540001 0.35600001 -0.164 0
2.4434741 0.36838129 -0.16370982 0
2.5329483 0.38076255 -0.16341963 0
2.6224222 0.39314383 -0.16312945 0
2.9844854 0.30304855 -0.160009 0
3.0745547 0.3120555 -0.15972456 0
3.1646242 0.32106242 -0.15944013 0
3.2546935 0.33006936 -0.1591557 0
3.3039999 0.33500001 -0.15899999 0
-2.5820587 0.45725808 -0.19460362 0
-2.4482894 0.45341298 -0.19481321 0
-2.3185177 0.44841486 -0.19187416 0
-2.2354827 0.45187691 -0.19022375 0
-2.1486857 0.43471339 -0.18947923 0
-2.0599909 0.45206746 -0.18725711 0
-1.9554167 0.44055852 -0.18517707 0
-1.8616983 0.47591773 -0.18348157 0
-1.7625475 0.45587662 -0.18372236 0
-1.675 0.43200001 -0.184 0
2.3629999 0.47499999 -0.16599999 0
2.4512048 0.49087688 -0.16568868 0
2.7118964 0.40552512 -0.16283926 0
2.8461075 0.42409703 -0.16240397 0
2.9803185 0.44266894 -0.16196869 0
3.0697927 0.45505023 -0.16167851 0
3.1592667 0.46743149 -0.16138832 0
3.2638705 0.48190638 -0.16104907 0
-2.927 0.55199999 -0.198 0
-2.8547254 0.53881824 -0.19732593 0
-2.7654529 0.52253646 -0.19649334 0
-2.6761804 0.50625461 -0.19566074 0
-2.5380001 0.52649999 -0.192 0
-2.4557447 0.53917909 -0.1904034 0
-2.35427 0.5458976 -0.18867797 0
-2.2489305 0.56828785 -0.18467247 0
-2.1335599 0.55537093 -0.18513189 0
-2.0235429 0.53451729 -0.18377559 0
-1.9461101 0.54189324 -0.18328394 0
-1.8390249 0.57159716 -0.181124 0
-1.7232169 0.56157285 -0.181015 0
-1.6292499 0.54675001 -0.18075 0
2.5394096 0.50675374 -0.16537738 0
2.6276145 0.52263063 -0.16506606 0
2.7158194 0.53850752 -0.16475475 0
2.8481269 0.56232285 -0.16428779 0
2.9804342 0.58613813 -0.16382082 0
-2.6210001 0.69 -0.18099999 0
-2.5504756 0.67076606 -0.18122365 0
-2.4581172 0.63533181 -0.18744333 0
-2.3505888 0.64798522 -0.18534659 0
-2.2557442 0.63622618 -0.18635868 0
-2.1555941 0.66925186 -0.18261255 0
-2.0571551 0.66498667 -0.18174335 0
-1.9683459 0.65066212 -0.18102065 0
-1.8745005 0.64463854 -0.18068816 0
-1.7676936 0.65395933 -0.17970757 0
-1.6666486 0.63595027 -0.17910224 0
-1.586 0.64499998 -0.18000001 0
3.068639 0.60201502 -0.16350952 0
3.1568439 0.61789191 -0.1631982 0
3.2130001 0.62800002 -0.163 0
-3.1613994 0.79967618 -0.1860069 0
-3.0739999 0.77899998 -0.192 0
-2.5239999 0.79400003 -0.178 0
-2.4308019 0.7419796 -0.18265028 0
-2.3270507 0.75493705 -0.18208995 0
-2.239975 0.74158823 -0.18150574 0
-2.1335678 0.76255065 -0.18089065 0
-2.0398839 0.75663853 -0.18046249 0
-1.9423524 0.74716979 -0.17986441 0
-1.8403275 0.73476297 -0.17948602 0
-1.7391688 0.73670226 -0.18025427 0
-1.6417564 0.75352997 -0.17704238 0
-1.5365 0.75300002 -0.177 0
-1.499 0.79699999 -0.175 0
1.1784999 0.78400004 -0.1645 0
1.2499878 0.72986102 -0.16423677 0
1.357951 0.79544401 -0.16494705 0
-3.5109968 0.88238096 -0.16203451 0
-3.4235973 0.86170477 -0.16802761 0
-3.3361979 0.84102857 -0.17402071 0
-3.2487986 0.82035238 -0.18001381 0
-2.523 0.85900003 -0.17900001 0
-2.4818666 0.84476864 -0.17913772 0
-2.3573918 0.82934737 -0.18080799 0
-2.2709036 0.85954857 -0.1804135 0
-2.1747894 0.84320307 -0.18070859 0
-2.0635178 0.84052467 -0.18020749 0
-1.977922 0.84425557 -0.18063566 0
-1.8835377 0.84817934 -0.17825426 0
-1.7537572 0.85039634 -0.17633313 0
-1.6505219 0.85332483 -0.17686577 0
-1.5774685 0.86627597 -0.17549925 0
-1.472 0.85899997 -0.175 0
1.1535001 0.85000002 -0.16499999 0
1.2442807 0.85189414 -0.16548863 0
1.3165414 0.87934506 -0.16562679 0
1.4299266 0.83916599 -0.16542058 0
1.5019021 0.88288796 -0.16589409 0
-3.9484968 0.98588097 -0.13203451 0
-3.8605943 0.96508574 -0.1380621 0
-3.7731948 0.94440955 -0.1440552 0
-3.6857953 0.92373335 -0.1500483 0
-3.5983961 0.90305716 -0.15604141 0
-2.5109999 0.92199999 -0.18000001 0
-2.4546294 0.94551897 -0.17935021 0
-2.349004 0.92575103 -0.1791456 0
-2.2225001 0.9235 -0.18149999 0
-2.1370907 0.91595781 -0.18088992 0
-2.0242095 0.97442168 -0.17738901 0
-1.9400555 0.95047504 -0.1770068 0
-1.8355711 0.95081854 -0.17664677 0
-1.729091 0.95248103 -0.17643659 0
-1.6372763 0.93501902 -0.17536736 0
-1.5268523 0.94264585 -0.17423892 0
-1.4378541 0.96008062 -0.17352541 0
-1.39 0.97100002 -0.17200001 0
1.079 0.94449997 -0.16350001 0
1.1282589 0.96503234 -0.16491461 0
1.2347969 0.93406153 -0.16498798 0
1.3488077 0.95748454 -0.16653992 0
1.4366231 0.95454949 -0.16665442 0
1.5738777 0.92660993 -0.16636762 0
1.6716179 0.96811062 -0.16728038 0
1.7774535 0.99461043 -0.168 0
2.336 0.90600002 -0.16599999 0
2.4528422 0.9563356 -0.16577223 0
-2.2721598 1.0866472 -0.176 0
-2.1477554 1.0323595 -0.17733334 0
-2.0638468 1.0341136 -0.17764282 0
-1.9667528 1.0640986 -0.1770685 0
-1.8807133 1.0386862 -0.1773739 0
-1.7748014 1.0415776 -0.17619376 0
-1.6624538 1.0539474 -0.17424618 0
-1.5580244 1.0559895 -0.17375486 0
-1.4431373 1.0526559 -0.17190668 0
-1.3397499 1.0395 -0.17025 0
-1.281 1.0930001 -0.168 0
1.0540576 1.0668318 -0.16604571 0
1.1499164 1.0583529 -0.16564414 0
1.2420224 1.055344 -0.1655028 0
1.3665261 1.0368104 -0.16630527 0
1.4382014 1.0403492 -0.16735634 0
1.5440102 1.0633892 -0.1676356 0
1.6157033 1.058768 -0.16795607 0
1.8559072 1.0402209 -0.168 0
1.9343607 1.0858312 -0.168 0
2.3374989 1.0399489 -0.16691573 0
2.4499955 1.0937957 -0.16666293 0
2.5696847 1.0066712 -0.16554448 0
2.6475797 1.0402282 -0.16539264 0
2.7254746 1.0737853 -0.16524079 0
-2.3380001 1.1535 -0.176 0
-2.2291908 1.1656616 -0.17604479 0
-2.1496141 1.1235881 -0.17609537 0
-2.0454013 1.1393347 -0.17898676 0
-1.9485432 1.1537412 -0.17599009 0
-1.824261 1.1312292 -0.17519465 0
-1.7443352 1.1467863 -0.17434423 0
-1.6454307 1.1605115 -0.17360005 0
-1.5580974 1.1809974 -0.17199713 0
-1.4640641 1.1409833 -0.17129728 0
-1.3485754 1.1578219 -0.16997042 0
-1.256 1.1466666 -0.16666667 0
-1.2 1.186 -0.16599999 0
0.9756667 1.1409999 -0.16600001 0
1.0650496 1.158421 -0.16608642 0
1.1642206 1.1505895 -0.16599083 0
1.2645769 1.137429 -0.16606548 0
1.3460138 1.154838 -0.16652077 0
1.4379559 1.1475978 -0.16721964 0
1.5440626 1.156082 -0.16798395 0
2.0520411 1.1542468 -0.168 0
2.2279999 1.1559999 -0.16599999 0
2.3140099 1.1667514 -0.16617806 0
2.5624924 1.1476424 -0.16641012 0
2.8261847 1.1171713 -0.16504449 0
-2.2909732 1.2333324 -0.17599618 0
-2.1470044 1.289346 -0.17478581 0
-2.0701151 1.2424186 -0.17458738 0
-1.9502062 1.2692691 -0.17588924 0
-1.8470731 1.2559686 -0.17476454 0
-1.7355782 1.247648 -0.17420901 0
-1.6251287 1.2472328 -0.17259623 0
-1.5396291 1.2438551 -0.17144923 0
-1.4437437 1.2636373 -0.16967192 0
-1.3619771 1.2456714 -0.16790879 0
-1.2567745 1.2441697 -0.16602515 0
-1.149532 1.2527931 -0.16301224 0
-0.65700001 1.2685001 -0.161 0
0.87349999 1.244 -0.1645 0
0.96343547 1.2633082 -0.16706048 0
1.0567502 1.247112 -0.16657962 0
1.1726639 1.2457445 -0.16616669 0
1.2504458 1.2370479 -0.16607764 0
1.3244232 1.2401446 -0.1663314 0
1.4400604 1.2542318 -0.16737624 0
2.1618607 1.2558312 -0.1665 0
2.267323 1.245001 -0.16709355 0
2.3724809 1.2324805 -0.16636518 0
2.4447215 1.2707208 -0.16654775 0
2.5330393 1.2800057 -0.16671228 0
2.674989 1.2014891 -0.16615732 0
2.7449999 1.235 -0.16599999 0
-2.2269468 1.3381367 -0.17499211 0
-2.0455375 1.3647406 -0.17386413 0
-1.9399529 1.3608975 -0.17351711 0
-1.8658848 1.3622043 -0.17596547 0
-1.7620267 1.3546824 -0.17356102 0
-1.664243 1.3517187 -0.17193767 0
-1.5402418 1.3518422 -0.17096624 0
-1.4402163 1.3652778 -0.16897869 0
-1.3502914 1.3530266 -0.16694875 0
-1.246909 1.3403162 -0.16467787 0
-1.1451936 1.35121 -0.16537654 0
-1.091 1.374 -0.167 0
-0.74056256 1.3478748 -0.16189638 0
-0.66781849 1.3665895 -0.16157158 0
-0.54799998 1.3605 -0.15899999 0
0.78999996 1.355 -0.1645 0
0.86309755 1.3619261 -0.16412386 0
0.99534196 1.344587 -0.16578646 0
1.0452709 1.3472623 -0.16757642 0
1.148397 1.3633572 -0.16705072 0
1.2286988 1.3366836 -0.16634569 0
1.3335171 1.3511578 -0.16599235 0
2.231137 1.333907 -0.16510744 0
2.3174512 1.3463486 -0.16660744 0
2.4050822 1.3594936 -0.168 0
2.5567467 1.3681874 -0.16689463 0
2.6285248 1.3293786 -0.16694517 0
-2.543 1.475 -0.192 0
-2.1300001 1.4585 -0.17399999 0
-2.0499434 1.4388771 -0.17382053 0
-1.9050173 1.4758805 -0.17241025 0
-1.8340151 1.4206455 -0.17210898 0
-1.7464589 1.4575818 -0.17323801 0
-1.6454091 1.4501777 -0.17139149 0
-1.5438404 1.4562391 -0.16945362 0
-1.4612164 1.4480839 -0.16843961 0
-1.3629389 1.466087 -0.16663365 0
-1.2602081 1.4298916 -0.16531603 0
-1.1232225 1.451566 -0.16602144 0
-1.0484087 1.4439409 -0.16614754 0
-0.96000004 1.4743334 -0.16500001 0
-0.75138098 1.4459642 -0.16246793 0
-0.62341797 1.4512224 -0.16015832 0
-0.5499751 1.4632211 -0.15955366 0
-0.435 1.4725 -0.15899999 0
0.63600004 1.4685 -0.161 0
0.727 1.438 -0.164 0
0.85069942 1.4542146 -0.16501179 0
0.96005797 1.4365215 -0.16552806 0
1.0765344 1.430316 -0.16670574 0
1.1489301 1.4429648 -0.16734454 0
1.2425911 1.4521298 -0.16734815 0
1.3548046 1.4731437 -0.16555254 0
1.4345753 1.4468828 -0.16258994 0
2.053 1.439 -0.163 0
2.12731 1.4882507 -0.1636509 0
2.3854108 1.4237211 -0.1653223 0
2.4730418 1.436866 -0.16671486 0
2.5469999 1.442 -0.168 0
-2.6569288 1.5429058 -0.19130531 0
-2.0439999 1.584 -0.17299999 0
-1.9760194 1.5311155 -0.17271154 0
-1.8186996 1.5645474 -0.17224053 0
-1.7503886 1.5572283 -0.17189844 0
-1.6626923 1.5376679 -0.17196973 0
-1.5681276 1.5609132 -0.17025545 0
-1.4397413 1.5494275 -0.16788946 0
-1.3587661 1.5610667 -0.16632587 0
-1.2336339 1.5589043 -0.16501592 0
-1.1563408 1.5297753 -0.16547348 0
-1.0512692 1.5403855 -0.16633174 0
-0.91899985 1.5505997 -0.1639058 0
-0.85585159 1.5609589 -0.16362546 0
-0.76590967 1.5600423 -0.16300033 0
-0.6718359 1.5684448 -0.16131665 0
-0.54739821 1.5607895 -0.1601004 0
-0.45871496 1.5462345 -0.15944943 0
-0.3416667 1.5543333 -0.15933333 0
0.375 1.592 -0.154 0
0.44299999 1.5473332 -0.15466666 0
0.5461244 1.5313048 -0.15801559 0
0.66767955 1.5398562 -0.16017519 0
0.77852535 1.5310076 -0.16269004 0
0.86531025 1.5196842 -0.16550122 0
0.92585593 1.563777 -0.16523576 0
1.0476464 1.5651172 -0.16672245 0
1.141971 1.5404936 -0.16699323 0
1.2570699 1.573675 -0.16562 0
1.3326597 1.5545861 -0.1660374 0
1.4425179 1.5546011 -0.16401815 0
1.5293013 1.5425315 -0.16135973 0
2.2387753 1.5621269 -0.16462722 0
2.5396848 1.5135351 -0.16553716 0
2.6168215 1.5584421 -0.1656446 0
-2.8468103 1.6560822 -0.19014749 0
-2.7708576 1.6108116 -0.19061062 0
-1.915 1.649 -0.17299999 0
-1.850715 1.6427927 -0.17303549 0
-1.7326679 1.6679221 -0.17206287 0
-1.6397616 1.6541637 -0.16858236 0
-1.5361545 1.6419395 -0.169607 0
-1.4558275 1.6512346 -0.16707665 0
-1.3706245 1.6730195 -0.16407633 0
-1.2543483 1.6605506 -0.16461362 0
-1.1360737 1.655386 -0.16599567 0
-1.0554457 1.6155233 -0.16565807 0
-0.9648065 1.6338838 -0.16540682 0
-0.83894002 1.645229 -0.16364831 0
-0.73127472 1.6407764 -0.16281776 0
-0.63927513 1.6501824 -0.16129188 0
-0.54963475 1.6726027 -0.1608201 0
-0.42722327 1.6712623 -0.15953228 0
-0.35877228 1.6290637 -0.15945089 0
-0.2535578 1.6567074 -0.16049999 0
-0.168 1.6950001 -0.16 0
0.35911158 1.6528285 -0.15562397 0
0.44575393 1.6358259 -0.1548979 0
0.53469372 1.6393158 -0.15713018 0
0.64371955 1.6571411 -0.15705845 0
0.73469114 1.6488951 -0.15793799 0
0.84201264 1.6457539 -0.16109502 0
0.95754021 1.6441227 -0.16533415 0
1.0434114 1.6654114 -0.16430277 0
1.1772633 1.6256697 -0.16624975 0
1.2744634 1.6716108 -0.16459489 0
1.3613498 1.6643749 -0.1661 0
1.4424059 1.6414027 -0.1647729 0
1.5576296 1.6498156 -0.16198665 0
1.6556027 1.670063 -0.15971945 0
1.9507537 1.6688974 -0.16061598 0
2.3502402 1.636003 -0.16560356 0
2.4245503 1.6852539 -0.16625446 0
2.6939585 1.6033492 -0.16575202 0
2.7710955 1.6482562 -0.16585946 0
2.8482325 1.6931632 -0.1659669 0
-3.0746679 1.7918937 -0.18875812 0
-2.9607391 1.7239878 -0.18945281 0
-1.9323267 1.7383718 -0.17397873 0
-1.84761 1.7501783 -0.17329891 0
-1.7627393 1.7501105 -0.17248936 0
-1.6411209 1.7600549 -0.16647039 0
-1.5586901 1.7564903 -0.16325288 0
-1.4258397 1.7494276 -0.15937507 0
-1.3295 1.725 -0.164 0
-1.2652532 1.7602439 -0.16559137 0
-1.1631817 1.7403767 -0.16699 0
-0.97811443 1.752291 -0.16455458 0
-0.87692499 1.7609169 -0.16349696 0
-0.74912894 1.7274282 -0.16288228 0
-0.66587538 1.7681053 -0.16176832 0
-0.4463349 1.7511432 -0.15979844 0
-0.35640153 1.753508 -0.15977252 0
-0.23181528 1.7359977 -0.16059187 0
-0.1485007 1.7598852 -0.16036125 0
-0.090999998 1.745 -0.16 0
0.26109809 1.7436652 -0.15811962 0
0.34206271 1.7305821 -0.15708634 0
0.43646628 1.7377002 -0.15695956 0
0.5534302 1.7637949 -0.15752804 0
0.63200003 1.704 -0.156 0
0.72502851 1.7509276 -0.15683664 0
0.82401067 1.7561888 -0.1566131 0
0.95568734 1.7583408 -0.15941387 0
1.0719756 1.7641335 -0.15926601 0
1.1264687 1.7644672 -0.16481666 0
1.2350788 1.7458292 -0.16497967 0
1.3295791 1.7424178 -0.16403592 0
1.4457541 1.7636603 -0.16403878 0
1.563343 1.7766712 -0.16328816 0
1.6504476 1.7487522 -0.16021451 0
1.7503287 1.7657117 -0.15848924 0
1.956 1.747 -0.163 0
2.0550146 1.7555894 -0.15946393 0
2.4988604 1.7345046 -0.16690534 0
2.5731704 1.7837554 -0.16755624 0
2.872 1.707 -0.16599999 0
-3.1748102 1.8515821 -0.18814749 0
-2.0490425 1.8589001 -0.17752302 0
-1.9394828 1.8444757 -0.17632625 0
-1.8518609 1.8455606 -0.1756005 0
-1.7584772 1.8567524 -0.15162258 0
-1.6561866 1.8462937 -0.15711693 0
-1.5302633 1.8592558 -0.14935605 0
-1.458697 1.8237464 -0.1561587 0
-1.3236988 1.8255926 -0.16400203 0
-1.2654091 1.8808262 -0.16779399 0
-1.1888072 1.8601542 -0.1658226 0
-1.0396717 1.8579364 -0.16483186 0
-0.93328005 1.8670672 -0.16379514 0
-0.77388757 1.8331894 -0.16364942 0
-0.67799997 1.8 -0.162 0
-0.51503396 1.8960025 -0.16076054 0
-0.4484508 1.8460035 -0.15993975 0
-0.31869379 1.8594892 -0.16 0
-0.25747982 1.8504087 -0.15998645 0
-0.16233474 1.844437 -0.15972249 0
-0.094724938 1.848367 -0.15906876 0
0.25364387 1.8405523 -0.15731598 0
0.39020744 1.8657643 -0.15745419 0
0.44815379 1.8428462 -0.15823165 0
0.52926135 1.8695549 -0.15745528 0
0.6138683 1.8733613 -0.15751833 0
0.76505733 1.8498183 -0.15523106 0
0.86273372 1.8355651 -0.15493123 0
1.0213747 1.8736815 -0.15682776 0
1.1473271 1.8384838 -0.16112849 0
1.338553 1.8421791 -0.16399905 0
1.4621468 1.8670242 -0.16229773 0
1.5066998 1.8377498 -0.16419999 0
1.6238117 1.8443054 -0.1625458 0
1.7256322 1.8700055 -0.15986782 0
1.8450546 1.8613603 -0.15725903 0
2.0581045 1.8373652 -0.162727 0
2.1592755 1.8422816 -0.15831187 0
2.6474805 1.8330061 -0.16820712 0
2.7298954 1.8876286 -0.16892901 0
-2.1268015 1.9751246 -0.1788795 0
-2.037977 1.9376342 -0.17776833 0
-1.9394852 1.9601789 -0.16429494 0
-1.8303249 1.9424663 -0.14321047 0
-1.7412632 1.9807546 -0.1496911 0
-1.6652578 1.9264722 -0.15156442 0
-1.5720909 1.9612392 -0.1464761 0
-1.3514167 1.9559449 -0.167468 0
-1.2298015 1.9701527 -0.1644955 0
-1.059 1.9246668 -0.16466667 0
-0.97142506 1.938917 -0.16399696 0
-0.80999392 1.9479523 -0.16387662 0
-0.52999997 1.95 -0.161 0
-0.44988552 1.9508368 -0.15992118 0
-0.32018876 1.9611354 -0.16 0
-0.26009122 1.962974 -0.1592496 0
-0.18731849 1.9614903 -0.15889758 0
-0.098724931 1.959367 -0.15806878 0
0.24354382 1.9292417 -0.15632842 0
0.32738784 1.942915 -0.15911952 0
0.43256998 1.957633 -0.1596283 0
0.53076971 1.9651289 -0.15848947 0
0.64116454 1.9579844 -0.15714179 0
0.75794017 1.9498433 -0.15563989 0
0.84024823 1.9469879 -0.1532317 0
0.94307482 1.9428215 -0.1537917 0
1.0495832 1.9742877 -0.15955184 0
1.1659268 1.9124002 -0.15779802 0
1.2373371 1.962212 -0.160413 0
1.3671575 1.9276584 -0.16295935 0
1.4448223 1.9368433 -0.16319212 0
1.5412617 1.922065 -0.16265608 0
1.6421957 1.9535922 -0.16259393 0
1.744749 1.9795738 -0.16106108 0
1.8377827 1.9449806 -0.15705879 0
1.9397806 1.957009 -0.15602882 0
2.1602087 1.9277302 -0.16245399 0
2.2459073 1.9584736 -0.15971589 0
2.3330436 1.9867682 -0.15639178 0
-2.2508838 2.0421183 -0.18053558 0
-2.1693027 2.0618455 -0.17969111 0
-2.0445065 2.0364811 -0.17905086 0
-1.9510874 2.0663886 -0.1288804 0
-1.8358423 2.0512154 -0.13506518 0
-1.7657436 2.0488286 -0.1350168 0
-1.6662229 2.0453308 -0.13705967 0
-1.4038334 2.0298898 -0.16793601 0
-1.2776031 2.0433054 -0.163991 0
-1.1331125 2.0553772 -0.16588227 0
-1.0662683 2.0086789 -0.16481639 0
-0.447 2.0209999 -0.16 0
-0.33258376 2.066144 -0.1595 0
-0.28921157 2.0461302 -0.15864527 0
-0.19096297 2.0344195 -0.15900001 0
0.26673687 2.0442915 -0.15583013 0
0.34309131 2.0313115 -0.15865722 0
0.43380433 2.0396347 -0.15973702 0
0.54551184 2.0717273 -0.15969367 0
0.67865354 2.0615766 -0.1574482 0
0.77337426 2.0493045 -0.15704036 0
0.84547579 2.0572269 -0.15219316 0
0.93598688 2.0458121 -0.14943519 0
1.0370181 2.0650163 -0.15560555 0
1.1089578 2.0274692 -0.15337962 0
1.259878 2.060667 -0.15633003 0
1.323406 2.0614016 -0.16044998 0
1.4464047 2.036756 -0.16174716 0
1.5500425 2.0256457 -0.16180009 0
1.6549383 2.0614209 -0.1614705 0
1.7864789 2.0507579 -0.16111219 0
1.8600595 2.060339 -0.15899153 0
1.9457252 2.0580473 -0.15524048 0
2.0190001 2.0369999 -0.155 0
2.2963481 2.0482171 -0.16208997 0
2.4025509 2.0445631 -0.15562375 0
-2.4159999 2.1919999 -0.183 0
-2.3262162 2.1598923 -0.18182787 0
-2.2349656 2.1239514 -0.1806525 0
-2.127553 2.1479609 -0.16151737 0
-2.0302253 2.14783 -0.11882231 0
-1.9488665 2.1730111 -0.11839049 0
-1.8541423 2.1352608 -0.12509289 0
-1.7421818 2.1674786 -0.13195223 0
-1.5086668 2.1777799 -0.16887203 0
-1.4562501 2.1038349 -0.16840401 0
-1.3493054 2.1530347 -0.16323425 0
-1.212801 2.1567745 -0.167014 0
-1.1528049 2.1660366 -0.16644916 0
-0.33690494 2.1599035 -0.16 0
-0.29216218 2.1337156 -0.15920907 0
-0.19185187 2.1416786 -0.16 0
0.24309613 2.1218171 -0.1558086 0
0.34006286 2.1414506 -0.15717375 0
0.4645502 2.1333899 -0.1586075 0
0.58398557 2.1357667 -0.15953387 0
0.65622616 2.176729 -0.15638177 0
0.73933333 2.1659999 -0.15899999 0
0.85151958 2.1443169 -0.15421343 0
0.95989317 2.1624622 -0.14728516 0
1.0431283 2.1412654 -0.1493572 0
1.152383 2.1413033 -0.15258242 0
1.339747 2.1352177 -0.15747717 0
1.5536058 2.1308584 -0.16099811 0
1.6602743 2.1672597 -0.16068219 0
1.7625532 2.1642163 -0.16152 0
1.8626179 2.1448114 -0.16052754 0
1.9221227 2.1530275 -0.1595 0
2.3644176 2.1084604 -0.16190797 0
2.4522727 2.1355307 -0.15829083 0
2.5415654 2.1601524 -0.15408768 0
-2.3269999 2.211 -0.182 0
-2.2510762 2.2412009 -0.18275061 0
-1.956 2.2249999 -0.12800001 0
-1.8792169 2.2259197 -0.11200057 0
-1.7988787 2.2362249 -0.12711093 0
-1.5610834 2.2517247 -0.16934003 0
-1.4210078 2.2627637 -0.16247749 0
-1.2580678 2.2350326 -0.16768533 0
-1.1960732 2.2447155 -0.16726553 0
-0.32743722 2.2359762 -0.15965679 0
-0.19877779 2.2315178 -0.16 0
0.25362015 2.2112713 -0.15551075 0
0.35761058 2.2451055 -0.156735 0
0.47255909 2.2566204 -0.15708226 0
0.54576415 2.2466993 -0.1573882 0
0.6449545 2.2840233 -0.15760043 0
0.73364103 2.2416472 -0.1549437 0
0.83616829 2.2574942 -0.15373258 0
0.93542486 2.2388542 -0.15490437 0
1.0563493 2.2324462 -0.14652187 0
1.1488351 2.2503383 -0.15218697 0
1.2403326 2.2581508 -0.14820738 0
1.3384147 2.2424669 -0.15443102 0
1.4363577 2.2738078 -0.15611394 0
1.55352 2.2611933 -0.15903196 0
1.6713166 2.2700262 -0.15969218 0
1.7509151 2.2310271 -0.16008493 0
1.8177125 2.24071 -0.16125834 0
1.9723681 2.2335825 -0.161 0
2.5345917 2.259069 -0.16145296 0
2.6255364 2.2299736 -0.15315983 0
-1.9206364 2.3838589 -0.11671416 0
-1.8555757 2.3049712 -0.12226963 0
-1.6397085 2.3626423 -0.17004204 0
-1.4688092 2.3359165 -0.16197298 0
-1.3259683 2.3524199 -0.16869234 0
-1.2393415 2.3233943 -0.16808192 0
-0.34034088 2.3251433 -0.15970907 0
-0.20570374 2.321357 -0.16 0
0.2694062 2.3454525 -0.15506399 0
0.35392672 2.3717082 -0.15536025 0
0.42283601 2.3472006 -0.15755168 0
0.514624 2.350028 -0.15604791 0
0.63890076 2.3607185 -0.15610278 0
0.76204467 2.3263216 -0.15340576 0
0.86632061 2.3616128 -0.15201607 0
0.95809585 2.3477128 -0.15191014 0
1.0302211 2.3275182 -0.14818341 0
1.1510445 2.3483033 -0.14699493 0
1.2563334 2.323 -0.14966667 0
1.3360353 2.3352873 -0.15278578 0
1.8638502 2.3278403 -0.16203341 0
1.9202752 2.3952603 -0.1615501 0
2.062552 2.3333735 -0.161 0
2.6366959 2.3494339 -0.16117996 0
-1.7183335 2.4735599 -0.17074405 0
-1.5388055 2.4430346 -0.16123424 0
-1.3598734 2.4752798 -0.169707 0
-1.2826097 2.4020734 -0.1688983 0
-0.34765854 2.4392555 -0.15971664 0
-0.21262966 2.4111962 -0.16 0
0.28519225 2.4796338 -0.15461721 0
0.36713052 2.4613094 -0.15498315 0
0.44911468 2.4782677 -0.15673557 0
0.54701334 2.4540548 -0.15508868 0
0.66286772 2.4461248 -0.15480369 0
0.77694994 2.4138925 -0.15092663 0
0.8340655 2.4420955 -0.15209988 0
0.95294333 2.447443 -0.14604077 0
1.0511935 2.4477737 -0.14777267 0
1.1343426 2.4071968 -0.1455164 0
1.2214442 2.4703865 -0.15040308 0
1.3656057 2.4608994 -0.15280178 0
1.9767003 2.4626806 -0.1610668 0
2.1527362 2.4331648 -0.161 0
2.2128587 2.4996924 -0.161 0
2.704 2.4089999 -0.161 0
-1.7707502 2.5475047 -0.17121206 0
-1.4391358 2.5480652 -0.17037067 0
-1.3691463 2.5594311 -0.17053106 0
-0.37168872 2.5479059 -0.15986589 0
-0.22301856 2.5459552 -0.16 0
0.29571629 2.5690882 -0.15431935 0
0.35267809 2.5440869 -0.15363647 0
0.43731219 2.5616899 -0.15588355 0
0.56595516 2.5671749 -0.15366739 0
0.65378302 2.5225036 -0.15300813 0
0.7198863 2.5405581 -0.1540011 0
0.84828973 2.5425758 -0.14953968 0
0.93852228 2.567445 -0.14692916 0
1.0288774 2.5380476 -0.14482242 0
1.1165601 2.5551229 -0.14694577 0
1.2601295 2.5490911 -0.14826873 0
2.0613379 2.5638108 -0.16034186 0
2.2729814 2.5662198 -0.161 0
-1.8410834 2.6467247 -0.17184004 0
-1.4484087 2.6322167 -0.17119473 0
-0.41789922 2.6520207 -0.16 0
-0.35864872 2.6668622 -0.15983631 0
-0.23340747 2.6807139 -0.16 0
0.33810955 2.663604 -0.15357107 0
0.44501045 2.6643908 -0.15528084 0
0.55816543 2.6447377 -0.15183035 0
0.66358095 2.6546783 -0.15178318 0
0.74486351 2.6260698 -0.15280132 0
0.87565893 2.6650186 -0.14725393 0
0.9754346 2.6461821 -0.14427127 0
1.0807278 2.6442008 -0.14404252 0
1.147 2.6270001 -0.14399999 0
2.1459756 2.6649408 -0.1596169 0
2.360368 2.6629159 -0.161 0
-1.5393349 2.7212906 -0.17185667 0
-1.447 2.701 -0.17200001 0
-0.43599999 2.7620001 -0.16 0
-0.36972979 2.7557201 -0.15994084 0
-0.24033341 2.7705531 -0.16 0
0.54296529 2.7520967 -0.15269166 0
0.63584524 2.750392 -0.15271942 0
0.76243728 2.7623603 -0.15027212 0
0.88958323 2.7591541 -0.14687772 0
0.94786811 2.7483466 -0.14448011 0
2.2102003 2.7416804 -0.1590668 0
2.4328318 2.7450454 -0.14600553 0
-0.37599999 2.806 -0.16 0
-0.24762967 2.8651962 -0.16 0
0.65499997 2.8280001 -0.152 0
0.736 2.8280001 -0.148 0
0.82189763 2.8898025 -0.14910099 0
0.95279765 2.8280659 -0.14337263 0
2.4916637 2.8120906 -0.13101107 0
2.5504954 2.8791361 -0.1160166 0
2.6093273 2.9461813 -0.10102212 0
3.359 3.471 -0.146 0
3.4519048 3.5651689 -0.12340578 0
3.5448098 3.6593378 -0.10081157 0
-1.628 7.789 -0.19499999 0
-1.646076 7.8772473 -0.18415445 0
-1.6641518 7.9654951 -0.17330891 0
-1.6822277 8.0537424 -0.16246337 0
-1.7003037 8.1419897 -0.15161783 0
-1.7183795 8.230238 -0.14077228 0
-1.7364554 8.3184853 -0.12992674 0
-1.7635694 8.4508562 -0.11365842 0
-2.086628 -3.3389108 -0.096406594 0
-2.049 -3.279 -0.083999991 0
-2.2665453 -2.8383217 -0.088575162 0
-2.6428747 0.8839612 -0.068041638 0
-2.5209999 0.84299999 -0.086000003 0
-2.927249 0.97953737 -0.026138801 0
-2.8459992 0.95222986 -0.038111042 0
-2.7647493 0.92492241 -0.050083283 0
-3.0491238 1.0204985 -0.0081804357 0
-3.3959999 1.58 -0.001 0
2.668159 3.0132267 -0.086027659 0
2.7269907 3.080272 -0.071033195 0
2.7858226 3.1473174 -0.05603873 0
2.8446543 3.2143626 -0.041044258 0
2.9034863 3.2814081 -0.026049778 0
2.9761591 3.3642268 -0.0075276494 0
2.892 3.7650001 -0.0060000001 0
3.0120001 3.74 -0.0049999999 0
3.6377149 3.7535067 -0.078217357 0
