# .PCD v0.7 - Point Cloud Data file format
VERSION 0.7
FIELDS x y z intensity
SIZE 4 4 4 4
TYPE F F F F
COUNT 1 1 1 1
WIDTH 493
HEIGHT 1
VIEWPOINT 0 0 0 1 0 0 0
POINTS 493
DATA ascii
-4.4231629 -3.5778141 1.7461013 12.5
-4.0577312 -4.6111488 1.7380898 11.333333
-4.0830836 -4.0256109 1.8497745 13
-4.3176517 -3.8056064 1.8066726 12.5
-4.3114834 -3.4678514 1.7642679 12.666667
-4.1071854 -3.6576469 2.1321847 14.5
-4.1808515 -3.3407798 2.1112015 14.6
-4.2171435 -3.0394819 2.1928337 15.2
-4.1502228 -3.1717248 2.4265735 16
-3.9286044 -1.1895972 0.046306491 4
-3.8578396 -4.8474541 1.8546582 12
-3.9035449 -4.6226912 1.8629637 12.333333
-3.7897892 -4.6907468 2.2860096 14
-3.6547978 -4.1306133 2.3443997 15
-3.890069 -3.8233657 2.2962708 15
-3.8664896 -3.5669878 2.3367167 16
-3.6443679 -3.9201524 2.5183501 16
-3.8764865 -3.5459645 2.4077101 16
-3.8259814 -3.0991964 2.5206239 17
-3.4051723 1.9328901 -0.096128561 2.5
-3.2523162 1.5459385 0.092378609 4
-3.2253864 -4.944284 2.3315601 14.5
-3.3554778 -4.7679319 2.333142 15
-3.232707 -1.0261357 2.3543997 21
-3.5127776 -4.0813031 2.5364211 16
-3.5618899 -3.9692645 2.5198812 16
-2.9391508 -0.89305323 -0.047567129 3
-3.1508718 -4.7357378 2.5231884 16
-2.4138207 -1.7084148 -0.078871094 2
-2.6392927 1.6412915 0.36049885 7
-2.7056639 1.6168813 0.49998465 8
-2.4436977 -3.3521454 1.039332 10.666667
-2.4438396 -3.302609 1.2109853 12
-2.5667536 -2.307894 2.3732169 21
-2.0401905 -2.5177982 -0.073617548 2.5
-2.2261851 -1.8830611 -0.073301241 2.5
-2.328573 -1.5202717 -0.068888001 2.5
-2.2858446 -0.70001441 -0.1144835 2
-2.0701969 -2.5336626 0.23950428 5.5
-2.2164969 -2.004072 0.13772482 4.6666665
-2.2305648 -1.8038203 0.13784923 4.625
-2.3183801 -1.5216146 0.17526418 5
-2.0198016 -0.60834861 0.18654957 6
-2.2233989 -3.2311444 0.70102262 9
-2.1404603 -2.5364947 0.42086348 7
-2.3425722 -1.6784338 0.70847017 10.5
-2.2610838 -3.6078942 1.1441164 11
-2.2449589 -3.3026929 0.95116162 10
-2.2559388 -3.4963968 1.235587 12
-2.2385075 -2.2542522 2.3594415 22
-2.0699332 -0.82250142 2.3568106 27.5
-2.1384904 -0.66391194 2.3613 27.25
-2.0086956 -1.6321051 2.5306914 26
-2.0373402 -1.260452 2.549258 27.5
-2.1589937 -1.0448692 2.5507851 27.4
-1.6879908 -2.8882656 -0.072678871 2.5
-1.9023241 -2.6711864 -0.077543966 2.6666667
-1.9442315 -2.0570674 -0.12970607 2
-1.7634625 -1.3095475 -0.18432239 1
-1.8091731 -1.1495228 -0.18585633 1
-1.6027665 1.0134937 -0.074341029 2
-1.733623 -2.8629851 0.2218186 5.1999998
-1.9066958 -2.6234403 0.19135059 5
-1.7170762 -0.91778612 0.31945977 8
-1.7947327 -0.69604886 0.1655191 5.7142859
-1.6037704 1.0125046 0.028658682 4
-1.6677868 -2.9052448 0.58998162 8.3999996
-1.6504189 -0.86003888 0.45571321 10.5
-1.7564785 -0.64464074 0.42059183 10
-1.6735537 -2.9506934 1.0173429 12
-1.781391 -5.7368898 1.5070801 11
-1.775591 -5.7420073 1.8238839 12.4
-1.746526 -5.7192707 2.1503868 13.6
-1.627055 -5.2646489 2.3618159 15
-1.7280563 -3.8828578 2.3803513 18.333334
-1.7882954 -2.0846655 2.3651524 24.5
-1.7539196 -0.63674462 2.3676822 30.200001
-1.6314038 -5.1690936 2.5307837 16
-1.7703587 -3.8354311 2.4283242 19
-1.6833495 -2.6590471 2.5325089 23.5
-1.9263262 -2.0167756 2.5234556 25
-1.7797189 -1.8005874 2.5300512 26.4
-1.829343 -1.3103629 2.5481663 28.5
-1.7368487 -1.0222913 2.5587013 30.166666
-1.3535337 -2.988435 -0.088803746 2.5
-1.2099316 -2.5704017 -0.18488552 1
-1.2547423 -2.3473177 -0.18496262 1
-1.2492753 -1.7023659 -0.18213411 1
-1.4736508 -1.4471635 -0.18273957 1
-1.214898 -0.90049422 -0.17869031 0
-1.2335511 -0.77987522 -0.17730948 0
-1.3993547 1.0360744 -0.060247783 2.1428571
-1.3860822 -2.9515793 0.20950247 5.1333332
-1.5771452 -0.92433214 0.27589977 7.5
-1.5910047 -0.75283867 0.39262697 10
-1.3769807 1.0474921 0.19015291 6.5294118
-1.2536932 -3.4763556 0.69370914 9
-1.4265864 -2.9293268 0.57954729 8.5
-1.5856807 -0.94076717 0.4926506 11
-1.327716 1.0603275 0.59219658 13.375
-1.5043929 -5.6152787 1.132971 9
-1.3987765 -5.5945363 1.0645024 9
-1.3034134 -3.4485369 0.85035133 10
-1.424108 -2.9790568 1.0324271 12.454545
-1.2821102 1.0433055 0.88373011 18
-1.5281103 -5.6336393 1.4133856 10.5
-1.3803306 -5.5770283 1.4062256 10.666667
-1.3102121 -3.0535767 1.2982286 14.5
-1.4996171 -5.6308398 1.7819779 12.5
-1.2985134 -5.5515418 1.7822329 12.5
-1.3310344 1.0210851 1.7846973 27.799999
-1.4881893 -5.6210136 2.1154788 14
-1.4053823 -5.3159504 2.2743268 15
-1.3136901 -5.1770115 2.334897 16
-1.4239379 -3.7251532 2.3858988 19.5
-1.5026342 -2.0774255 2.3826506 26
-1.5917385 -1.9890355 2.3898575 26
-1.5064255 -5.2188778 2.471843 16
-1.2859682 -5.0653682 2.466871 16.5
-1.2161435 -3.4580564 2.5338819 21
-1.2844092 -2.4592397 2.5238111 25
-1.4144001 -2.1852427 2.5233271 26
-1.3636607 -1.8154171 2.5389543 28.142857
-1.478438 -1.3461119 2.5501621 30.333334
-1.57682 -1.1837368 2.5556896 31
-1.0559752 -3.3411908 -0.070601605 3
-1.0875829 -3.1063089 -0.13001841 2.3333333
-0.8661375 -2.4711552 -0.1918118 1
-0.93605953 -2.314997 -0.18988061 1
-1.0999272 -1.7476553 -0.18108632 1
-1.0640759 -1.4042225 -0.17926407 0
-1.1598001 -1.0488719 -0.17751198 0
-0.87351227 0.31396845 -0.011260265 3
-1.0256517 1.1112626 -0.097240664 1.2
-0.88887358 1.340655 -0.083803795 1.6666666
-1.0145009 -3.3583181 0.091834158 3.6666667
-0.80495268 -3.1901481 0.3214348 6
-1.0922785 -0.22173987 0.018000551 3.6666667
-1.041343 1.1028636 0.11132567 5.3636365
-0.88369328 1.3563451 0.16773924 6.25
-0.96558827 -5.4236231 0.79410529 8
-0.82391649 -4.9880514 0.51451492 6.5
-0.8049916 -3.4391062 0.46051496 7
-1.0595703 1.10429 0.61484605 14.857142
-0.96863431 1.3367479 0.60415143 13.823529
-0.91337186 -5.3938651 1.0582151 9
-0.98971027 1.1165986 0.92130381 19.5
-0.9055506 1.3639235 0.93309367 19
-0.97199935 -5.4205866 1.5007024 11.4
-0.97201061 1.1231227 1.4724756 27
-0.88775724 1.5010463 1.2298585 22
-0.9530921 -5.4210773 1.7797263 12.9
-0.84815478 1.408079 1.774403 28
-1.0324463 -5.4149165 2.1943834 14.666667
-1.027306 -3.4832299 2.538053 21.333334
-1.0109395 -2.4678023 2.527524 25.666666
-1.1065189 -2.3731339 2.5255151 26
-1.0387851 -1.8744936 2.5479617 29.166666
-0.78621697 -3.1563387 -0.15556967 2
-0.64423609 -2.2056661 -0.18382385 1
-0.63122767 0.29076928 -0.014321617 2.3333333
-0.57424545 1.4964526 -0.083878957 1.7142857
-0.79143822 -3.1831603 0.38543722 7
-0.78870839 -0.11315558 0.0042108805 3
-0.60353738 0.2627407 0.022790352 4
-0.58823806 1.5015657 0.19495651 6.7894735
-0.67940801 -5.3128285 0.7551778 7.5
-0.61906582 -4.9609947 0.50479251 6.5
-0.73760527 -3.4454103 0.53487414 7.6666665
-0.59578878 1.5186507 0.59432596 13.75
-0.65575469 -5.2953157 0.97893119 9
-0.60249829 1.5161498 0.98249996 19.545454
-0.64356381 -5.3029461 1.3553275 10.666667
-0.58350867 1.5332865 1.3898892 24.444445
-0.55436838 -5.2687216 1.8417786 13.4
-0.71240234 1.4455143 1.7421284 28
-0.67204469 -5.3165331 2.1223488 14.75
-0.55750167 -4.9295511 2.3382974 16.4
-0.77276403 -3.5305359 2.5405562 21.5
-0.58469164 -2.5461059 2.5384917 26
-0.62951559 -2.0450847 2.5517077 29.4
-0.74495965 -1.9831157 2.550077 29.5
-0.13905855 -1.4222702 -0.059133042 1.8571428
-0.20743057 1.534294 -0.087835133 1.5
-0.019003281 -1.6134659 0.36019692 10
-0.10156024 -1.3650118 0.095423937 5.4615383
-0.20129769 1.5402354 0.20725693 7.2105265
-0.013006231 1.644621 0.3185474 9
-0.036758307 -1.6063764 0.47018811 12
-0.0089451876 -1.5949682 0.44252768 11.5
-0.24503237 1.544548 0.60928476 14.384615
-0.13354221 1.6202097 0.63458252 14.428572
-0.20238243 1.5681199 1.0229607 20.545454
-0.13539945 1.6166004 1.0031415 20
-0.19839671 1.5524565 1.3836075 25
-0.08569251 1.6152347 1.3880675 24.75
-0.29140615 1.5142814 1.6244202 28
-0.3791436 -5.2076492 2.0732608 15
-0.37072796 -5.0055842 2.3341963 16
-0.047795121 -2.0738411 2.3582408 28.5
-0.22282298 -1.9889209 2.3549154 29
-0.34138459 -2.6015689 2.542783 26
0.13163958 -2.2527514 -0.1425295 1
0.17853341 -1.6329032 -0.10772226 1
0.060383666 -1.3326857 -0.055869367 2
0.26577413 -1.1327095 -0.033310827 2.2
0.066131286 1.5782497 -0.06464982 2
0.21900056 1.6423503 -0.092361137 1.5
0.1465234 -1.3538662 0.23724043 8.2307692
0.24246512 -1.14254 0.11503693 6.2307692
0.050837871 1.58315 0.16022862 6.25
0.20767586 1.6570746 0.18825571 6.625
0.08852528 -1.6446408 0.67681956 15
0.19313417 -1.5290948 0.52010703 13.083333
0.05064084 1.5864087 0.44255686 11.5
0.24721378 1.7101635 0.58439726 13.055555
0.18819921 -1.7085241 0.83130795 16.666666
0.011874563 1.5706244 0.9480502 19.5
0.21330258 1.7086855 0.99027532 19
0.048971508 1.5801172 1.4028364 25
0.094088927 1.6539632 1.3676957 24
0.1038659 1.5991656 1.6030655 27
0.1710123 1.660957 1.6290761 26.5
0.37003356 -2.9305799 2.3457994 23.5
0.10605757 -2.0877266 2.3601894 28.5
0.76355827 -1.3550218 -0.086448736 1.5
0.57950836 -1.1169391 -0.038872793 2.2
0.76721191 0.78959155 -0.04266445 2
0.73439145 0.8910628 -0.063175254 1.5
0.59699279 1.3862121 -0.15921549 0
0.62814945 1.7739673 -0.089146264 2
0.61524075 -1.381368 0.31370011 9.333333
0.56023645 -1.1230544 0.11421869 5.9166665
0.77545661 0.78896451 0.098589294 6
0.74057555 0.87576342 0.11964338 6.3333335
0.61109591 1.7918411 0.15470569 5.6666665
0.42286137 -1.6426414 0.77788007 16.5
0.58736616 -1.3830069 0.52509671 13.473684
0.59982848 1.8016129 0.59154469 12.388889
0.44270897 -1.6294369 0.84338367 17
0.67027694 -1.4505054 0.92944682 19.222221
0.58045852 1.8246019 0.96471274 17.4
0.64436322 1.8384187 1.4132652 22.222221
0.75664675 1.5178699 1.8500506 28
0.6285044 1.7549793 1.7756691 26.142857
0.61210936 -2.9111965 2.3598444 23.5
0.61742043 -2.7134354 2.5429997 25.333334
0.65065473 -2.1207573 2.5498509 28.857143
0.76132357 -1.9594904 2.5463037 30
1.0174998 -1.2666821 -0.077836782 1.7142857
0.98918176 0.63819975 -0.059754174 1.625
0.817792 0.80577791 -0.059887633 1.6666666
0.85472363 1.357298 -0.15337233 0.5
0.96933812 1.8532976 -0.067000613 2.5
1.0338694 -1.2410796 0.20053475 7
1.0225286 0.63576984 0.16987787 7.2758622
0.9341228 1.8561953 0.15585065 5.4545455
1.005657 -1.2499995 0.5642606 13.4
1.0419843 0.67063087 0.5298447 15.307693
0.88635492 1.8598125 0.57404643 11.555555
0.86665851 -1.4816666 0.81851798 17
1.0035619 0.78686231 0.90926796 21.833334
0.93364275 0.87420684 1.0671937 24
0.92619407 1.9089042 1.1821418 19
0.8743158 0.90781575 1.2231144 26.5
0.9017334 1.8606308 1.32489 20.5
0.83576137 1.5108796 1.8487558 27.5
0.98028171 1.8541664 1.7599193 24
0.9197017 -2.8250599 2.3603394 23.333334
1.0717729 -2.7412548 2.3560472 23.666666
1.0293657 -2.6263566 2.5349312 25
1.0104632 -2.0780513 2.5435779 28
1.0388054 -1.8623534 2.544677 29.333334
1.2799342 -1.2475977 -0.060872585 2.5
1.3895283 -1.0017401 -0.17395082 0
1.3893489 -0.59091067 -0.16573641 0
1.3916997 -0.19703005 -0.16415519 0
1.4324312 0.22793338 -0.16196717 0
1.3886846 0.44484049 -0.048980758 2.25
1.4636521 2.2085598 -0.15084645 2
1.3265917 -2.0351532 0.2390366 6.3333335
1.3553001 -1.9888345 0.24125662 6.5
1.2582078 -1.2678604 0.26029113 7.6666665
1.3409096 0.44391739 0.19827606 7.25
1.2492821 -1.2682561 0.42212039 10.5
1.3404777 0.44443408 0.43352616 12.5
1.3971184 -2.6108537 2.3486698 23.5
1.3970027 -2.5061059 2.4965203 24.666666
1.4108661 -2.1542761 2.5327847 26.333334
1.3995397 -1.7938241 2.5476708 28.285715
1.4532222 -1.4389523 2.5552719 30.166666
1.6959764 -1.334378 -0.11747427 1.6666666
1.7400353 -0.94111234 -0.17126435 1
1.9130459 -0.63506007 -0.16779912 1
1.8384055 -0.26429582 -0.16448992 0.66666669
1.9295573 0.22831446 -0.1605048 1
1.77079 0.45346668 -0.16004013 1
1.8204544 2.8827281 -0.0078241387 3
1.9033537 0.69735581 0.076980747 4
1.8612473 2.891346 0.14217535 4.5
1.8409599 2.9037075 0.46167645 7
1.9559094 0.68303657 1.1489704 18.5
1.9660574 0.67095613 1.3133 20
1.8021485 0.67676014 2.3878813 30
1.7859441 0.90471804 2.3595614 29
1.7270224 -1.7126344 2.5438387 27.25
1.7955709 -1.3753587 2.5541587 28.5
1.7951525 -1.0284914 2.5594444 30.111111
1.8717271 -0.64606905 2.5647583 30.75
1.9448583 -0.20813285 2.5706377 31
1.9635171 0.19007669 2.5769415 31
1.9409002 0.43491521 2.583303 30.5
2.0479343 -0.057052542 -0.16397975 1
2.0392563 0.66644478 1.0909543 17
2.059021 -1.3971677 2.5438097 27
2.0961633 -1.0605927 2.5581775 28
2.2024639 -0.56186968 2.5280199 28.5
2.2271461 -0.23173599 2.5454738 28.714285
2.1830206 0.16229472 2.5762799 29.200001
2.0634773 0.45792016 2.5809116 29.5
2.6322653 -1.7611017 -0.17852949 2
2.5714378 -1.0674438 -0.094809912 2
2.554683 -0.61634308 -0.070992924 2.5
2.6728861 0.61419982 -0.15716211 2
2.7758951 -1.3387833 0.36439124 7
2.6713374 -1.1265415 0.24339476 5.75
2.5931947 -0.60357916 0.12868753 5
2.7906334 -2.315644 0.58224106 8
2.7543278 -1.275944 0.58706611 9
2.6664765 -1.1220477 0.53688246 8.75
2.7894189 -0.53543532 0.79708964 12
2.6533659 -1.2510318 0.87240994 12
2.6510413 -1.1647407 0.81426573 11.5
2.4563484 -0.45241931 2.3985591 26
2.6845343 -0.23504376 2.3984129 25
2.4831278 -0.84705681 2.5535638 26.5
2.5139959 -0.60088629 2.479624 26
2.5473542 -0.23773721 2.4912422 26.5
2.4786561 0.20821717 2.5698428 27.333334
2.4538307 0.46178362 2.5695722 27
3.0009496 -2.0063627 -0.19826037 2
3.0059638 -1.6904233 -0.084868655 2.5
2.9586086 -1.4364903 -0.059733201 2.75
2.9716463 -1.0348635 -0.13062534 2.3333333
2.8562586 0.20548721 -0.16019964 2
2.8421566 0.40980983 -0.161303 2
2.9624658 -2.6015961 0.2606321 5.25
2.8852115 -2.3031726 0.26600608 5.3333335
2.9976006 -1.8302637 0.21355155 5.0833335
3.0312729 -1.5255207 0.050835151 4
2.953433 -1.1148481 0.048395995 4
2.9033821 -2.6492739 0.56867707 7.5999999
2.9341693 -2.2399845 0.54750353 7.9000001
3.0127523 -1.7861729 0.53336871 8
2.8741429 -0.5118345 0.68255484 10.2
3.0375044 -0.39618352 0.5551542 8.5
3.0063536 -1.7228522 0.92864335 11.5
2.8677821 -0.48179325 0.81510621 12
3.1222365 4.2313418 1.4058677 11
2.9971402 4.5565734 1.511225 11.333333
3.1149411 4.2326407 1.6862017 13
2.9987397 4.5836453 1.7732259 12.8
3.1890628 0.65151817 2.3887558 22
3.0960922 4.3495212 2.3132093 16
2.9950755 4.5849214 2.2051706 14.666667
3.0856285 -2.4923053 2.5547824 20.5
3.0097573 -2.0141892 2.4917476 21
3.0517404 -1.8501878 2.5066001 21.666666
3.0513489 0.36050135 2.577826 24
3.0459981 0.59457672 2.5404928 23.666666
2.9617074 0.85021001 2.5067534 23.5
2.9842904 4.3152132 2.5835457 16.666666
2.9713967 4.4833164 2.506222 16
3.2252994 -2.3918865 -0.050015647 3
3.3596387 -1.0752037 -0.034751914 3
3.3806894 -0.56143236 -0.09835954 2.5
3.4762061 -0.21710706 -0.11820605 2.3333333
3.3582618 -1.030417 0.089063689 3.8
3.4215782 -0.527803 0.05573041 3.6666667
3.5052707 -0.28863725 0.222506 5
3.3871446 -0.31117824 0.49629065 7.5
3.2337337 4.2477927 1.5251966 12
3.4340827 -3.6967924 2.1985264 15.5
3.5989497 -3.5026002 2.356545 16
3.3369708 -1.8263117 2.3971782 20.333334
3.3160233 0.2524792 2.3833418 22
3.3024752 0.45407897 2.3821573 22
3.3364618 -1.7517591 2.4906516 20.6
3.318352 -0.96422064 2.5665529 22.333334
3.4362664 -0.64841288 2.5657871 22.25
3.2701178 0.25223967 2.5392358 23
3.2545154 0.4615325 2.4298801 23
3.9920933 -0.22298762 -0.18444844 2
3.8753517 -3.5778913 1.0907098 9.5
3.8562267 -3.5587046 1.3437105 10.8
3.923629 -3.5755541 1.8511781 13.333333
3.7106552 -3.6260717 2.0831425 15
3.7935741 -3.4841902 2.2214291 15.5
3.6959469 -0.54621613 2.3615401 20
3.6584873 -3.3578296 2.5205276 17
3.8966196 -1.548978 2.5760236 20
3.6157327 -0.57384026 2.4300115 21
3.9359651 1.0310156 2.5689573 20
4.18116 -0.11426082 -0.024901545 3
4.2793226 0.17455456 -0.024478467 3
4.2160215 -0.20668638 0.19890527 4.75
4.1638203 0.080635607 0.23161238 5
4.1725583 -0.09452796 0.4045859 6
4.0964918 0.067602754 0.40847814 6
4.1343508 -3.4796407 1.1803083 10
4.1734376 -3.4337459 1.4597629 11.4
4.1839681 -3.4515166 1.7873576 12.8
4.1888142 -3.4417398 2.1701231 14.8
4.2144365 1.0734617 2.3382037 18
4.0547924 -1.4814106 2.5663278 19
4.3399811 -0.18498026 2.5817077 19
4.0664048 0.9510653 2.4016666 19
4.7538409 0.17379098 0.6214655 7.1666665
4.7996454 -0.039785516 0.88787264 9
4.7515855 0.15622279 0.98569715 9.6000004
4.6098819 -3.2782729 1.5143706 11.333333
4.798245 -0.06046303 1.4658812 12
4.7482204 0.12354924 1.356971 11.833333
4.5636244 -3.2831523 1.75516 12.6
4.7891498 -3.1798303 1.7715393 12.5
4.7623978 0.093061984 1.85913 14.666667
4.5137873 -3.2773712 2.2478077 14.5
4.6239214 -3.0331566 2.3616564 15
4.6970506 -0.10285135 2.3284159 17
4.6976233 0.25006735 2.1600292 16.5
4.4961281 0.79889566 2.1955559 17
4.4300761 0.99852639 2.1886971 17
4.7950435 -2.8889759 2.5014439 16
4.7614765 -2.7844276 2.4838912 16
4.440249 -0.15349139 2.4077439 18
5.008812 0.44440904 -0.08123672 3
4.8705578 -0.14927261 0.68223995 7.4285712
5.1458797 0.52366364 0.61729592 6.5
5.0302224 -0.54356772 1.126405 9.75
4.8861351 -0.21647789 1.0053997 9.2857141
4.8569288 0.01997886 0.98087531 9
5.1442428 0.52531964 0.90479428 8.5
4.9120593 -3.1585038 1.5447605 11
5.0102057 -0.54506636 1.396616 11.571428
4.8669558 -0.17435269 1.3966715 11.875
5.1825175 0.51334161 1.207819 10
4.9218936 -3.1356227 1.7715913 12.5
5.1512609 -0.89589494 1.7448972 13
5.0581088 -0.60518318 1.7927353 13.6
4.9073286 -0.20250882 1.8154949 14
5.0638967 -0.62373245 2.1700127 15.6
4.8829784 -0.19974752 2.12972 15.571428
4.9135008 -2.8040409 2.4009743 15
4.9167399 -2.7480934 2.402957 15
5.1487083 -2.0784378 2.5728383 16
5.4059482 0.68409842 0.18185221 4
5.3427644 0.84189647 0.225504 4.5
5.5104666 0.73305297 0.63963205 6.5
5.3631067 0.83824748 0.59000987 6.5
5.4708819 0.75113863 1.0158542 8.5
5.4069729 0.84624356 0.91802818 8.5
5.5221167 -1.7926196 1.5669205 11
5.3636718 -1.4541423 1.5483828 11.666667
5.4960952 0.74455011 1.49437 11
5.3430028 0.86080229 1.3694061 11
5.5943108 -2.0440018 1.954048 13
5.5192485 -1.814067 1.7895104 12.5
5.3715687 -1.4388955 1.7486588 12.666667
5.2432642 -1.1295176 1.7852 13
5.3009548 -2.1655443 2.3959455 15
5.4810138 -1.6783265 2.2593582 14.6
5.3914261 -1.4492378 2.1351616 14.4
5.2862883 -1.159479 2.1530664 15
5.6348257 0.67893571 0.28696892 5
5.6530623 0.76401609 0.72893924 7
5.6564302 0.73517507 1.0019543 8.666667
5.6630006 0.71231365 1.2704681 10
5.6052928 -2.0746388 1.7010642 12
5.6323829 -2.0055633 2.2070532 14
6.0723782 1.3556666 -0.13759783 3
8.8592072 1.7654289 0.3194975 4.5
9.053483 2.2578104 0.14607969 4
8.8366766 1.9212378 0.41503927 5
9.0902367 2.1841869 0.604056 5
8.8536053 1.900021 0.96869773 6.3333335
9.1212845 2.2111461 0.98205674 6.3333335
8.8573608 1.8206972 1.3550115 7.5
8.9602375 2.1545529 1.3813224 7.5
8.8481426 1.9321433 1.7402899 9
9.0997639 2.1886613 1.8067222 9
8.9000721 1.5898255 2.1699467 10
8.8910074 1.7501761 2.1309881 10
8.9298658 2.18085 2.1745844 10
