# .PCD v0.7 - Point Cloud Data file format
VERSION 0.7
FIELDS x y z intensity
SIZE 4 4 4 4
TYPE F F F F
COUNT 1 1 1 1
WIDTH 107
HEIGHT 1
VIEWPOINT 0 0 0 1 0 0 0
POINTS 107
DATA ascii
-14.619629 -5.4275489 3.4133019 10
-11.28968 -1.6098343 1.5142366 7
-7.5738401 -3.5136113 0.87697923 6
-7.5146508 -3.4777627 1.1349595 7
-6.8788843 6.8644366 9.2740192 26
-5.5004625 -1.9754671 0.15264571 4
-5.4403214 8.8350811 2.5538549 11
-5.0237236 -3.2430875 1.4827645 11
-5.0106201 -3.0444667 1.6959357 12
-5.0918431 6.8387122 5.3841338 20
-5.1113238 6.8001518 5.4781518 21
-4.9679537 -3.0590539 1.3188829 10
-4.8841486 8.8463955 1.3919904 7
-4.9596639 8.8674765 1.6146467 8
-4.972127 -3.2965202 2.2556729 14
-4.8868942 -4.4302754 2.5267661 14
-4.9137297 -4.5273681 2.7337229 15
-4.8734002 8.8565168 2.8170221 12
-4.552227 -7.965601 0.94429374 6
-4.5231743 -5.9135571 2.9458704 15
-4.2434077 1.0869923 0.31891978 6
-4.2766433 0.8743667 0.55640179 7
-4.2484832 1.1031542 0.63885808 8
-4.1564255 8.9473047 2.4565709 11
-3.9417555 8.9614315 0.83234364 6
-3.8993695 8.9505949 2.7155516 12
-3.3132069 -3.0238175 -0.019369602 3
-3.3463726 -2.1896214 -0.0077633308 3
-3.2082012 -3.0217259 0.13256989 4
-3.2482684 2.5601928 0.11988221 4
-3.3119943 -3.0060394 0.30164006 5
-3.2395587 2.3685765 0.20040283 5
-3.2792773 2.4830508 0.30095789 6
-3.2388275 2.4421384 0.54672253 7.5
-3.3657432 3.5788052 0.64988309 7
-3.328793 3.6037157 0.69996691 8
-3.3509457 9.0270414 2.1944416 10
-3.296303 9.0109577 2.6236923 11
-3.0515339 1.4863572 -0.075573698 3
-3.1411109 -3.0177572 0.36953425 6
-3.0477879 1.5247325 0.34534276 6
-3.0040402 1.5317284 0.42949456 7
-2.8356948 1.6177117 0.18591665 5
-2.876013 1.582101 0.50685775 8
-1.8569517 7.1725807 4.8446913 21
-1.3749217 9.1914892 4.0042896 16
-1.2975998 -29.46027 10.554388 14
-1.2356288 -29.95834 15.637444 18
-1.0080315 7.237905 4.4435577 20
-1.1468734 -29.526207 10.024508 13
-1.1866752 -29.245342 16.281473 19
-0.95684856 9.2172804 0.91266018 6
-0.80808884 9.2216511 1.3241675 7.5
-0.97371387 7.2404051 4.32267 19
-0.90484202 7.2622004 4.7608585 21
-0.89924204 7.2594743 6.0158958 24
-0.61076921 9.1658783 2.5419979 11
-0.40174112 9.2761602 2.2594247 10
-0.4826484 -16.332041 3.228842 9
-0.47976977 9.2695036 3.8031902 15
-0.25321192 7.1372328 6.0744114 25
-0.15618964 -16.364969 3.9841142 10
0.19287071 2.370923 0.30992499 7.5
0.20366356 2.6538057 0.077242941 4
0.38254309 2.2654221 0.22372958 6
0.3691147 2.3643074 0.56845009 10
0.35964379 2.3176186 0.68153989 12
0.36673066 7.1931534 6.0892982 24
0.44758695 2.2811282 0.6298728 11
0.54065055 9.3879309 4.2882662 16
0.43393037 -29.645275 28.142811 26
0.88204706 2.1945319 0.21318755 6
1.0386715 2.2028341 0.36703604 7.5
1.0945917 7.4346528 4.4119449 19
1.1479974 7.4429979 4.6530862 20
1.0065299 7.4301171 4.8536901 21
1.5952311 8.939949 4.160677 16
2.2338519 -15.630002 3.5974202 10
2.4166186 -15.966104 3.1596158 9
2.9674721 -1.9628751 0.09178786 4
3.0918813 -26.092506 9.5832939 14
3.8888881 -26.095964 14.189132 18
4.0145593 -26.117872 14.864265 19
4.4323101 7.7402601 5.6131353 20
4.4097223 7.7499585 5.9060621 21
4.5043941 7.73175 7.8583345 25
4.5404434 -26.068716 9.3668394 13
4.5288029 -26.000099 19.950827 23
4.6204958 7.7874312 7.431478 24
4.9077864 -25.97677 9.5662498 14
5.0254154 -25.967632 10.585382 15
5.303298 8.0238361 9.2755203 26
5.3432307 7.916348 9.59484 27
5.8691926 -15.717903 3.5158308 9
5.9170294 -15.684856 3.8118966 10
6.0397635 -25.921997 15.14655 19
6.7261715 -15.214935 2.8860326 8
7.3928323 8.0571184 10.44681 26
7.9807153 -25.693977 9.6099176 14
7.8278141 8.164114 9.6104469 24
7.9214025 8.0959854 10.209755 25
8.0565987 -1.7123111 0.68305415 6
8.3446112 8.0896358 5.432548 16
8.4594011 -25.635738 15.206527 19
8.693758 -25.63257 8.9878263 13
9.124527 -25.581303 10.886385 15
10.831089 -25.319742 10.218663 14
