# .PCD v0.7 - Point Cloud Data file format
VERSION 0.7
FIELDS x y z intensity
SIZE 4 4 4 4
TYPE F F F F
COUNT 1 1 1 1
WIDTH 1013
HEIGHT 1
VIEWPOINT 0 0 0 1 0 0 0
POINTS 1013
DATA ascii
3.142 -1.46 -0.204 0
3.075 -3.309 -0.106 0
2.9943874 -3.2214887 -0.10983261 0
3.0555415 -3.2878764 -0.10692512 0
2.8560243 -3.1461115 -0.11292133 0
2.9332333 -3.1551011 -0.1127401 0
-1.6735315 -3.0290484 -0.16534342 0
2.7680955 -3.0450089 -0.12655486 0
2.8559389 -3.0549061 -0.11458659 0
-1.6547489 -2.9418764 -0.17420673 0
2.6508572 -2.9102054 -0.14473292 0
2.7393711 -2.9532959 -0.12864433 0
2.8218391 -2.9900107 -0.11919181 0
-1.6104577 -2.8298819 -0.17740183 0
-1.5716505 -2.8496771 -0.16814946 0
2.5922382 -2.8428035 -0.15382195 0
2.6706574 -2.8584626 -0.13003628 0
-1.5474849 -2.7607446 -0.1732412 0
2.4749999 -2.7079999 -0.17200001 0
2.5566244 -2.7558382 -0.15027554 0
2.6217561 -2.755203 -0.12540662 0
-1.5255933 -2.6711614 -0.17680137 0
-1.4598846 -2.6529031 -0.17122775 0
2.444 -2.6160002 -0.15650001 0
2.520308 -2.6692522 -0.13677217 0
-1.4619451 -2.5521212 -0.17635103 0
-1.3928252 -2.5348387 -0.17307474 0
2.487 -2.5799999 -0.117 0
-1.3732078 -2.4446049 -0.17510337 0
2.892 -2.454 -0.104 0
-2.3410001 -2.3429999 -0.184 0
-2.1350455 -2.3393397 -0.18095848 0
-1.3296385 -2.3655698 -0.17556891 0
-2.2497931 -2.2534699 -0.18348399 0
-2.0617476 -2.2617152 -0.18070398 0
-1.3134322 -2.2743602 -0.17530023 0
-1.2363532 -2.2593548 -0.17738435 0
2.4209971 -2.2398736 -0.17404871 0
-2.1525626 -2.1580274 -0.18293388 0
-2.0004041 -2.1967509 -0.18049099 0
-1.9390607 -2.1317863 -0.18027799 0
-1.271 -2.1949999 -0.175 0
2.275773 -2.103137 -0.17452021 0
2.3408835 -2.1644421 -0.17430882 0
-2.4344776 -2.0522046 -0.14652713 0
-2.3358531 -2.0200953 -0.11424954 0
-2.0553322 -2.0625849 -0.18238378 0
-1.8470455 -2.0343399 -0.17995849 0
-1.1635001 -2.01 -0.1805 0
0.82099998 -2.023 -0.15899999 0
2.2106626 -2.0418315 -0.17473161 0
-2.506 -1.971 -0.103 0
-2.4570026 -1.9527553 -0.14036165 0
-2.3543773 -1.9352036 -0.17418134 0
-2.2677553 -1.934909 -0.14765427 0
-2.1976635 -1.9045187 -0.12797186 0
-1.9581016 -1.9671421 -0.18183367 0
-1.8932812 -1.9035138 -0.18146694 0
-1.7550304 -1.9368932 -0.179639 0
-1.1480217 -1.9575983 -0.17862773 0
-1.0895603 -1.9292547 -0.18103775 0
0.78713191 -1.9422464 -0.14632826 0
1.758 -1.9630001 -0.178 0
2.0804417 -1.919221 -0.1751544 0
2.1455522 -1.9805263 -0.17494301 0
2.5436945 -1.9371687 -0.1313013 0
-2.5313725 -1.8810632 -0.10207471 0
-2.435401 -1.8412967 -0.11094481 0
-2.3281937 -1.8332634 -0.1325963 0
-2.2004082 -1.848197 -0.1746731 0
-2.1285686 -1.8467304 -0.13483302 0
-1.8284609 -1.8398854 -0.1811002 0
-1.6630151 -1.8394465 -0.1793195 0
-1.2319132 -1.8388678 -0.18047921 0
-1.149254 -1.8690723 -0.18015276 0
-1.0631061 -1.843532 -0.17793474 0
0.75326377 -1.861493 -0.13365652 0
1.6674765 -1.8645022 -0.15821184 0
1.852 -1.808 -0.18099999 0
2.0153313 -1.8579159 -0.17536581 0
2.3791759 -1.8253939 -0.15070301 0
2.4432521 -1.8563821 -0.13187101 0
2.5282197 -1.8475968 -0.1310382 0
-2.343013 -1.7393169 -0.12150753 0
-2.2466853 -1.7598319 -0.13366823 0
-2.1604226 -1.7475299 -0.16212745 0
-2.0615971 -1.7592556 -0.15865892 0
-1.9903791 -1.7311535 -0.14855535 0
-1.7636406 -1.7762569 -0.18073347 0
-1.6988202 -1.7126285 -0.18036674 0
-1.571 -1.742 -0.17900001 0
-1.2262213 -1.7560172 -0.18169275 0
-1.1586161 -1.7397442 -0.17919068 0
-1.046438 -1.7629837 -0.17746493 0
-0.92691463 -1.7266636 -0.17677474 0
0.7193957 -1.7807394 -0.12098478 0
1.5467786 -1.7331719 -0.13182762 0
1.7745419 -1.7181683 -0.17527764 0
1.8851105 -1.7353053 -0.1757886 0
1.9502209 -1.7966106 -0.17557721 0
2.2639623 -1.7228835 -0.14310303 0
2.3547077 -1.7592064 -0.141638 0
2.4783115 -1.7412783 -0.1405046 0
-2.2483265 -1.6762898 -0.13043791 0
-2.1526265 -1.6414407 -0.1368833 0
-2.0525744 -1.6339315 -0.16754091 0
-1.9478974 -1.6515207 -0.16936322 0
-1.8521895 -1.6155767 -0.16227767 0
-1.6356665 -1.6486667 -0.17966668 0
-1.5570679 -1.6422154 -0.17880875 0
-1.349 -1.614 -0.177 0
-1.2467334 -1.664601 -0.17409587 0
-1.1437659 -1.6360317 -0.17637047 0
-1.0566442 -1.6457876 -0.17660588 0
-0.96385765 -1.6536353 -0.1756326 0
0.134 -1.649 -0.102 0
0.68552756 -1.6999859 -0.10831304 0
1.4562552 -1.6346741 -0.11203946 0
1.6574342 -1.6221149 -0.17740801 0
1.7144197 -1.6633821 -0.17617142 0
1.8257782 -1.6239214 -0.1739774 0
2.0933611 -1.6091688 -0.1623013 0
2.156126 -1.643441 -0.15143551 0
2.233572 -1.6493862 -0.14575407 0
2.3292255 -1.6486883 -0.14906767 0
2.4450076 -1.6762859 -0.11416106 0
2.5502007 -1.665532 -0.14161979 0
-2.1115756 -1.5927883 -0.14156155 0
-2.0518658 -1.5561411 -0.14581698 0
-1.9432112 -1.5383197 -0.16620277 0
-1.8695283 -1.5267119 -0.17715141 0
-1.7830948 -1.5577884 -0.16913883 0
-1.6649632 -1.5562735 -0.17982917 0
-1.5424752 -1.558111 -0.17868942 0
-1.4430339 -1.5306077 -0.17840438 0
-1.3455113 -1.5592369 -0.17732997 0
-1.2637178 -1.5574765 -0.17564709 0
-1.1588088 -1.5375164 -0.17349041 0
-1.05404 -1.562111 -0.17599884 0
-0.97299999 -1.5255001 -0.17200001 0
-0.47099999 -1.574 -0.107 0
1.454 -1.516 -0.175 0
1.5886338 -1.5406411 -0.17568132 0
1.6456194 -1.5819082 -0.17444474 0
1.7571831 -1.5447514 -0.17352523 0
1.8207915 -1.5981578 -0.17404696 0
1.9504536 -1.5010563 -0.16810043 0
2.0334847 -1.5483947 -0.15759583 0
2.1571753 -1.5386461 -0.1580366 0
2.2621348 -1.5600429 -0.13914725 0
2.3486452 -1.5705829 -0.1347518 0
2.462846 -1.5583553 -0.15057512 0
-2.0184236 -1.4947379 -0.15624483 0
-1.9480129 -1.4710313 -0.15875646 0
-1.8498256 -1.4377911 -0.16951206 0
-1.7370861 -1.4645785 -0.17738119 0
-1.6987193 -1.4143283 -0.17781188 0
-1.5520066 -1.4533634 -0.1785856 0
-1.4325438 -1.4390365 -0.1779069 0
-1.3475132 -1.4447455 -0.17814784 0
-1.2535403 -1.4567654 -0.17705864 0
-1.1520844 -1.4370141 -0.173926 0
-1.0553612 -1.4526669 -0.17331165 0
1.3577306 -1.4126409 -0.17313431 0
1.4568628 -1.4361345 -0.17489743 0
1.5257409 -1.4792707 -0.17543629 0
1.6592798 -1.4589962 -0.17359564 0
1.8625054 -1.4300444 -0.17094347 0
1.9443145 -1.4418774 -0.1659508 0
2.0397155 -1.4319715 -0.16016214 0
2.1405346 -1.4562905 -0.15004562 0
2.2544758 -1.4745984 -0.15538476 0
2.3497543 -1.4652489 -0.15729809 0
2.4322064 -1.4266219 -0.10507572 0
3.062649 -1.4217118 -0.19212511 0
-1.8452948 -1.3845351 -0.17066363 0
-1.7646495 -1.3509042 -0.1771144 0
-1.6592853 -1.3534503 -0.17728978 0
-1.5454712 -1.3061173 -0.17786139 0
-1.4289351 -1.3495426 -0.17603286 0
-1.3500692 -1.3435249 -0.17557561 0
-1.2351027 -1.364414 -0.17516179 0
-1.1528357 -1.342087 -0.17477491 0
-1.063 -1.3635 -0.1725 0
1.069 -1.341 -0.162 0
1.3543122 -1.3385599 -0.17242113 0
1.4475585 -1.3480368 -0.17319719 0
1.5356376 -1.3405603 -0.17497924 0
1.6920166 -1.3053831 -0.17008041 0
1.7625194 -1.3587803 -0.17042714 0
1.8909674 -1.3233355 -0.17050001 0
1.9495208 -1.3379501 -0.16759777 0
2.0795054 -1.3317237 -0.16567504 0
2.164866 -1.3537722 -0.16443531 0
2.2500093 -1.3519949 -0.14655204 0
2.3614283 -1.3697234 -0.11460561 0
2.8245964 -1.3068472 -0.15650044 0
2.9436228 -1.3642795 -0.17431279 0
-2.4747183 -1.2190568 -0.12261662 0
-2.3721514 -1.2340437 -0.14041623 0
-1.8059793 -1.248986 -0.17399985 0
-1.7556708 -1.2457206 -0.1763979 0
-1.6503388 -1.2514684 -0.17604649 0
-1.5555528 -1.2316072 -0.17706579 0
-1.4439455 -1.2660755 -0.1762927 0
-1.3367568 -1.2508545 -0.17479071 0
-1.2514632 -1.2529269 -0.1740019 0
-1.1410372 -1.246783 -0.17238358 0
-1.0779999 -1.285 -0.171 0
0.9505806 -1.2319651 -0.14211379 0
1.0191345 -1.2774727 -0.1497044 0
1.196 -1.239 -0.17 0
1.258486 -1.2730198 -0.17062294 0
1.3380262 -1.2528522 -0.17240651 0
1.443318 -1.2653291 -0.17362255 0
1.5098946 -1.2394958 -0.17296565 0
1.6215138 -1.2519859 -0.16973367 0
1.7544514 -1.2141168 -0.1713239 0
1.8252933 -1.2639859 -0.17088868 0
1.9349999 -1.2326666 -0.17233332 0
2.0479777 -1.2477953 -0.17157254 0
2.1546271 -1.2444495 -0.15593351 0
2.2705948 -1.2545302 -0.13144183 0
2.3466301 -1.2299254 -0.11870893 0
2.4364367 -1.2758811 -0.10886673 0
2.5059106 -1.2873764 -0.10846216 0
2.6658947 -1.2302709 -0.13275068 0
2.7452455 -1.2685591 -0.14462556 0
2.9749999 -1.202 -0.118 0
-2.5511913 -1.1711984 -0.10916457 0
-2.434567 -1.1286628 -0.11189879 0
-2.3583577 -1.1434536 -0.13104035 0
-2.2645161 -1.1599991 -0.14119069 0
-2.1364589 -1.114907 -0.15718998 0
-1.7536892 -1.1633165 -0.1764348 0
-1.653854 -1.1348822 -0.17516904 0
-1.5403131 -1.1369399 -0.17483531 0
-1.4445716 -1.1536611 -0.17515664 0
-1.3560271 -1.1392977 -0.17490444 0
-1.2407321 -1.1509787 -0.1737767 0
-1.1463333 -1.1633333 -0.17200001 0
0.89300001 -1.176 -0.131 0
1.243921 -1.1606276 -0.16909352 0
1.3565062 -1.1661851 -0.1736587 0
1.4634566 -1.1546568 -0.17237216 0
1.5492868 -1.1504015 -0.17128026 0
1.6481886 -1.1393132 -0.17197673 0
1.7552919 -1.1044096 -0.17198899 0
1.8449363 -1.1292171 -0.17315295 0
1.9420738 -1.1582541 -0.17409927 0
2.0459945 -1.1618894 -0.17491317 0
2.1432834 -1.1335833 -0.14350466 0
2.2295179 -1.1588178 -0.13954897 0
2.5468683 -1.1728387 -0.11493834 0
2.8960936 -1.1710793 -0.10735275 0
-2.4446433 -1.0721976 -0.10530136 0
-2.3596532 -1.0471516 -0.11965765 0
-2.2525854 -1.0499935 -0.13435534 0
-2.1564696 -1.0363532 -0.14946632 0
-2.064224 -1.0330468 -0.15923081 0
-1.9832294 -1.0374535 -0.16809499 0
-1.8189472 -1.0398726 -0.17864834 0
-1.7643241 -1.0505285 -0.17690402 0
-1.6474205 -1.0432807 -0.17632972 0
-1.5441433 -1.0464716 -0.1742292 0
-1.4493548 -1.0447017 -0.17364132 0
-1.3580354 -1.0441437 -0.17411855 0
-1.2606622 -1.0490921 -0.17311054 0
-1.1743335 -1.0503334 -0.171 0
1.2720001 -1.0625 -0.1715 0
1.3546001 -1.0541377 -0.17133282 0
1.4482312 -1.0481354 -0.17163979 0
1.5482957 -1.0481951 -0.17068306 0
1.6445043 -1.0361867 -0.17139231 0
1.762565 -1.0343376 -0.172741 0
1.8726535 -1.0635196 -0.17324184 0
1.9680859 -1.0458843 -0.17391451 0
2.0574219 -1.062481 -0.16455771 0
2.1286964 -1.0499698 -0.13313447 0
2.251997 -1.0267234 -0.11968736 0
2.3273714 -1.0605292 -0.1071092 0
2.4538922 -1.0506085 -0.10873279 0
2.6844859 -1.0160635 -0.1313882 0
2.7686982 -1.0460726 -0.12515795 0
2.8529105 -1.0760816 -0.11892769 0
2.9059999 -1.095 -0.115 0
-2.5300894 -0.98777914 -0.10739541 0
-2.4341226 -0.96874654 -0.11022094 0
-2.3547833 -0.94841671 -0.12107765 0
-2.246676 -0.94780684 -0.13184087 0
-2.1391103 -0.95313329 -0.14644548 0
-2.0389285 -0.94824803 -0.16064139 0
-1.9426012 -0.955567 -0.1682401 0
-1.8349811 -0.94374853 -0.17647314 0
-1.7472546 -0.95402318 -0.17612556 0
-1.6552385 -0.94491017 -0.17564198 0
-1.5716243 -0.93478358 -0.17492224 0
-1.4505024 -0.95635909 -0.17413497 0
-1.3582567 -0.94732571 -0.17227848 0
-1.2511647 -0.9492923 -0.17251182 0
1.2690001 -0.98500001 -0.168 0
1.3472387 -0.94756103 -0.17091756 0
1.4473975 -0.94631255 -0.1715982 0
1.5366744 -0.95582598 -0.17038043 0
1.6358216 -0.9531607 -0.17140312 0
1.7438928 -0.94925618 -0.17167217 0
1.854338 -0.95661831 -0.17114769 0
1.9391104 -0.93839151 -0.16908562 0
2.05072 -0.9375484 -0.16011287 0
2.1690896 -0.95269614 -0.16103689 0
2.2622855 -0.96138155 -0.14499235 0
2.3389282 -0.99707234 -0.13048853 0
2.4318492 -0.9260363 -0.15007897 0
2.5629435 -0.9264226 -0.14086042 0
2.6453266 -0.95636076 -0.13470943 0
2.7095001 -0.95700002 -0.1295 0
-2.9230001 -0.86400002 -0.114 0
-2.845787 -0.84152663 -0.12153299 0
-2.7216823 -0.80540508 -0.13364077 0
-2.6040001 -0.84862924 -0.10405617 0
-2.5194952 -0.83178711 -0.10966502 0
-2.4245574 -0.83870143 -0.15665965 0
-2.3333731 -0.84458411 -0.14011049 0
-2.2476451 -0.88381553 -0.13364112 0
-2.1569781 -0.85614651 -0.14538547 0
-2.0567524 -0.848171 -0.15845674 0
-1.9561923 -0.86681688 -0.1709846 0
-1.8552856 -0.87099999 -0.17900001 0
-1.7472019 -0.87166023 -0.17668043 0
-1.6446893 -0.83568335 -0.17574106 0
-1.5512611 -0.85638744 -0.17450839 0
-1.4619062 -0.85713482 -0.1737126 0
-1.3436458 -0.85243338 -0.17240515 0
-1.2410001 -0.83700007 -0.171 0
1.3613807 -0.87541628 -0.17018646 0
1.4556893 -0.85688895 -0.1698686 0
1.5620456 -0.86098373 -0.16988766 0
1.6431472 -0.85520685 -0.1695001 0
1.7266531 -0.84646297 -0.16830695 0
1.8390164 -0.85194749 -0.17050953 0
1.947547 -0.83824611 -0.17305221 0
2.0585513 -0.82955486 -0.17414865 0
2.1253006 -0.8759706 -0.17268232 0
2.2559357 -0.83480668 -0.16100028 0
2.3438652 -0.84661132 -0.15723658 0
2.4234478 -0.85180604 -0.15158892 0
2.5049162 -0.88170862 -0.14547759 0
2.6515894 -0.82368588 -0.1243796 0
2.7799072 -0.86402303 -0.11585552 0
2.8529999 -0.88700002 -0.111 0
-3.0006201 -0.76578581 -0.10712111 0
-2.916465 -0.74458939 -0.11734083 0
-2.8372624 -0.72642457 -0.11503394 0
-2.7641516 -0.70709038 -0.12701516 0
-2.6389458 -0.78132409 -0.14171261 0
-2.5714626 -0.74762326 -0.11751711 0
-2.4542971 -0.73944652 -0.12278737 0
-2.3624933 -0.75367051 -0.13939188 0
-2.2554784 -0.77152872 -0.14656787 0
-2.171978 -0.7428906 -0.15265946 0
-2.0538926 -0.74237579 -0.16096582 0
-1.9524838 -0.75901747 -0.17323834 0
-1.86725 -0.74774998 -0.17950001 0
-1.5319221 -0.77270025 -0.17528844 0
-1.434258 -0.7759164 -0.1730748 0
-1.3574706 -0.75119936 -0.17211983 0
-1.27 -0.75475001 -0.17125 0
1.3280001 -0.75499994 -0.16799998 0
1.4473625 -0.75381851 -0.16763006 0
1.5714015 -0.74768829 -0.16843528 0
1.6751474 -0.73520404 -0.16898662 0
1.7652127 -0.75423455 -0.17070158 0
1.8517526 -0.75515962 -0.16875024 0
1.9576809 -0.72869939 -0.16530764 0
2.0797236 -0.74479759 -0.16223055 0
2.1624248 -0.73828334 -0.16430429 0
2.2696209 -0.74595499 -0.1492814 0
2.3497477 -0.75514817 -0.13209096 0
2.4198632 -0.77772868 -0.12579319 0
2.5232716 -0.78334868 -0.13290367 0
2.76526 -0.72232723 -0.1131248 0
2.813 -0.73500001 -0.11 0
-3.1346579 -0.69470215 -0.18299145 0
-3.0465028 -0.6751371 -0.18242922 0
-2.9596901 -0.65586996 -0.18187557 0
-2.8728771 -0.63660282 -0.18132192 0
-2.7860641 -0.61733568 -0.18076827 0
-2.6504314 -0.67813635 -0.13931112 0
-2.5197001 -0.66082376 -0.13275053 0
-2.4337904 -0.63789648 -0.13892902 0
-2.3373961 -0.65113884 -0.1400747 0
-2.2317896 -0.63945544 -0.13683534 0
-2.1404376 -0.6254704 -0.14595495 0
-2.0416522 -0.65721774 -0.15611997 0
-1.9214773 -0.65697622 -0.17093426 0
-1.8342075 -0.6354906 -0.17730676 0
-1.7351067 -0.61460626 -0.1789376 0
-1.301 -0.69400001 -0.17399999 0
-1.278 -0.67299998 -0.169 0
1.3315001 -0.65450001 -0.16599999 0
1.4452488 -0.63813543 -0.16683564 0
1.5562249 -0.63617837 -0.16691674 0
1.6367947 -0.66842723 -0.16737513 0
1.7699261 -0.64629877 -0.17051676 0
1.8555775 -0.62688744 -0.17174435 0
1.940853 -0.64949375 -0.16911453 0
2.0368428 -0.65305281 -0.1663117 0
2.1810906 -0.67578292 -0.15563455 0
2.3334489 -0.60770094 -0.1413888 0
2.437335 -0.61871815 -0.13518202 0
2.5669632 -0.64695287 -0.12638055 0
2.6698031 -0.64951718 -0.12916353 0
2.7766767 -0.64887369 -0.12246597 0
2.8410001 -0.60600001 -0.112 0
-2.6558452 -0.58843505 -0.17993778 0
-2.5256257 -0.55953431 -0.17910731 0
-2.4388127 -0.54026717 -0.17855366 0
-2.352 -0.52100003 -0.178 0
-2.2475841 -0.5712046 -0.16108808 0
-2.1477244 -0.56141877 -0.15860908 0
-2.0580835 -0.54918778 -0.162481 0
-1.9546679 -0.54305667 -0.16853358 0
-1.8634644 -0.55819404 -0.17478734 0
-1.7599453 -0.54693216 -0.17463429 0
-1.6512927 -0.54524839 -0.17532662 0
-1.5653332 -0.54766661 -0.177 0
1.3585 -0.57000005 -0.16575 0
1.4392556 -0.56204218 -0.167 0
1.5217112 -0.54214829 -0.16827466 0
1.6556879 -0.55152309 -0.16918299 0
1.7595302 -0.54734117 -0.16610402 0
1.8448581 -0.54111785 -0.16678393 0
1.9649664 -0.54291815 -0.16627137 0
2.0510962 -0.54880923 -0.16198877 0
2.1560068 -0.53841108 -0.15612614 0
2.2370443 -0.54585367 -0.15383543 0
2.3417315 -0.54315317 -0.15286365 0
2.4422255 -0.54625231 -0.14453194 0
2.5345714 -0.54774076 -0.13824803 0
2.6609838 -0.55868822 -0.12713122 0
2.777689 -0.55889946 -0.12691434 0
2.8670516 -0.56007797 -0.1285274 0
2.9419999 -0.57500005 -0.12549999 0
-1.926 -0.48900002 -0.17750001 0
-1.7115867 -0.48436326 -0.175 0
-1.6382934 -0.46268165 -0.175 0
-1.559592 -0.47150913 -0.17415905 0
1.354 -0.4395 -0.1655 0
1.4427214 -0.44530141 -0.16591106 0
1.5514755 -0.44409353 -0.16555932 0
1.6452653 -0.46882233 -0.16621442 0
1.7649293 -0.44495052 -0.16660246 0
1.846824 -0.44692293 -0.16592656 0
1.95618 -0.44835198 -0.16678914 0
2.065145 -0.46167707 -0.1651666 0
2.1582828 -0.4503364 -0.16020769 0
2.2518964 -0.46055725 -0.15345374 0
2.3354542 -0.46784425 -0.14881378 0
2.4222755 -0.47203898 -0.1477637 0
2.5163612 -0.44605735 -0.14456877 0
2.6287713 -0.44460315 -0.1399051 0
2.7594416 -0.43772066 -0.13781071 0
2.8729458 -0.42834178 -0.12705518 0
2.9365001 -0.47 -0.12799999 0
1.3515 -0.35049999 -0.164 0
1.4270791 -0.34937334 -0.16527665 0
1.5300188 -0.36018929 -0.16509728 0
1.6517057 -0.35853806 -0.16529527 0
1.7469839 -0.33488736 -0.16561799 0
1.8441598 -0.34073991 -0.16533697 0
1.9612195 -0.3455902 -0.16557483 0
2.0552633 -0.33892915 -0.16319329 0
2.1470802 -0.33935812 -0.15968244 0
2.250093 -0.34240246 -0.15456527 0
2.3586278 -0.3477734 -0.15348305 0
2.448051 -0.3605116 -0.15047316 0
2.5409415 -0.35092551 -0.14996918 0
2.6459594 -0.35767424 -0.14313504 0
2.7563148 -0.3609972 -0.1432687 0
2.8638563 -0.35355613 -0.15345998 0
2.9553335 -0.34299996 -0.15800001 0
1.3445001 -0.24649999 -0.16249999 0
1.4481413 -0.25802693 -0.16445395 0
1.5525568 -0.24342608 -0.16401267 0
1.6617328 -0.24967293 -0.16466901 0
1.754887 -0.24812083 -0.1649061 0
1.8514007 -0.2446446 -0.16564342 0
1.9594022 -0.25541133 -0.16582069 0
2.0703714 -0.25004205 -0.16610973 0
2.1573501 -0.26326174 -0.16332585 0
2.2601688 -0.26952589 -0.1657189 0
2.3553004 -0.26107222 -0.16306373 0
2.4450221 -0.2711243 -0.16168967 0
2.539629 -0.25899148 -0.16823122 0
2.6299002 -0.2678234 -0.16860309 0
2.7201717 -0.27665532 -0.16897497 0
2.8104432 -0.28548723 -0.16934682 0
2.9007146 -0.29431915 -0.1697187 0
1.3566666 -0.148 -0.162 0
1.4423177 -0.16551393 -0.16327219 0
1.5608757 -0.14361224 -0.16283049 0
1.65748 -0.1549315 -0.16317254 0
1.7606032 -0.14844278 -0.16316515 0
1.8556836 -0.14679115 -0.16341135 0
1.9284574 -0.15169038 -0.16283375 0
1.3430001 -0.049333334 -0.16366668 0
1.4276875 -0.051986832 -0.16350646 0
1.5424612 -0.05230831 -0.16321196 0
1.6640106 -0.054430522 -0.1626763 0
1.761537 -0.039206591 -0.16192968 0
1.852639 -0.034435082 -0.16191681 0
1.9084326 -0.049319226 -0.1610014 0
1.3473333 0.044666667 -0.16366667 0
1.4549122 0.04896586 -0.162975 0
1.5558164 0.042733576 -0.16203648 0
1.6524312 0.052575041 -0.16181313 0
1.7562791 0.060437236 -0.16067134 0
1.8655167 0.053182676 -0.1611516 0
1.293 0.108 -0.16 0
1.3609542 0.15181708 -0.16246355 0
1.4598962 0.15144281 -0.16140369 0
1.5435203 0.15846284 -0.16085596 0
1.639926 0.15258786 -0.1606393 0
1.7427565 0.15449286 -0.15988122 0
1.8413539 0.16164571 -0.15952873 0
1.2925 0.2335 -0.16150001 0
1.3499155 0.2424306 -0.16161403 0
1.4499462 0.24909849 -0.16074784 0
1.5606456 0.24093242 -0.161149 0
1.6445333 0.23866825 -0.16069381 0
1.7444618 0.26054007 -0.16114716 0
1.8109393 0.23892581 -0.15800874 0
1.271 0.34599999 -0.16166668 0
1.3653345 0.34722304 -0.16199307 0
1.4492378 0.34617844 -0.16199075 0
1.5388708 0.35208285 -0.16121393 0
1.6314844 0.3318288 -0.1600982 0
1.7481469 0.35531294 -0.15962388 0
1.829 0.3425 -0.163 0
0.84500003 0.45100001 -0.103 0
0.91830784 0.49154636 -0.1041353 0
1.2589999 0.45800003 -0.16066666 0
1.3436604 0.45445612 -0.16020018 0
1.4445828 0.46359634 -0.16136546 0
1.5834594 0.45545822 -0.16240385 0
1.6500895 0.42082715 -0.16204903 0
1.7519696 0.44502011 -0.16061683 0
1.8321043 0.47624207 -0.16033275 0
1.9558604 0.48238927 -0.16063248 0
-1.313 0.597 -0.168 0
-1.1109999 0.57300001 -0.163 0
0.99161565 0.53209269 -0.10527059 0
1.0649235 0.57263905 -0.10640589 0
1.2195001 0.55900002 -0.16 0
1.3314174 0.5467959 -0.16030054 0
1.4614097 0.55104059 -0.16003658 0
1.5469798 0.54939514 -0.15995315 0
1.6430497 0.54450518 -0.16173702 0
1.7514261 0.56640869 -0.16190082 0
1.8160197 0.58398086 -0.16009229 0
1.9554572 0.53057885 -0.15745512 0
2.065161 0.53660506 -0.15908846 0
2.1528177 0.56046808 -0.1590876 0
2.219651 0.55047315 -0.16008119 0
2.3515463 0.58451509 -0.15980554 0
-1.6451316 0.69203365 -0.16462553 0
-1.5598503 0.67498964 -0.16350053 0
-1.4614131 0.66836941 -0.16522223 0
-1.3649737 0.66857803 -0.16403118 0
-1.2662789 0.66619104 -0.16451442 0
-1.1683577 0.6517303 -0.16330995 0
1.1382313 0.61318541 -0.10754119 0
1.2602261 0.651245 -0.12639086 0
1.3667789 0.63739294 -0.13952564 0
1.4419841 0.67411327 -0.14279896 0
1.529178 0.64586353 -0.15399018 0
1.6551309 0.62810922 -0.15983875 0
1.7317448 0.68230885 -0.16110978 0
1.8388017 0.62603396 -0.1618741 0
1.9576362 0.64203608 -0.16056867 0
2.0716472 0.68461466 -0.16061799 0
2.1600981 0.69990432 -0.16046147 0
2.2612972 0.61818928 -0.15809229 0
2.34868 0.64322078 -0.15827434 0
2.4597521 0.64340472 -0.15899314 0
2.5474086 0.6672678 -0.15899228 0
2.659302 0.66394627 -0.15916237 0
2.737 0.68400002 -0.15899999 0
-1.827 0.76300001 -0.161 0
-1.7559018 0.7460379 -0.16648506 0
-1.660947 0.75343907 -0.16292334 0
-1.5515403 0.74848557 -0.16355215 0
-1.4539802 0.75329494 -0.16360912 0
-1.3500086 0.76043242 -0.16233778 0
-1.2558011 0.74673325 -0.15978986 0
-1.16488 0.77237976 -0.16072604 0
-1.0433333 0.74733335 -0.162 0
-0.995 0.79100001 -0.161 0
1.2970001 0.70099998 -0.11 0
1.5462501 0.72795296 -0.14886777 0
1.6337194 0.78124678 -0.152381 0
2.1556211 0.72540796 -0.1604891 0
2.244072 0.74069756 -0.16033256 0
2.3302844 0.76873899 -0.16018985 0
2.4181569 0.78684688 -0.16073836 0
2.6539145 0.7306577 -0.15891023 0
-2.744 0.89899999 -0.17200001 0
-2.5563865 0.89263684 -0.17221411 0
-2.474 0.86500001 -0.17299999 0
-2.0366592 0.87486035 -0.16663148 0
-1.9548829 0.83855027 -0.16652623 0
-1.8397065 0.8430618 -0.16635613 0
-1.7552195 0.84853822 -0.16334023 0
-1.6561627 0.8521058 -0.16544235 0
-1.5576515 0.84086758 -0.16277914 0
-1.4507574 0.83891416 -0.16151349 0
-1.3405584 0.84695375 -0.15936942 0
-1.2470624 0.8518697 -0.15749466 0
-1.1509409 0.85588062 -0.15284437 0
-1.0555567 0.84729052 -0.15845667 0
-0.94866663 0.87199998 -0.16066666 0
1.686 0.80699998 -0.15899999 0
2.4148369 0.80671388 -0.15935591 0
2.5458155 0.83884251 -0.15983306 0
2.6680264 0.87850988 -0.15961136 0
-3.0545838 0.98518693 -0.16734125 0
-2.9769378 0.96364021 -0.16850594 0
-2.8414946 0.94606251 -0.17012082 0
-2.7333694 0.96667665 -0.17174923 0
-2.6416838 0.95082664 -0.16788857 0
-2.5628195 0.9378016 -0.16580936 0
-2.4825001 0.9095 -0.1655 0
-2.2411008 0.96563548 -0.16689458 0
-2.1184359 0.91117036 -0.16673672 0
-1.9696295 0.96343684 -0.16720779 0
-1.8423228 0.93755341 -0.1669165 0
-1.7473612 0.96655113 -0.16555107 0
-1.6600069 0.94267809 -0.16569693 0
-1.5565742 0.95351553 -0.16115028 0
-1.4482758 0.94282377 -0.15171613 0
-1.3529313 0.94025737 -0.15071277 0
-1.2526942 0.93953818 -0.14908816 0
-1.1659213 0.94719398 -0.1587815 0
-1.0539072 0.94463003 -0.15461031 0
-0.95585078 0.96721137 -0.16005142 0
-0.88366669 0.95833331 -0.15933333 0
2.7249999 0.90399998 -0.15800001 0
-3.1264098 1.0309112 -0.16639219 0
-3.0651951 1.0749121 -0.17141491 0
-2.948777 1.0555278 -0.16927265 0
-2.8568676 1.0262396 -0.16751514 0
-2.7398949 1.0184278 -0.16 0
-2.4434087 1.0510036 -0.167 0
-2.323 1.002 -0.167 0
-2.2146137 1.0827669 -0.16858257 0
-2.1329522 1.0429902 -0.16812432 0
-2.051291 1.0032135 -0.16766606 0
-1.8354658 1.0323802 -0.14597458 0
-1.701 1.041 -0.132 0
-1.643965 1.0376632 -0.14312759 0
-1.573837 1.060816 -0.1474282 0
-1.449839 1.0427308 -0.14161326 0
-1.3490125 1.0507367 -0.14835511 0
-1.2428833 1.0353707 -0.15121059 0
-1.1466904 1.0511556 -0.15387543 0
-1.0543957 1.0504285 -0.15983413 0
-0.94708955 1.0579579 -0.16043553 0
-0.85130942 1.0492704 -0.16012111 0
-0.78200001 1.0700001 -0.15700001 0
0.45737174 1.0702356 -0.1026562 0
2.9860001 1.05 -0.16 0
3.0724769 1.0772072 -0.15422876 0
-3.1666055 1.1189237 -0.17597485 0
-2.804635 1.1980143 -0.167 0
-2.7243624 1.1653452 -0.167 0
-2.6440899 1.1326761 -0.167 0
-2.5638175 1.1000071 -0.167 0
-2.289 1.119 -0.169 0
-1.6206582 1.1983516 -0.14034224 0
-1.5365667 1.138749 -0.13714749 0
-1.4587058 1.1448122 -0.14395688 0
-1.3483069 1.1530081 -0.14446843 0
-1.2513014 1.1398529 -0.14367647 0
-1.1564848 1.1489388 -0.15465471 0
-1.046037 1.1490607 -0.15606561 0
-0.94553709 1.1481571 -0.15557343 0
-0.85577697 1.1643839 -0.16029927 0
-0.79000002 1.13 -0.162 0
0.36004218 1.1881477 -0.10792857 0
0.46131033 1.1548985 -0.11006445 0
3.1589537 1.1044145 -0.14845754 0
3.2454305 1.1316216 -0.14268631 0
3.3319073 1.1588289 -0.13691509 0
3.4183841 1.1860361 -0.13114385 0
-2.925 1.247 -0.167 0
-2.8601336 1.259192 -0.15962285 0
-2.7550001 1.251 -0.161 0
-1.7079999 1.257 -0.123 0
-1.6838775 1.2408023 -0.12778966 0
-1.5415 1.2035 -0.148 0
-1.4298238 1.2450477 -0.13792127 0
-1.3580977 1.2432634 -0.13518858 0
-1.2422779 1.2404255 -0.1618574 0
-1.1548038 1.2507888 -0.16239758 0
-1.0553071 1.2495016 -0.15737453 0
-0.95100498 1.2435013 -0.15471666 0
-0.88226205 1.2350104 -0.15035187 0
-0.74389696 1.2528636 -0.15741096 0
0.37721157 1.2648187 -0.11640692 0
0.46144393 1.2414653 -0.11697757 0
0.52668589 1.2281178 -0.1283281 0
3.5480993 1.2268469 -0.12248701 0
3.6778147 1.2676578 -0.11383017 0
3.7642915 1.294865 -0.10805894 0
-3.0764394 1.3978026 -0.12598285 0
-2.9545774 1.360147 -0.15117756 0
-1.5384102 1.3027983 -0.1739063 0
-1.4132004 1.3527892 -0.14841136 0
-1.3482254 1.332505 -0.15153806 0
-1.2533602 1.3494098 -0.15814154 0
-1.1480343 1.3465209 -0.15421477 0
-1.0529006 1.3432431 -0.15098129 0
-0.96379352 1.3459232 -0.15126592 0
-0.80358791 1.3514543 -0.14064384 0
0.34848747 1.3577417 -0.11283574 0
0.44965851 1.337442 -0.13064133 0
0.57867146 1.3465295 -0.14758202 0
3.8507683 1.3220723 -0.10228772 0
-3.237159 1.4712039 -0.10847428 0
-3.1531644 1.4498785 -0.12583682 0
-3.0710199 1.4301691 -0.14596337 0
-1.3456668 1.4266666 -0.14099999 0
-1.2358521 1.4499531 -0.14784494 0
-1.163134 1.4627455 -0.14120135 0
-1.0593113 1.4505653 -0.14607053 0
-0.86327893 1.4500449 -0.12387671 0
0.36131501 1.4409051 -0.11361223 0
0.42507052 1.4272729 -0.14313564 0
0.53857398 1.4435775 -0.14782959 0
-3.3065493 1.5354226 -0.11140843 0
-3.2280395 1.5003381 -0.12292675 0
-1.209 1.5039999 -0.148 0
-1.126 1.534 -0.117 0
-0.90200001 1.5140001 -0.113 0
0.28200001 1.594 -0.153 0
0.37045026 1.5443549 -0.13787267 0
0.42906156 1.5429548 -0.14536476 0
-0.17705242 1.6561006 -0.14530344 0
0.27503198 1.6745458 -0.15608799 0
0.36109686 1.6341418 -0.1421548 0
0.42396232 1.6631006 -0.15138145 0
0.17525101 1.7657609 -0.162085 0
0.25365067 1.7615862 -0.16349149 0
0.35117358 1.7309593 -0.15103136 0
0.46261397 1.7542874 -0.14800355 0
0.22400689 1.8114437 -0.15931956 0
0.33669677 1.8140382 -0.15666668 0
0.45550001 1.8445001 -0.138 0
3.0257859 -3.3413081 -0.086599372 0
2.943953 -3.2472143 -0.099287778 0
3.075866 -3.2468424 -0.080326512 0
3.1204815 -3.2535014 -0.043793336 0
2.9645779 -3.111475 -0.079895876 0
3.0269628 -3.1761594 -0.071507856 0
2.9195743 -3.0399017 -0.067010671 0
2.7959816 -2.9085011 -0.081293337 0
2.8577778 -2.9742014 -0.074152008 0
-2.421 -2.845 -0.082000002 0
-2.3983619 -2.8179231 -0.085107192 0
2.7341852 -2.8428011 -0.088434666 0
-2.4428511 -2.737422 -0.085857622 0
-2.3699999 -2.7839999 -0.089000002 0
2.672389 -2.7771008 -0.095576003 0
-2.402 -2.6949999 -0.089000002 0
2.8550272 -2.6324911 -0.023955397 0
2.9203696 -2.6943214 -0.011940528 0
2.7570136 -2.5397456 -0.041977696 0
2.6589999 -2.447 -0.059999999 0
2.8429558 -2.4135475 -0.095050342 0
2.774456 -2.3570476 -0.082550347 0
-2.602 -1.915 -0.096000001 0
-2.4890001 -1.929 -0.083999999 0
-2.4228492 -1.8760792 -0.0926615 0
0.24914899 -1.6547723 -0.094202995 0
0.65165949 -1.6192324 -0.0956413 0
-0.68594247 -1.5382452 -0.012969361 0
0.11520561 -1.5578232 -0.089791447 0
0.22859597 -1.5340891 -0.076811969 0
0.61779141 -1.5384789 -0.082969569 0
1.3657317 -1.5361762 -0.092251301 0
-0.64758998 -1.4476602 -0.024292482 0
-0.43773052 -1.4609454 -0.089133054 0
0.07 -1.4315 -0.087500006 0
0.1106168 -1.4564693 -0.078874327 0
0.26885831 -1.46401 -0.042394601 0
0.58392334 -1.4577253 -0.07029783 0
0.83842438 -1.4055016 -0.010219663 0
1.2752082 -1.4376785 -0.07246314 0
2.4485002 -1.425 -0.098499998 0
-0.619295 -1.38083 -0.032646243 0
-0.59100002 -1.314 -0.041000001 0
-0.40446103 -1.3478907 -0.071266115 0
0.076721631 -1.3535169 -0.073305137 0
0.14034566 -1.3632234 -0.053876292 0
0.23409596 -1.371089 -0.050311964 0
0.53852761 -1.3494859 -0.053313047 0
0.79271221 -1.3282509 -0.022609832 0
0.8485713 -1.3259073 -0.0086757988 0
1.1545103 -1.3063481 -0.04607892 0
1.2148592 -1.3720133 -0.05927103 0
2.471 -1.301 -0.097000003 0
2.557936 -1.3450228 -0.093331479 0
2.6339507 -1.3273923 -0.070303418 0
2.7616501 -1.3393526 -0.034834053 0
2.8667326 -1.3483647 -0.017856069 0
2.9446881 -1.3854254 -0.0053320825 0
-2.7309999 -1.251 -0.090999998 0
-2.6749308 -1.2261157 -0.096664198 0
-0.3726407 -1.2397605 -0.054177411 0
0.077881515 -1.2539313 -0.059117872 0
0.16098748 -1.2574822 -0.042666785 0
0.56192172 -1.251863 -0.037973896 0
0.75699997 -1.2395 -0.028000001 0
0.83200002 -1.273 -0.017999999 0
1.145 -1.296 -0.044 0
2.4210868 -1.2008768 -0.072061047 0
2.5490336 -1.235585 -0.049631514 0
2.6348598 -1.2520089 -0.028893627 0
2.7108216 -1.2742431 -0.042904053 0
-2.602 -1.1619999 -0.090000004 0
-2.5435143 -1.1405993 -0.090271987 0
0.063085675 -1.1431513 -0.036882441 0
0.122885 -1.1385618 -0.036244862 0
2.2625434 -1.1269385 -0.089030527 0
2.3800056 -1.133317 -0.09063296 0
2.445483 -1.1481491 -0.065411016 0
2.5771904 -1.1068089 -0.073269904 0
2.6471663 -1.1406119 -0.072157741 0
2.7382808 -1.1092377 -0.086058229 0
2.8171873 -1.1401584 -0.096705489 0
-2.6317835 -1.0225421 -0.092481613 0
-2.5607121 -1.0566533 -0.089094132 0
-2.4967363 -1.0297909 -0.097263634 0
0.048 -1.092 -0.032000002 0
2.1832716 -1.0899692 -0.097515263 0
2.4375246 -1.0491396 -0.052562755 0
2.5350263 -1.0472724 -0.055335235 0
2.6593745 -1.0783168 -0.075410977 0
-3.516 -0.954 -0.079000004 0
-3.4583082 -0.93914723 -0.079893917 0
-3.3714962 -0.91679758 -0.081239037 0
-2.724 -0.90899998 -0.086999997 0
-2.5502877 -0.98193276 -0.094111361 0
2.434 -0.99000001 -0.045000002 0
-3.3285 -0.85549998 -0.060500003 0
-3.2624748 -0.85229546 -0.070843354 0
-3.1532047 -0.83481169 -0.083046548 0
-3.0242481 -0.82739878 -0.086619519 0
-2.9374361 -0.80504906 -0.087964639 0
-2.724 -0.88800001 -0.093000002 0
-2.664088 -0.86199611 -0.094056919 0
-3.0694962 -0.78694916 -0.091313511 0
-2.9734781 -0.76461071 -0.095150426 0
-2.8506241 -0.78269935 -0.089309759 0
-2.7638121 -0.76034969 -0.09065488 0
-2.6672218 -0.75334567 -0.090064757 0
-2.5595593 -0.72610551 -0.09724512 0
2.3263161 -0.70066154 -0.015335146 0
2.411088 -0.72588205 -0.0064468645 0
2.8080001 -0.73100001 -0.011 0
2.072 -0.625 -0.041999999 0
2.1737146 -0.6258415 -0.043703176 0
2.2511864 -0.64708614 -0.042685375 0
2.3310001 -0.63599998 -0.068000004 0
2.075 -0.57300001 -0.043000001 0
2.1204858 -0.58419371 -0.047441959 0
-2.1481342 -0.44237578 -0.041411418 0
-2.0471344 -0.42037576 -0.055911418 0
-1.949 -0.39899999 -0.07 0
-1.1648064 0.065257378 -0.029198341 0
-1.095 0.066 -0.024 0
-1.2668697 0.36168256 -0.02594954 0
-1.181 0.33899999 -0.029999999 0
0.75300002 0.498 -0.001 0
0.87199998 0.461 -0.035999998 0
0.94717818 0.4461323 -0.037170444 0
1.0326066 0.47583941 -0.047620755 0
1.1106141 0.49960345 -0.033744548 0
0.72799999 0.55800003 -0.001 0
1.0586969 0.53983819 -0.064594619 0
1.1613439 0.53658247 -0.041716482 0
1.2369821 0.57228553 -0.049612366 0
0.44035935 0.64966857 -0.03033372 0
1.1538206 0.62014574 -0.085069939 0
1.2574157 0.63664329 -0.09490788 0
1.3442457 0.60904133 -0.056697816 0
1.4221228 0.64552069 -0.064348906 0
1.5 0.68199998 -0.071999997 0
0.32600001 0.77100003 -0.054000005 0
0.48635936 0.71716863 -0.043833718 0
0.52100003 0.76800001 -0.054000001 0
0.241 0.89700001 -0.032000005 0
0.33120024 0.83770621 -0.060074177 0
0.25144961 0.9454301 -0.05034874 0
0.36499372 0.94312328 -0.07485126 0
0.42271465 0.9912945 -0.089820251 0
0.26974735 1.0485595 -0.057264812 0
0.34498522 1.0674306 -0.086544834 0
0.28094184 1.148983 -0.069876447 0
0.33430159 1.1561109 -0.089191236 0
0.29096112 1.2433974 -0.082283981 0
0.32503843 1.2592937 -0.086988576 0
0.33973318 1.3482621 -0.085992388 0
3.9300001 1.347 -0.097000003 0
0.35487258 1.4850317 -0.087042451 0
-3.471 1.5779999 -0.082999997 0
-3.3668191 1.5410056 -0.096858613 0
-0.44537193 1.5753731 -0.038048912 0
0.37490442 1.5725238 -0.095781833 0
-3.507 1.625 -0.082000002 0
-3.4635692 1.6055917 -0.088371806 0
-0.4585 1.6110001 -0.043499999 0
-0.2798515 1.6571614 -0.042248923 0
3.3659999 -3.1159999 0.069999993 0
3.2470815 -3.0034733 0.048133809 0
3.3124239 -3.0653036 0.060148675 0
3.1817391 -2.9416428 0.036118943 0
3.0510542 -2.8179822 0.012089204 0
3.1163967 -2.8798125 0.02410407 0
2.9857121 -2.7561517 7.4338168e-05 0
1.243374 -2.0525026 0.093967229 0
1.3430471 -2.0346756 0.093607999 0
1.1584098 -1.9462574 0.076511517 0
1.2435379 -1.9497088 0.080701217 0
1.1323812 -1.8536212 0.064467885 0
1.2320755 -1.8692811 0.069372796 0
1.0441294 -1.7531302 0.04553609 0
1.1393515 -1.7589711 0.053356141 0
0.97556102 -1.6372541 0.02695084 0
1.0485038 -1.6469167 0.037534274 0
0.94469059 -1.5465605 0.01823394 0
1.0320377 -1.5711405 0.025686402 0
0.88413662 -1.4827524 0.0021705031 0
0.94181544 -1.4585047 0.0099294698 0
2.5833437 -1.4328613 0.025931245 0
2.9089999 -1.401 0.032000002 0
3.0090001 -1.416 0.0050000027 0
0.027967416 -1.3178639 0.013055028 0
0.14570618 -1.3189138 0.005235055 0
0.86326617 -1.380559 0.00045360252 0
2.7502799 -1.3227532 0.011961181 0
2.8637064 -1.3786709 0.026281573 0
-0.054000001 -1.209 0.021 0
0.027623221 -1.2424852 0.003073371 0
0.13541237 -1.2458278 0.01347011 0
-2.7536068 -1.140747 0.0068871826 0
-0.053250339 -1.1347835 0.012004061 0
0.12055927 -1.1403708 0.025352582 0
-2.6564274 -1.097988 0.018548729 0
-2.5763206 -1.062741 0.028161546 0
-2.746459 -0.9577148 0.011974405 0
-2.6229177 -0.94792962 0.018448811 0
-2.5542772 -0.95220739 0.018227372 0
-2.4586926 -0.91351849 0.03506843 0
-2.5487533 -0.89128888 0.041846432 0
-2.4388356 -0.87885928 0.048897624 0
-2.3510475 -0.8248629 0.071718462 0
-2.283 -0.80199999 0.082000002 0
2.6654041 -0.80154353 0.020217985 0
2.750176 -0.82676405 0.029106263 0
2.8349741 -0.85199225 0.037997272 0
2.4958601 -0.75110251 0.0024414174 0
2.5806322 -0.77632302 0.011329699 0
2.7284999 -0.71134055 0.00089915469 0
2.3469999 -0.61699998 0.057999998 0
2.4502492 -0.64253235 0.042546198 0
2.5694995 -0.67202157 0.024697468 0
2.6489997 -0.69168103 0.012798309 0
-1.413 -0.14300001 0.017000001 0
-1.3489256 -0.13047972 0.0066891797 0
-1.2045121 0.098942034 0.014966186 0
-1.129006 0.089971013 0.0097330939 0
-1.225108 0.16696621 0.015984235 0
-1.1540439 0.16113105 0.0085114762 0
-1.2338679 0.24532436 0.013554789 0
-1.163 0.23100001 0.003 0
-1.2651324 0.34432527 0.015896372 0
-1.2 0.329 0.0089999996 0
0.64178121 0.4610073 0.013396999 0
0.70831037 0.47205117 0.0042858748 0
0.95653462 0.43998259 0.031362861 0
1.0358019 0.47747388 0.019044291 0
0.6807521 0.52196348 0.0070081213 0
1.1045346 0.50998259 0.0083628614 0
1.3329999 0.56599998 0.012 0
1.4015095 0.59756333 0.015914831 0
1.4700191 0.62912667 0.019829663 0
1.5385287 0.66068995 0.023744494 0
1.6100192 0.69362664 0.027829662 0
0.26699999 0.787 0.003 0
0.41030073 0.7595576 0.023893496 0
0.28822643 0.85446966 0.0098227765 0
0.44615036 0.82602882 0.011196747 0
-4.7082934 1.6808141 0.055641249 0
-4.6929998 1.675 0.056999996 0
-5.0207644 1.7996047 0.027880419 0
-4.942647 1.769907 0.034820627 0
-4.8645291 1.7402093 0.041760836 0
-4.7864113 1.7105118 0.04870104 0
0.017443812 1.7760406 0.014050989 0
-5.177 1.859 0.014 0
-5.0988822 1.8293023 0.020940209 0
0.026000001 1.8049999 0.017999999 0
