# .PCD v0.7 - Point Cloud Data file format
VERSION 0.7
FIELDS x y z intensity
SIZE 4 4 4 4
TYPE F F F F
COUNT 1 1 1 1
WIDTH 1402
HEIGHT 1
VIEWPOINT 0 0 0 1 0 0 0
POINTS 1402
DATA ascii
-1.4084314 -1.6764904 -0.20467818 0
-1.3377002 -1.6426553 -0.20203036 0
-1.2905977 -1.6906004 -0.20266712 0
-2.43713 0.31531301 -0.20934962 0
-2.3540001 0.30700001 -0.21600001 0
-2.2303946 0.39802852 -0.20164184 0
-2.1670001 0.38800001 -0.20200001 0
-2.3440001 0.41600001 -0.20100001 0
-2.2937891 0.40805703 -0.20128368 0
-4.0350943 0.76770759 -0.20222643 0
-3.9340944 0.75220752 -0.21422642 0
-3.835 0.73699999 -0.226 0
-4.1119647 0.88739288 -0.23819678 0
-4.0300002 0.87099999 -0.23999999 0
-4.5258932 0.97017872 -0.22909035 0
-4.4398222 0.95296443 -0.23098391 0
-4.3578582 0.9365716 -0.23278713 0
-4.2758937 0.92017865 -0.23459035 0
-4.1652985 0.9468801 -0.23788998 0
-4.053834 0.97248715 -0.23969321 0
-3.971 0.95499998 -0.23999999 0
-4.5110002 1.069 -0.23800001 0
-4.4680042 1.0599232 -0.23815925 0
-4.3437533 1.0336924 -0.23861943 0
-4.219502 1.0074615 -0.23907962 0
-4.1513419 1.0940727 -0.23709443 0
-4.0695615 1.0743817 -0.23772961 0
-3.9468904 1.0448453 -0.23868239 0
-3.7880001 1.098 -0.235 0
-4.421 1.159 -0.235 0
-4.355794 1.1432998 -0.23550645 0
-4.2331228 1.1137636 -0.23645924 0
-4.1599998 1.196 -0.22400001 0
-4.0565372 1.1687436 -0.22705939 0
-3.9414499 1.138425 -0.23046251 0
-3.8390799 1.1586146 -0.22887231 0
-3.7347174 1.1755084 -0.2275067 0
-3.6559999 1.152 -0.23 0
-3.5753741 1.1980147 -0.21998581 0
-3.4536872 1.1525073 -0.2229929 0
-3.332 1.107 -0.226 0
-3.2420001 1.189 -0.211 0
-4.0737934 1.2767709 -0.21676672 0
-3.9708698 1.2460335 -0.22002676 0
-3.8554502 1.2557774 -0.21824583 0
-3.7376237 1.2586912 -0.21597634 0
-3.6564989 1.228353 -0.21798107 0
-3.4456129 1.2612824 -0.20998193 0
-3.3234451 1.217913 -0.21059278 0
-3.2435188 1.2736845 -0.20946425 0
-3.161 1.242 -0.20900001 0
-3.9389999 1.334 -0.211 0
-3.8559942 1.3553793 -0.21005815 0
-3.7306705 1.3624779 -0.20855665 0
-3.6492252 1.333565 -0.20896387 0
-3.5677803 1.304652 -0.2093711 0
-3.4498162 1.3528957 -0.21062484 0
-3.3260379 1.3053689 -0.20992848 0
-3.2499735 1.3655623 -0.21229863 0
-3.1197834 1.3483196 -0.20921531 0
-3.0322833 1.3468196 -0.20821533 0
-2.951 1.3099999 -0.208 0
-3.8315756 1.4487379 -0.21035697 0
-3.7386324 1.4637914 -0.2122497 0
-3.6561136 1.4321069 -0.21178545 0
-3.5564198 1.4443151 -0.21449167 0
-3.4565961 1.4531662 -0.21612972 0
-3.3656816 1.4561116 -0.21183693 0
-3.2761331 1.4572787 -0.20886128 0
-3.1948497 1.420459 -0.20864595 0
-3.872 1.515 -0.213 0
-3.7458677 1.5758117 -0.22149321 0
-3.6218944 1.5232494 -0.21919458 0
-3.5199828 1.5677378 -0.20950724 0
-3.4386997 1.5309181 -0.20929192 0
-3.9349999 1.656 -0.22499999 0
-3.8698416 1.6283741 -0.22379187 0
-3.7060001 1.652 -0.20999999 0
-3.6419077 1.6229674 -0.20983021 0
-10.622361 2.8980517 -0.27070263 0
-10.547574 2.8873677 -0.27580175 0
-10.472787 2.876684 -0.2809009 0
-10.398 2.8659999 -0.28600001 0
-10.706 2.9100001 -0.26499999 0
-10.697149 2.9087355 -0.26560348 0
0.2947233 -3.7519259 -0.199 0
0.46700001 -3.734 -0.19499999 0
0.55299997 -3.7130001 -0.19400001 0
0.29183495 -3.6676388 -0.199 0
0.45793155 -3.6448102 -0.19490033 0
0.54524422 -3.650954 -0.19386855 0
0.71399999 -3.6459999 -0.189 0
-3.6459999 -3.5020001 -0.126 0
0.28791749 -3.5533192 -0.199 0
0.44882804 -3.5552759 -0.1948003 0
0.53499538 -3.5689633 -0.19369484 0
0.69179541 -3.5149212 -0.18876123 0
0.70595449 -3.5985055 -0.18891348 0
-3.5860357 -3.4410989 -0.11194589 0
0.23173888 -3.4605274 -0.19908704 0
0.43972453 -3.4657412 -0.19470027 0
0.51962209 -3.445977 -0.19343427 0
0.67763633 -3.4313369 -0.18860899 0
3.0718212 -3.401417 -0.11010101 0
3.131799 -3.4688442 -0.10398864 0
0.20316251 -3.3794365 -0.19994584 0
0.43062103 -3.3762069 -0.19460022 0
0.50424886 -3.3229907 -0.19317371 0
0.66347724 -3.3477526 -0.18845674 0
0.92000002 -3.3469999 -0.185 0
1.3200001 -3.302 -0.175 0
3.0118437 -3.3339899 -0.11621339 0
0.45775875 -3.2638361 -0.1937501 0
0.64931816 -3.2641685 -0.18830448 0
0.88362849 -3.2169354 -0.18441805 0
0.93589282 -3.2585845 -0.18388629 0
1.2833799 -3.2079048 -0.17475173 0
1.3592068 -3.2538097 -0.17496467 0
2.9518659 -3.2665627 -0.12232576 0
0.40786225 -3.1523705 -0.19435014 0
0.63515908 -3.1805842 -0.18815224 0
0.86147135 -3.1377015 -0.18406354 0
0.94315457 -3.1422825 -0.18283445 0
1.016 -3.119 -0.18099999 0
1.2510824 -3.1249168 -0.17453276 0
1.3428385 -3.1431432 -0.17459846 0
2.8618994 -3.165422 -0.13149431 0
0.394207 -3.018069 -0.19420008 0
0.62099999 -3.0969999 -0.18799999 0
0.83931422 -3.0584676 -0.18370903 0
0.95578706 -3.0519803 -0.18171304 0
1.066 -3.0309999 -0.18099999 0
1.2187849 -3.0419288 -0.1743138 0
1.3087338 -3.0607505 -0.17427365 0
1.4775901 -3.0592148 -0.17191066 0
1.5421169 -3.0142336 -0.17098439 0
2.7719331 -3.0642815 -0.14066288 0
0.38510349 -2.9285345 -0.19410004 0
0.8548404 -2.9735301 -0.18291104 0
0.96626151 -2.9624157 -0.18049759 0
1.0386045 -2.9560585 -0.18032077 0
1.1325159 -2.9331095 -0.17798658 0
1.274629 -2.9783576 -0.17394885 0
1.4130819 -2.9219713 -0.17153671 0
1.5621672 -2.9379005 -0.17019229 0
1.8653255 -2.9685726 -0.16504154 0
2.6519778 -2.9294271 -0.15288763 0
2.7119553 -2.9968543 -0.14677525 0
0.37599999 -2.839 -0.19400001 0
0.79500002 -2.9000001 -0.183 0
0.86720824 -2.8805978 -0.18228412 0
0.96863812 -2.8611221 -0.17977312 0
1.0687542 -2.8206496 -0.17947845 0
1.1541899 -2.8759525 -0.17387585 0
1.2234718 -2.8547683 -0.17346165 0
1.375213 -2.841404 -0.17131718 0
1.4606262 -2.8512523 -0.17030907 0
1.548286 -2.8571925 -0.16950038 0
1.632969 -2.8553238 -0.16887765 0
1.7561208 -2.8005166 -0.16546646 0
1.8053858 -2.8763311 -0.16527477 0
2.592 -2.862 -0.15899999 0
0.84743696 -2.7341516 -0.18122764 0
0.94152927 -2.781297 -0.17930281 0
1.0635216 -2.7229435 -0.17626494 0
1.1471035 -2.7620716 -0.17331566 0
1.3373442 -2.7608366 -0.17109765 0
1.4208225 -2.7716448 -0.1699792 0
1.5331721 -2.7515306 -0.16869113 0
1.7194278 -2.7248509 -0.16582906 0
0.79126185 -2.6189132 -0.18173377 0
0.85636747 -2.6164532 -0.17938755 0
0.94499999 -2.7 -0.178 0
1.0317198 -2.63908 -0.17596221 0
1.1382097 -2.6487858 -0.17264962 0
1.2994753 -2.6802692 -0.17087813 0
1.3611169 -2.6522336 -0.16948441 0
1.4438215 -2.6605699 -0.16840652 0
1.5164378 -2.646872 -0.16798808 0
1.6776828 -2.6594965 -0.16588308 0
1.775 -2.6559999 -0.16500001 0
0.76594639 -2.5316849 -0.18155034 0
0.82889402 -2.5299625 -0.17911004 0
0.97483617 -2.5664332 -0.17831896 0
1.025 -2.5439999 -0.17299999 0
1.1041049 -2.5663929 -0.17232481 0
1.2426721 -2.5594182 -0.17054883 0
1.3412771 -2.5377092 -0.16836989 0
1.4730315 -2.5692267 -0.16765672 0
1.6379119 -2.5527983 -0.16553089 0
1.7367861 -2.597513 -0.1648206 0
1.851 -2.5090001 -0.163 0
0.74063092 -2.4444566 -0.18136689 0
0.80142051 -2.4434719 -0.17883253 0
0.94353014 -2.4816942 -0.17793247 0
1.0700001 -2.484 -0.17200001 0
1.1858689 -2.4385674 -0.17021953 0
1.2616075 -2.4532149 -0.16865973 0
1.3627881 -2.4389417 -0.16715333 0
1.4296253 -2.4915814 -0.16732538 0
1.54203 -2.4544642 -0.16607696 0
1.6398395 -2.4491346 -0.16436546 0
1.8011909 -2.4403126 -0.16257337 0
0.74463123 -2.3571048 -0.17986923 0
0.88091809 -2.3122168 -0.17715949 0
0.91222411 -2.3969555 -0.17754598 0
1.148 -2.358 -0.17 0
1.258387 -2.3551848 -0.16721416 0
1.3428127 -2.3362906 -0.16666269 0
1.4605302 -2.3456292 -0.16661662 0
1.5482155 -2.3484182 -0.1645021 0
1.749042 -2.3683987 -0.16212671 0
0.69 -2.27 -0.18099999 0
0.74647349 -2.2704906 -0.17827751 0
0.84961206 -2.2274778 -0.17677298 0
1.182 -2.2939999 -0.168 0
1.2567031 -2.2433226 -0.16616566 0
1.4464798 -2.2525182 -0.16526593 0
1.6708188 -2.2605276 -0.16145669 0
1.7528783 -2.2631388 -0.15325798 0
1.804 -2.221 -0.15099999 0
0.71899998 -2.184 -0.178 0
0.81830603 -2.1427388 -0.17638649 0
1.256 -2.181 -0.16599999 0
1.3659234 -2.1690693 -0.16605727 0
1.4459465 -2.1523781 -0.16345516 0
1.5925955 -2.1526563 -0.16078669 0
1.6628597 -2.144237 -0.15422074 0
1.7322106 -2.1382244 -0.15270476 0
1.803 -2.1170001 -0.148 0
-3.415 -2.0699999 -0.148 0
-3.3548877 -2.0357037 -0.15512942 0
0.787 -2.0580001 -0.176 0
1.3598683 -2.0417974 -0.1640569 0
1.4882977 -2.0088282 -0.15989333 0
1.5496812 -2.0438423 -0.15783623 0
1.6296568 -2.0586038 -0.15473548 0
1.7592728 -2.0644331 -0.14870718 0
-3.2379055 -1.968961 -0.16900371 0
-3.1599174 -1.9244659 -0.17825325 0
1.295543 -1.904212 -0.16458978 0
1.364282 -1.9448347 -0.16477451 0
1.4310744 -1.952957 -0.16222334 0
1.5454087 -1.9427724 -0.15641876 0
1.6501819 -1.9332888 -0.15047145 0
1.7047274 -1.9988611 -0.14958932 0
1.8483187 -1.9450325 -0.14587523 0
-3.0429351 -1.8577232 -0.19212756 0
1.2474525 -1.83201 -0.16432481 0
1.368742 -1.852692 -0.16143645 0
1.4462761 -1.8396839 -0.15737258 0
1.5683637 -1.8349304 -0.15179466 0
1.6973039 -1.8103983 -0.14841713 0
1.761381 -1.8373444 -0.14681262 0
1.8591278 -1.8524776 -0.14539507 0
1.906 -1.8559999 -0.145 0
1.199362 -1.7598079 -0.16405985 0
1.2664702 -1.7295264 -0.16282135 0
1.3653027 -1.7587699 -0.15970188 0
1.4488484 -1.7441908 -0.15737262 0
1.6399779 -1.7475487 -0.14931284 0
1.7370589 -1.7318141 -0.14707923 0
1.8485198 -1.759172 -0.14540446 0
1.9394388 -1.7744695 -0.14400384 0
-1.243 -1.627 -0.2 0
1.1441885 -1.6451826 -0.16349317 0
1.2372571 -1.6439717 -0.161 0
1.3621606 -1.6378322 -0.15837616 0
1.4225 -1.6489999 -0.15549999 0
1.5661436 -1.640975 -0.14971812 0
1.6446033 -1.641995 -0.14847377 0
1.7233465 -1.6412814 -0.1469363 0
1.8278239 -1.6596358 -0.14516774 0
1.951916 -1.6517011 -0.14328435 0
2.5558431 -1.6477747 -0.11423685 0
2.6853709 -1.6443789 -0.10716926 0
-1.3068105 -1.5534968 -0.19822605 0
-1.2539999 -1.563 -0.198 0
1.0550904 -1.5432019 -0.16326496 0
1.1494933 -1.5477744 -0.16158994 0
1.2451811 -1.5453185 -0.15917969 0
1.3343456 -1.5639875 -0.15786406 0
1.4455637 -1.5567465 -0.15466666 0
1.5539556 -1.5508193 -0.14960545 0
1.6819927 -1.5587465 -0.14571923 0
1.7650294 -1.5458697 -0.14637525 0
1.8617184 -1.577281 -0.14450483 0
1.942534 -1.5303262 -0.14253417 0
2.007 -1.544 -0.142 0
2.3553033 -1.5367686 -0.13615446 0
2.45 -1.5455 -0.132 0
2.5324571 -1.554793 -0.12305642 0
2.6089139 -1.5995859 -0.11511284 0
-1.256 -1.492 -0.19499999 0
1.0473797 -1.4555432 -0.16209623 0
1.1513408 -1.4544507 -0.15970188 0
1.2437391 -1.4474624 -0.15747897 0
1.3498713 -1.4472022 -0.15542985 0
1.4486667 -1.4703335 -0.152 0
1.5522791 -1.4483739 -0.14920829 0
1.6438392 -1.4614395 -0.14721119 0
1.7615585 -1.4562099 -0.14480719 0
1.8558952 -1.4517164 -0.14362372 0
1.9633539 -1.437968 -0.14037907 0
2.0139999 -1.4400001 -0.13949999 0
2.1820853 -1.4260297 -0.13744713 0
2.2583461 -1.4747834 -0.13687803 0
1.0600568 -1.3584085 -0.16028364 0
1.149738 -1.3566281 -0.1578123 0
1.256346 -1.3381341 -0.15548687 0
1.3184621 -1.3771982 -0.15463164 0
1.4528264 -1.3436763 -0.15056296 0
1.5463972 -1.3390855 -0.14911026 0
1.6633191 -1.3367829 -0.14413892 0
1.7391281 -1.3700311 -0.14454034 0
1.8615154 -1.3614759 -0.14128432 0
1.9572121 -1.3434242 -0.13969061 0
2.030782 -1.3382611 -0.13829267 0
2.1058247 -1.3772759 -0.13801624 0
2.391953 -1.3324277 -0.13600662 0
1.0595 -1.2405 -0.1575 0
1.1491486 -1.2716401 -0.15633334 0
1.2466071 -1.2344611 -0.15413347 0
1.3486443 -1.2687641 -0.15260147 0
1.4512559 -1.2395043 -0.15006936 0
1.5640798 -1.2551959 -0.14478472 0
1.6603355 -1.2581164 -0.14541946 0
1.7624557 -1.2593026 -0.14248621 0
1.850082 -1.2460384 -0.14085962 0
1.9333421 -1.2570864 -0.13960995 0
2.0345979 -1.2492783 -0.13827568 0
2.1539345 -1.2022988 -0.13750926 0
2.2329249 -1.2454844 -0.13701057 0
2.3119156 -1.2886698 -0.13651191 0
1.085 -1.155 -0.156 0
1.1576383 -1.1482453 -0.15465415 0
1.2273221 -1.156882 -0.15330073 0
1.3422375 -1.148059 -0.15104565 0
1.4705693 -1.1386752 -0.14900537 0
1.5482222 -1.161736 -0.14604653 0
1.6572828 -1.1585413 -0.14390028 0
1.7592233 -1.1467227 -0.14177068 0
1.8476396 -1.1602569 -0.14083631 0
1.9744434 -1.1420182 -0.13922136 0
2.0749438 -1.1591132 -0.13800794 0
2.2720745 -1.1305442 -0.13509598 0
2.3604684 -1.1393644 -0.13357854 0
1.1461768 -1.0311513 -0.1532208 0
1.2487072 -1.0696051 -0.15188321 0
1.3418245 -1.0416155 -0.15060966 0
1.4389217 -1.0418363 -0.14788453 0
1.5550137 -1.05354 -0.14459036 0
1.635945 -1.0688614 -0.14355201 0
1.723441 -1.0589528 -0.14366487 0
1.8211305 -1.0544813 -0.14106402 0
1.9169625 -1.0727421 -0.13900529 0
2.0312965 -1.0137151 -0.13768499 0
2.1650009 -1.0575451 -0.13628197 0
2.2735856 -1.0656731 -0.13457307 0
1.124 -0.96499997 -0.153 0
1.2595949 -0.95012593 -0.15115742 0
1.3504405 -0.95814335 -0.14879394 0
1.4709413 -0.95192015 -0.14715984 0
1.5528756 -0.94643396 -0.14681442 0
1.6678176 -0.96694422 -0.14290667 0
1.7589812 -0.98637104 -0.14000265 0
1.870778 -0.93582904 -0.13941099 0
1.9484036 -0.94562858 -0.13954429 0
2.0277238 -0.95378208 -0.13904873 0
2.1096778 -0.99107909 -0.13755684 0
2.216995 -0.91571194 -0.13650317 0
2.3311222 -0.96158797 -0.13453303 0
1.155 -0.85800004 -0.1525 0
1.2234801 -0.86538112 -0.15093131 0
1.3419782 -0.85792542 -0.14927462 0
1.6436359 -0.84119797 -0.14267208 0
1.76088 -0.86557341 -0.14164512 0
1.8638159 -0.87918806 -0.14203247 0
1.967247 -0.81531996 -0.14081448 0
2.0504963 -0.84878397 -0.13937739 0
2.1337457 -0.88224792 -0.13794027 0
2.2322552 -0.80088729 -0.13619779 0
2.3373311 -0.83774912 -0.13436127 0
1.179 -0.75 -0.152 0
1.2441913 -0.79317015 -0.15090984 0
1.536 -0.73000002 -0.148 0
1.617954 -0.76729703 -0.14650813 0
1.7174988 -0.71492797 -0.14512579 0
1.8423729 -0.76512396 -0.14297014 0
1.9790344 -0.71205455 -0.14062361 0
2.0634413 -0.74166548 -0.13914834 0
2.1461101 -0.74252927 -0.13755885 0
2.2575955 -0.72427386 -0.13364011 0
2.3428249 -0.74345452 -0.13337676 0
2.4585562 -0.75977945 -0.12811507 0
2.5609756 -0.79109973 -0.12628615 0
1.551 -0.648 -0.148 0
1.6342494 -0.68146402 -0.1465629 0
1.7258139 -0.62322181 -0.14504945 0
1.849555 -0.64201462 -0.14252943 0
1.9636475 -0.62218159 -0.13920279 0
2.0617163 -0.63846338 -0.13725902 0
2.1563485 -0.6454916 -0.13501498 0
2.2496886 -0.66125333 -0.13539213 0
2.3514371 -0.6608479 -0.13400581 0
2.575141 -0.60533744 -0.1273022 0
1.553 -0.54149997 -0.14750001 0
1.651557 -0.53320545 -0.14413717 0
1.7463659 -0.53304833 -0.1421348 0
1.8486754 -0.55417836 -0.14051631 0
1.930432 -0.55298102 -0.13851939 0
2.0479531 -0.56065017 -0.13681369 0
2.1838088 -0.56025112 -0.13482603 0
2.2542698 -0.54587895 -0.13279426 0
2.3566127 -0.57816994 -0.13164178 0
2.4672534 -0.58000731 -0.12894398 0
1.5554597 -0.45292422 -0.14621764 0
1.6632817 -0.45965773 -0.14193341 0
1.7618315 -0.43568802 -0.13981572 0
1.848163 -0.45637599 -0.13863145 0
1.9347752 -0.45264021 -0.1375692 0
2.0237808 -0.44853005 -0.1361964 0
2.137125 -0.4626368 -0.13487251 0
2.2560282 -0.43667412 -0.13201232 0
2.3501689 -0.46202755 -0.13110697 0
2.4727225 -0.43421215 -0.12859786 0
2.5688555 -0.46086141 -0.12681 0
2.6110001 -0.42699999 -0.127 0
4.0830002 -0.456 -0.107 0
4.1683173 -0.4643895 -0.1040139 0
4.2536345 -0.47277901 -0.10102781 0
1.5548449 -0.35066605 -0.1462238 0
1.6626821 -0.35080728 -0.14114487 0
1.7614522 -0.34917721 -0.13929474 0
1.8529161 -0.34635434 -0.13905163 0
1.9350992 -0.33036855 -0.13760227 0
2.0399551 -0.34205902 -0.1362415 0
2.1430202 -0.36113781 -0.134846 0
2.2558627 -0.34392095 -0.13414685 0
2.3344109 -0.36275387 -0.13272813 0
2.618 -0.30599999 -0.12800001 0
4.0279999 -0.35100001 -0.107 0
4.1543927 -0.36049104 -0.10190724 0
1.492 -0.208 -0.145 0
1.5482541 -0.25607082 -0.14504303 0
1.6537968 -0.25408477 -0.14159185 0
1.7576339 -0.25421533 -0.14000311 0
1.8517148 -0.24100439 -0.13874848 0
1.944581 -0.23347576 -0.13775031 0
2.0483375 -0.25372899 -0.13647942 0
2.1492877 -0.2440834 -0.13520125 0
2.2524462 -0.24618502 -0.13358919 0
2.3629248 -0.23966062 -0.13156103 0
2.4735277 -0.26016462 -0.12990718 0
2.559324 -0.26939234 -0.1287138 0
2.6040001 -0.244 -0.12800001 0
3.9909999 -0.25 -0.107 0
4.0732474 -0.25438422 -0.10296653 0
1.478 -0.134 -0.14399999 0
1.5438876 -0.15217786 -0.14471674 0
1.6391861 -0.15166502 -0.14064172 0
1.7364342 -0.1280461 -0.14114594 0
1.8363218 -0.14469272 -0.13948792 0
1.941783 -0.12592024 -0.13713804 0
2.0532112 -0.13679846 -0.1352282 0
2.1648889 -0.14281946 -0.13425216 0
2.2523868 -0.13066575 -0.1329861 0
2.3694351 -0.13929234 -0.13071188 0
2.4555686 -0.14486097 -0.12965393 0
2.5658507 -0.15196478 -0.12829798 0
3.9460001 -0.152 -0.108 0
4.0298476 -0.15456513 -0.10431263 0
4.1136956 -0.15713026 -0.10062525 0
1.4796667 -0.061999995 -0.14533333 0
1.5547129 -0.053220153 -0.14304335 0
1.6339477 -0.06516929 -0.14172426 0
1.7325875 -0.070240803 -0.14023523 0
1.8211166 -0.073321067 -0.1389803 0
1.9539104 -0.07794147 -0.13709792 0
2.086704 -0.082561865 -0.13521554 0
2.162832 -0.062176198 -0.13341714 0
2.2572632 -0.044886455 -0.13229084 0
2.3537893 -0.002659366 -0.1308725 0
2.4360523 -0.0035458214 -0.13016334 0
2.5446577 -0.0047161384 -0.12922707 0
3.595 -0.017999999 -0.108 0
3.6844859 -0.022256287 -0.10561233 0
3.7739718 -0.026512574 -0.10322466 0
3.8634574 -0.030768864 -0.10083698 0
1.4483334 0.043333333 -0.14399999 0
1.5376819 0.054057401 -0.14243008 0
1.6302993 0.063633449 -0.14065765 0
1.7478607 0.049560137 -0.13909808 0
1.8550619 0.038542956 -0.13798481 0
1.9671531 0.053444281 -0.13603416 0
2.0710893 0.064092502 -0.13389494 0
2.1481574 0.021726234 -0.133292 0
2.2401106 0.033235233 -0.13258097 0
2.3408322 0.051205695 -0.13024288 0
2.4224429 0.051940925 -0.12932384 0
2.5220268 0.05283808 -0.12820241 0
3.777 0.035 -0.106 0
3.8641613 0.036917035 -0.10344395 0
3.9513223 0.038834073 -0.1008879 0
1.4313332 0.147 -0.14433332 0
1.5478504 0.14810027 -0.14134347 0
1.6600219 0.13790394 -0.13933377 0
1.7543844 0.12935184 -0.13956945 0
1.867363 0.14087814 -0.13710167 0
1.9550252 0.14620309 -0.1357477 0
2.0455499 0.15982242 -0.13391498 0
2.1533618 0.1436903 -0.13361716 0
2.2213678 0.15133375 -0.13181992 0
2.3114204 0.15623859 -0.13093705 0
2.4464993 0.16359583 -0.12961274 0
2.5090001 0.167 -0.12899999 0
1.399 0.212 -0.14300001 0
1.4620575 0.25547248 -0.14340314 0
1.5678033 0.25388014 -0.14130393 0
1.6531662 0.23690216 -0.1402674 0
1.7516288 0.24207987 -0.13836038 0
1.8528333 0.25731155 -0.13631439 0
1.9510835 0.2707814 -0.13486497 0
2.0245812 0.28236818 -0.13324647 0
2.1203549 0.27638403 -0.13243066 0
3.598 0.229 -0.108 0
3.6869161 0.23262252 -0.10558499 0
3.7758324 0.23624502 -0.10316999 0
3.8647485 0.23986754 -0.10075498 0
1.393 0.352 -0.146 0
1.4802575 0.37893909 -0.14571014 0
1.5689626 0.35363528 -0.1423596 0
1.6493587 0.31848276 -0.14029384 0
1.7394737 0.32547379 -0.13853477 0
1.839534 0.34519657 -0.13636586 0
1.9365543 0.36309257 -0.13470292 0
2.040766 0.36803406 -0.13280997 0
2.1459873 0.30930966 -0.13169912 0
2.2654619 0.31342903 -0.12959737 0
2.3449492 0.32223868 -0.12879649 0
2.424 0.331 -0.12800001 0
3.79 0.31 -0.11 0
3.8762076 0.31801933 -0.10692593 0
3.9624155 0.32603866 -0.10385185 0
4.0486231 0.33405796 -0.10077778 0
-2.3039999 0.465 -0.199 0
-2.2547433 0.4556711 -0.19750738 0
-2.1524103 0.45396265 -0.19414301 0
-2.0524147 0.45120278 -0.19148695 0
1.4878079 0.46851414 -0.1454953 0
1.5361518 0.44513941 -0.14275305 0
1.6450762 0.42109606 -0.14163652 0
1.7274854 0.44217455 -0.13959971 0
1.8347691 0.47463343 -0.1365521 0
1.942348 0.48120803 -0.13573182 0
2.062 0.40799999 -0.133 0
2.1594548 0.40412554 -0.13028701 0
2.2371824 0.41568828 -0.1294305 0
2.340955 0.43112552 -0.128287 0
3.539 0.47099999 -0.108 0
3.628454 0.48040566 -0.10509825 0
3.7179081 0.48981136 -0.1021965 0
-2.2402439 0.52594179 -0.19546084 0
-2.1626053 0.56267518 -0.19302146 0
-2.0613191 0.55509061 -0.19038098 0
-1.9603333 0.54533333 -0.18800001 0
1.346 0.51899999 -0.147 0
1.4261557 0.55498576 -0.14568006 0
1.5055923 0.5848515 -0.14386785 0
1.9654107 0.51983649 -0.1320183 0
2.0350001 0.50300002 -0.134 0
2.1380019 0.53636098 -0.13149792 0
2.261502 0.57636094 -0.12849793 0
-2.1625168 0.63584048 -0.1921473 0
-2.067034 0.62668097 -0.18996127 0
-1.9715661 0.64961159 -0.18735355 0
-1.878 0.67000002 -0.185 0
-1.4439405 0.66276497 -0.18226783 0
-1.346 0.65549999 -0.18149999 0
1.333117 0.68047619 -0.14812081 0
1.4537567 0.65589571 -0.14587936 0
1.5850289 0.61471736 -0.14205563 0
1.6644657 0.64458311 -0.14024343 0
1.7439022 0.67444897 -0.13843122 0
1.8338689 0.69282889 -0.13716063 0
-2.0534894 0.75165093 -0.18778968 0
-1.9407892 0.76056486 -0.18508719 0
-1.8421659 0.7398923 -0.18307424 0
-1.784 0.78299999 -0.182 0
-1.6777618 0.77605987 -0.18307135 0
-1.5608511 0.71941245 -0.18266958 0
-1.4401344 0.74781436 -0.18140401 0
-1.3630397 0.79255968 -0.18027171 0
-1.2695748 0.76546663 -0.17879556 0
1.285 0.76499999 -0.15099999 0
1.3633751 0.77485687 -0.14847492 0
1.4533594 0.74578071 -0.14637861 0
1.5566235 0.75614762 -0.14308247 0
1.64254 0.74037403 -0.14027621 0
1.7180532 0.77416539 -0.13803495 0
1.8657266 0.73678714 -0.13472342 0
1.9323934 0.72793347 -0.13517357 0
2.0370274 0.77267224 -0.13273521 0
3.5220001 0.71700001 -0.11 0
3.6538041 0.73861253 -0.10590671 0
3.7856078 0.76022512 -0.10181342 0
-2.0102472 0.82351553 -0.18583408 0
-1.9404469 0.87159061 -0.18468797 0
-1.8379021 0.83984089 -0.18302441 0
-1.7466729 0.85427153 -0.18152948 0
-1.6303583 0.8508383 -0.18207738 0
-1.5326939 0.84565383 -0.18131158 0
-1.4406259 0.86365944 -0.17985171 0
-1.3460474 0.85016513 -0.17852688 0
-1.2540307 0.83419657 -0.1775673 0
-1.1719999 0.84249997 -0.177 0
1.2594396 0.85078239 -0.1500047 0
1.3551095 0.86567146 -0.14668187 0
1.4525853 0.83084977 -0.14647558 0
1.5268404 0.84470844 -0.14357674 0
1.6200901 0.83234423 -0.14111669 0
1.7480024 0.85120523 -0.13801639 0
1.854 0.83499998 -0.134 0
2.1430273 0.81867224 -0.1302352 0
-2.0535545 0.96475571 -0.18602155 0
-1.9385765 0.93263036 -0.18366264 0
-1.8660179 0.96081227 -0.18260278 0
-1.76903 0.96449447 -0.1814409 0
-1.6437327 0.96493274 -0.17878617 0
-1.5578154 0.96123981 -0.17992212 0
-1.4325616 0.95488536 -0.17812251 0
-1.3612077 0.90642357 -0.17791501 0
-1.2527882 0.96362144 -0.17689908 0
-1.1489825 0.95902073 -0.17575 0
-1.072 0.986 -0.17399999 0
1.183 0.95900005 -0.15100001 0
1.2869484 0.9514724 -0.14734432 0
1.345307 0.96198481 -0.14767794 0
1.4497312 0.95334309 -0.14469717 0
1.5799091 0.95230681 -0.14165604 0
1.6725957 0.9257974 -0.13878645 0
1.7662309 0.95090467 -0.13584732 0
1.8428191 0.93333381 -0.13617897 0
1.9340645 0.97814238 -0.13566332 0
2.0291591 0.99985874 -0.13326171 0
3.467 0.958 -0.112 0
3.5517323 0.97671229 -0.10910092 0
3.6364646 0.99542457 -0.10620183 0
-2.2503414 1.0608617 -0.18645497 0
-2.1558144 1.0141482 -0.18775898 0
-1.8407075 1.0505358 -0.18240215 0
-1.7384325 1.0590686 -0.18045264 0
-1.6563624 1.0524398 -0.17922878 0
-1.5291536 1.0769827 -0.17633647 0
-1.4509252 1.0457685 -0.17726918 0
-1.3374497 1.0636687 -0.1761215 0
-1.2448606 1.0401657 -0.175 0
-1.1646496 1.0447884 -0.17477162 0
-1.0615001 1.0485001 -0.17449999 0
1.1503533 1.0643234 -0.152 0
1.258826 1.0543311 -0.14916925 0
1.3534532 1.0622864 -0.14661776 0
1.4777279 1.0414392 -0.14371176 0
1.5456533 1.0902479 -0.14203328 0
1.6337498 1.0367525 -0.13951376 0
1.7521458 1.0584803 -0.1370474 0
1.9986415 1.0377097 -0.13485469 0
2.0539875 1.0308548 -0.13309401 0
2.1604238 1.0656465 -0.13108714 0
3.7211969 1.0141368 -0.10330275 0
3.8059292 1.0328491 -0.10040367 0
-2.4511945 1.1605158 -0.18259241 0
-2.3306828 1.1007233 -0.18490994 0
-2.2274275 1.1859453 -0.17947853 0
-2.1500001 1.142 -0.189 0
-1.8494828 1.1558354 -0.18128687 0
-1.7556311 1.1444284 -0.17974073 0
-1.641163 1.1455387 -0.17735444 0
-1.5473522 1.1736345 -0.17604762 0
-1.4595498 1.1435895 -0.17492962 0
-1.3489715 1.1538538 -0.17503378 0
-1.2425594 1.1422284 -0.17443538 0
-1.1512159 1.1373515 -0.17419182 0
-1.0704486 1.1096731 -0.17442513 0
-0.96899998 1.1624999 -0.1725 0
0.78299999 1.148 -0.15700001 0
1.0719999 1.1613334 -0.15266667 0
1.1409531 1.1528729 -0.15143794 0
1.2408252 1.1549779 -0.15019707 0
1.3719151 1.1404641 -0.14473754 0
1.4588275 1.1503448 -0.14414546 0
1.5589023 1.1562517 -0.14176762 0
1.6608772 1.1701366 -0.13842796 0
1.732 1.1345 -0.13800001 0
1.8506327 1.1316285 -0.13751492 0
1.9406328 1.1576285 -0.13551493 0
2.0301533 1.1808677 -0.13375369 0
2.1572831 1.1234193 -0.13170938 0
2.2577255 1.1457837 -0.12965551 0
2.3577962 1.1650574 -0.12789904 0
-2.6520479 1.2601699 -0.17872985 0
-2.5717065 1.2203082 -0.18027487 0
-2.3435686 1.2518631 -0.1651963 0
-2.1724699 1.2943112 -0.18517043 0
-2.061985 1.2600732 -0.18603161 0
-1.9559753 1.2256221 -0.18355267 0
-1.6514689 1.2401897 -0.17659411 0
-1.5392518 1.2446289 -0.17420875 0
-1.4453439 1.2371873 -0.17472294 0
-1.3562582 1.2469311 -0.17379361 0
-1.2445343 1.2589641 -0.17375693 0
-1.1320043 1.2603133 -0.17334668 0
-1.0500745 1.2584877 -0.1718519 0
-0.97378981 1.2569969 -0.17178266 0
-0.87199998 1.2460001 -0.17050001 0
0.65999997 1.2725 -0.15650001 0
0.75773263 1.2306803 -0.15632424 0
0.84779501 1.238636 -0.15507159 0
0.977 1.286 -0.152 0
1.0511811 1.2572092 -0.15156943 0
1.1266522 1.235569 -0.15015304 0
1.2420411 1.2211447 -0.14852895 0
1.3270478 1.2438533 -0.14584015 0
1.4355001 1.2428527 -0.14181592 0
1.565768 1.2455732 -0.13990104 0
1.6532712 1.2544643 -0.14042376 0
1.7682209 1.2602079 -0.13980357 0
1.8371158 1.2452464 -0.13823429 0
2.0397146 1.2506996 -0.13380224 0
2.1428833 1.2481692 -0.13188419 0
2.3555851 1.2305565 -0.12777776 0
2.4556556 1.2498302 -0.12602128 0
2.5551689 1.2644682 -0.12471093 0
-2.852901 1.3598239 -0.17486727 0
-2.7431946 1.3435156 -0.18759242 0
-2.537137 1.3617263 -0.14139262 0
-2.4597096 1.3177811 -0.1509141 0
-2.3234098 1.3869333 -0.18151128 0
-2.2479398 1.3406223 -0.18334086 0
-2.0710001 1.301 -0.186 0
-1.7012802 1.3725667 -0.17553565 0
-1.6364602 1.317175 -0.17465174 0
-1.5417912 1.3384664 -0.17422701 0
-1.4504578 1.3659739 -0.17311049 0
-1.3627276 1.345299 -0.17333253 0
-1.2513833 1.3600414 -0.17185178 0
-1.1317211 1.3537635 -0.17128095 0
-1.0505794 1.3537548 -0.17158511 0
-0.99940294 1.3522877 -0.16964321 0
-0.86283934 1.3652794 -0.16819108 0
-0.764 1.3505 -0.16850001 0
0.55299997 1.3705 -0.156 0
0.66971356 1.3712654 -0.15533246 0
0.74448717 1.3584692 -0.15570605 0
0.83666348 1.3534014 -0.15362111 0
0.95549977 1.353126 -0.15227078 0
1.0370868 1.3295927 -0.15194198 0
1.1300306 1.3540628 -0.14990084 0
1.2249984 1.3730398 -0.14693634 0
1.3620822 1.3382894 -0.14305791 0
1.4497461 1.3584222 -0.14040025 0
1.5553983 1.3577569 -0.13748765 0
1.61 1.307 -0.13699999 0
1.7408402 1.3691603 -0.14002925 0
1.8404419 1.3124158 -0.13860714 0
1.9299471 1.3430582 -0.13693964 0
2.020642 1.3723236 -0.13529146 0
2.1531637 1.3221424 -0.13157463 0
2.2422049 1.3426207 -0.13005212 0
2.3307667 1.3603383 -0.12876838 0
2.5538869 1.3376936 -0.12384611 0
2.6512668 1.3642211 -0.12235717 0
2.723 1.349 -0.122 0
-2.9445286 1.4481704 -0.17580652 0
-2.8465285 1.4376705 -0.18830651 0
-2.7694192 1.4935622 -0.1128282 0
-2.6532781 1.4276443 -0.12711041 0
-2.47435 1.4795556 -0.17785212 0
-2.3988798 1.4332445 -0.1796817 0
-2.0603099 1.4370089 -0.18479668 0
-1.8309205 1.4833502 -0.17730346 0
-1.7661004 1.4279585 -0.17641956 0
-1.4356667 1.4513334 -0.17299999 0
-1.3593938 1.4411168 -0.17271711 0
-1.2409866 1.4479177 -0.17082144 0
-1.1382337 1.4405025 -0.17037129 0
-1.0674701 1.4660021 -0.16841708 0
-0.96140873 1.4394813 -0.16677921 0
-0.84210777 1.4797802 -0.16567504 0
-0.74172658 1.4369421 -0.16687536 0
-0.63600004 1.473 -0.1665 0
0.43650001 1.47 -0.156 0
0.5520981 1.4594851 -0.15472479 0
0.6267736 1.4391024 -0.15422238 0
0.70542711 1.4465309 -0.15466492 0
0.84348714 1.4474694 -0.15320604 0
0.92846799 1.422471 -0.15170303 0
1.0325056 1.4300046 -0.15055297 0
1.1390589 1.4390078 -0.14986072 0
1.2626677 1.4611082 -0.14519389 0
1.3331661 1.4521499 -0.14467084 0
1.4907078 1.4638114 -0.13719562 0
1.8456805 1.4523206 -0.13905852 0
1.9848839 1.4168317 -0.13621427 0
2.0755787 1.4460971 -0.13456607 0
2.1674631 1.4739854 -0.13293718 0
2.3422456 1.4412136 -0.12786195 0
2.4434967 1.4276398 -0.12689888 0
2.5571134 1.4954708 -0.12501471 0
-2.964 1.502 -0.176 0
-2.8468466 1.5375075 -0.10330672 0
-2.6252899 1.5721779 -0.17419298 0
-2.5498199 1.5258667 -0.17602256 0
-2.2468603 1.5620534 -0.18378006 0
-2.1722403 1.5120356 -0.1841867 0
-1.882 1.527 -0.178 0
-1.3429379 1.5277807 -0.17150573 0
-1.2468646 1.5621713 -0.16914046 0
-1.1372397 1.5719476 -0.16662589 0
-1.0415429 1.5544745 -0.16534556 0
-0.95193553 1.5519886 -0.16489772 0
-0.83038485 1.5813699 -0.16271955 0
-0.74205703 1.5493524 -0.16346204 0
-0.65072191 1.5537748 -0.16473037 0
-0.56066662 1.5456667 -0.16599999 0
0.32699999 1.5650001 -0.15650001 0
0.45894021 1.5366857 -0.15443173 0
0.54713905 1.5460907 -0.15338919 0
0.64321035 1.567415 -0.15215479 0
0.75899744 1.5594292 -0.15366361 0
0.84196573 1.5409181 -0.15354943 0
1.0505781 1.5286393 -0.14944716 0
1.1547036 1.5601609 -0.1474022 0
1.2480576 1.5500605 -0.14656423 0
1.3608181 1.5470362 -0.1419387 0
1.4175078 1.5834999 -0.14012897 0
1.5588297 1.532208 -0.13586524 0
1.6226593 1.5964159 -0.1347305 0
1.9505208 1.5354809 -0.13808778 0
2.1293259 1.5212476 -0.13382141 0
2.2212102 1.5491359 -0.13219251 0
2.3142841 1.5756471 -0.1305829 0
2.4718473 1.5228281 -0.12531716 0
-2.7288799 1.6357446 -0.1716817 0
-2.3587904 1.6370802 -0.18317008 0
-1.1701411 1.6358234 -0.1655461 0
-1.0482785 1.645421 -0.1626078 0
-0.73780459 1.6326092 -0.16101086 0
-0.66419739 1.6500568 -0.16223367 0
-0.55379587 1.6444683 -0.16405229 0
-0.46200001 1.6266667 -0.16500001 0
-0.35066667 1.6796666 -0.16133332 0
0.1495 1.6884999 -0.15700001 0
0.25161147 1.6442772 -0.15692009 0
0.35489205 1.6558524 -0.15359963 0
0.44767898 1.6365318 -0.15239811 0
0.53899997 1.632 -0.152 0
0.84676242 1.6431124 -0.15267453 0
0.92649996 1.652 -0.152 0
1.0640783 1.6285331 -0.14843643 0
1.148836 1.6425039 -0.1472023 0
1.2603434 1.6388301 -0.14485611 0
1.3314227 1.6555054 -0.14425531 0
1.4550029 1.6585995 -0.13979495 0
1.5463324 1.6862994 -0.1393417 0
1.686489 1.6606238 -0.13359575 0
2.0553608 1.6186411 -0.13711703 0
2.1252544 1.6740813 -0.13646987 0
2.2737679 1.6256635 -0.13142854 0
2.3645611 1.6641165 -0.1298793 0
2.4130001 1.6440001 -0.12899999 0
-2.5453405 1.7621248 -0.18215345 0
-2.4707205 1.7121069 -0.1825601 0
-1.405 1.799 -0.16599999 0
-1.2511287 1.7665874 -0.16536878 0
-0.72077805 1.7380494 -0.1644436 0
-0.63003099 1.7459795 -0.16271281 0
-0.54231846 1.7360778 -0.16085023 0
-0.44472098 1.7244667 -0.16245824 0
-0.35215926 1.7671875 -0.15809348 0
-0.27047274 1.742182 -0.16034546 0
-0.15899999 1.7869999 -0.15800001 0
0.15414228 1.7724093 -0.15607522 0
0.24947484 1.7458893 -0.15487552 0
0.36877516 1.7463145 -0.15139158 0
0.47775924 1.739399 -0.14979859 0
0.78250003 1.794 -0.14750001 0
0.85866666 1.7339998 -0.152 0
0.94968075 1.7607907 -0.14928646 0
1.0231593 1.7845815 -0.14879899 0
1.1270784 1.7515332 -0.14710309 0
1.236366 1.7507466 -0.14564992 0
1.3587718 1.7443941 -0.14218748 0
1.4536302 1.7790411 -0.14001039 0
1.5490558 1.7625539 -0.13669828 0
1.607237 1.7531993 -0.13781908 0
1.7503186 1.7248317 -0.132461 0
1.8141484 1.7890396 -0.13132624 0
2.1951478 1.7295216 -0.13582271 0
2.2650414 1.7849618 -0.13517554 0
-2.6572709 1.8371516 -0.18154348 0
-1.7475911 1.8954406 -0.17281042 0
-1.6665 1.853 -0.1715 0
-1.4612579 1.8693472 -0.16659531 0
-1.304693 1.8398809 -0.16555317 0
-1.1289999 1.855 -0.163 0
-0.74001247 1.8689108 -0.16219716 0
-0.63621145 1.8590399 -0.16088711 0
-0.525585 1.8626273 -0.15968618 0
-0.44202971 1.8501911 -0.15934405 0
-0.33917487 1.8468425 -0.15687463 0
-0.26263931 1.8469307 -0.15783033 0
-0.16446646 1.8581343 -0.15635078 0
-0.052333329 1.8626666 -0.15633334 0
0.059320986 1.8645488 -0.15457708 0
0.16112135 1.851463 -0.15323174 0
0.27934101 1.8617072 -0.15369473 0
0.33548993 1.8458853 -0.15124843 0
0.41 1.8279999 -0.148 0
0.7985661 1.870577 -0.14825307 0
0.86024809 1.85 -0.1482898 0
0.97232693 1.8608732 -0.14734279 0
1.0642389 1.8608723 -0.14719848 0
1.1270396 1.853214 -0.14300841 0
1.2398578 1.8290124 -0.14495696 0
1.3456575 1.8558077 -0.14184001 0
1.4663213 1.8593426 -0.13887382 0
1.555572 1.8635257 -0.13603473 0
1.6472183 1.8489743 -0.13507013 0
1.7290462 1.8869991 -0.13477385 0
1.8779781 1.8532475 -0.1301915 0
2.2839999 1.8 -0.13500001 0
-2.757 1.904 -0.18099999 0
-1.8091823 1.9608812 -0.17362082 0
-1.7039841 1.9453633 -0.17130692 0
-1.618 1.934 -0.17 0
-1.5472579 1.9598472 -0.16809532 0
-1.4118216 1.9864683 -0.16592194 0
-1.3582573 1.9131746 -0.16573755 0
-1.1763651 1.9318714 -0.16358235 0
-0.81755614 1.9830987 -0.1618872 0
-0.77305549 1.9510537 -0.1616538 0
-0.65453887 1.9540865 -0.15893063 0
-0.55262315 1.9481597 -0.15832897 0
-0.4377661 1.9682695 -0.15731102 0
-0.35341775 1.9429915 -0.15634842 0
-0.2624872 1.9356879 -0.15557651 0
-0.17190073 1.9447956 -0.15405373 0
-0.054495186 1.948773 -0.15407407 0
0.058497898 1.9769833 -0.15200849 0
0.16140233 1.9514365 -0.15300439 0
0.29670712 1.9662032 -0.15219766 0
0.85191703 1.9503268 -0.1464739 0
0.9567048 1.942165 -0.14855789 0
1.0314573 1.9331675 -0.14453159 0
1.1586174 1.9448619 -0.14225745 0
1.2462103 1.9529305 -0.14436775 0
1.3540518 1.959589 -0.14137626 0
1.4568081 1.9379399 -0.13825628 0
1.5567799 1.9517125 -0.13611017 0
1.6342558 1.9539231 -0.13428761 0
1.7419266 1.9508795 -0.13307296 0
1.9418077 1.9174554 -0.12905675 0
2.0056374 1.9816633 -0.127922 0
-2.112 2.095 -0.18099999 0
-1.9323646 2.0917625 -0.17524165 0
-1.844363 2.0552058 -0.17317599 0
-1.7474768 2.0418375 -0.17157868 0
-1.6464318 2.0433757 -0.16961497 0
-1.5429245 2.0483472 -0.16826199 0
-1.4653859 2.059762 -0.16610631 0
-1.2474129 2.0471785 -0.16445589 0
-0.8367728 2.0604684 -0.1615662 0
-0.75092083 2.0707719 -0.15786439 0
-0.67118508 2.0714824 -0.15739001 0
-0.5420019 2.0392704 -0.15663989 0
-0.46207875 2.0454934 -0.15655571 0
-0.34400091 2.0496814 -0.15430827 0
-0.24958436 2.0590987 -0.1525446 0
-0.15965703 2.0308301 -0.15174827 0
-0.034674007 2.0378449 -0.15186067 0
0.061514322 2.0621436 -0.14965138 0
0.15858334 2.0649989 -0.14163707 0
0.20377959 2.0663273 -0.15254988 0
0.31115386 2.0695143 -0.15016727 0
0.58999997 2.01 -0.15099999 0
0.61514151 2.0961556 -0.14864936 0
0.8636983 2.0277309 -0.14675921 0
0.95206696 2.0466251 -0.14629883 0
1.0549498 2.035161 -0.1444788 0
1.1489302 2.0598443 -0.14281923 0
1.2536547 2.0575702 -0.14123276 0
1.3461481 2.0572293 -0.14160214 0
1.4363718 2.0458839 -0.13901751 0
1.5488974 2.0286407 -0.13484335 0
1.6577207 2.0671232 -0.13403541 0
1.8198595 2.0658605 -0.13086654 0
2.0694671 2.0458713 -0.12678725 0
-2.7453554 2.1955903 -0.17458774 0
-2.6789999 2.1389999 -0.18799999 0
-2.1595585 2.1520703 -0.18177122 0
-1.9939556 2.157203 -0.17605205 0
-1.8749369 2.1534529 -0.17222767 0
-1.7688954 2.1606064 -0.17169544 0
-1.6726853 2.1469634 -0.17021234 0
-1.5585327 2.135149 -0.16835658 0
-1.471 2.1459999 -0.167 0
-1.3184607 2.1624856 -0.16532944 0
-0.954 2.178 -0.15899999 0
-0.86553669 2.1511405 -0.16016984 0
-0.73342901 2.1669533 -0.15709357 0
-0.63196981 2.178237 -0.15595025 0
-0.56548464 2.155494 -0.15607224 0
-0.45486489 2.1449399 -0.15421179 0
-0.3411229 2.1381533 -0.15315333 0
-0.25560334 2.1827781 -0.14962263 0
-0.15397428 2.1237116 -0.14944954 0
-0.045266498 2.1461475 -0.14881593 0
0.064530738 2.1473036 -0.14729425 0
0.16605322 2.1545827 -0.13548659 0
0.21255919 2.1556547 -0.15009975 0
0.32330772 2.1590283 -0.14833455 0
0.64028305 2.1823113 -0.14629874 0
0.89626443 2.1063077 -0.14601228 0
0.9528296 2.1588778 -0.14491759 0
1.0312265 2.1432509 -0.14629398 0
1.1454729 2.1694689 -0.14119612 0
1.2519405 2.1506369 -0.13949698 0
1.3308532 2.1395981 -0.13926341 0
1.4753871 2.1715908 -0.13445923 0
1.518 2.1800001 -0.133 0
1.6507308 2.1556406 -0.13134333 0
1.7308371 2.1567385 -0.13160399 0
1.8778396 2.132555 -0.12970461 0
1.913 2.1730001 -0.12899999 0
2.1516485 2.1285396 -0.12532625 0
-2.8117106 2.2521806 -0.16117547 0
-2.6930001 2.293 -0.189 0
-2.230896 2.2376754 -0.18292804 0
-2.1171379 2.288084 -0.17767288 0
-2.0555468 2.2226436 -0.17686246 0
-1.9429299 2.2621222 -0.1730783 0
-1.8260272 2.2284751 -0.17242724 0
-1.7706766 2.2562568 -0.1698696 0
-1.6444956 2.2524133 -0.16945197 0
-1.5444126 2.2286022 -0.16656466 0
-1.4552987 2.2350078 -0.16714771 0
-1.3658259 2.239357 -0.16591179 0
-1.1 2.2249999 -0.16 0
-0.95439065 2.2489872 -0.15953752 0
-0.84884006 2.2368743 -0.1589628 0
-0.73816192 2.2451189 -0.15678439 0
-0.65693843 2.2634041 -0.15535079 0
-0.55560505 2.2582552 -0.15502952 0
-0.45924887 2.2281485 -0.15298675 0
-0.34948134 2.2490005 -0.15181737 0
-0.22858928 2.2540023 -0.14690782 0
-0.14199385 2.2466433 -0.14560452 0
-0.036820199 2.2529283 -0.14614207 0
0.067547165 2.2324638 -0.14493714 0
0.17352308 2.2441669 -0.12933609 0
0.22133878 2.244982 -0.14764965 0
0.33546159 2.2485425 -0.14650182 0
0.66542453 2.2684669 -0.14394811 0
0.96139669 2.2634616 -0.14451842 0
1.0439887 2.2425003 -0.14473887 0
1.12 2.2019999 -0.142 0
1.249 2.204 -0.14 0
1.3328422 2.2273033 -0.13350511 0
1.4140332 2.2745059 -0.11293873 0
1.5030519 2.2636271 -0.12132373 0
-2.9444215 2.3653612 -0.13435096 0
-2.8780661 2.3087709 -0.14776322 0
-2.7597232 2.347718 -0.17535208 0
-2.6325002 2.3860002 -0.19400001 0
-2.2969999 2.3169999 -0.184 0
-2.1787291 2.3535247 -0.17848328 0
-2.0458896 2.3615425 -0.17314841 0
-1.9402909 2.3642125 -0.17389086 0
-1.8567092 2.341547 -0.17161094 0
-1.750384 2.3538783 -0.17293598 0
-1.6570834 2.3482234 -0.16758864 0
-1.558959 2.3367443 -0.16690488 0
-1.4368737 2.3546641 -0.16678533 0
-1.3762678 2.3509433 -0.16599999 0
-1.1604608 2.3401351 -0.16059862 0
-1.0159228 2.3274555 -0.15938224 0
-0.93879563 2.3507135 -0.15971094 0
-0.8580426 2.3291507 -0.15768355 0
-0.74556875 2.3318217 -0.15611613 0
-0.63383859 2.361789 -0.15434837 0
-0.53682673 2.3431029 -0.15266363 0
-0.46604204 2.3212471 -0.15206434 0
-0.36165684 2.3492401 -0.14972435 0
-0.23237932 2.3555064 -0.14470857 0
-0.14932513 2.3760245 -0.14213936 0
-0.028230755 2.3589699 -0.14325337 0
0.062182162 2.3437636 -0.14216243 0
0.16695827 2.3343267 -0.13054654 0
0.21959035 2.3334541 -0.12683162 0
0.34761545 2.3380566 -0.1446691 0
0.69056606 2.3546228 -0.14159748 0
0.98400003 2.3180001 -0.14399999 0
1.0599782 2.3466244 -0.14402288 0
1.1207585 2.3368759 -0.1435058 0
1.4120528 2.3538203 -0.11103066 0
1.5541037 2.3372543 -0.10764745 0
-3.0439546 2.4502468 -0.11423257 0
-2.859808 2.429795 -0.15488023 0
-2.7578702 2.4601526 -0.17295329 0
-2.6713135 2.4587533 -0.18665658 0
-2.2671599 2.4474826 -0.17964685 0
-2.1028738 2.4309058 -0.17345533 0
-2.0529444 2.440057 -0.17578824 0
-1.9411093 2.4449837 -0.17260045 0
-1.8423364 2.4499412 -0.17591509 0
-1.7493392 2.4299443 -0.16910169 0
-1.625389 2.480062 -0.16818169 0
-1.5423566 2.4400089 -0.16777256 0
-1.4430714 2.4557736 -0.16599999 0
-1.2209216 2.4552698 -0.16119725 0
-1.051003 2.4560263 -0.15962452 0
-0.97618216 2.4493194 -0.15906882 0
-0.83755463 2.4484251 -0.15637511 0
-0.75800765 2.4186804 -0.15538397 0
-0.64185733 2.4409714 -0.15378772 0
-0.54266167 2.4515617 -0.15159725 0
-0.45159057 2.4379389 -0.14799668 0
-0.36444661 2.4576061 -0.14773479 0
-0.24869145 2.4572706 -0.14208838 0
-0.1644751 2.4698522 -0.13921951 0
-0.048536856 2.4694462 -0.14029671 0
0.046 2.4419999 -0.14 0
0.13763912 2.4177494 -0.13212904 0
0.22873534 2.4230843 -0.12172855 0
0.35976931 2.4275708 -0.14283638 0
0.7157076 2.4407785 -0.13924685 0
-3.0266156 2.5665901 -0.12076044 0
-2.9598925 2.5118721 -0.13440835 0
-2.8577402 2.5453048 -0.15490657 0
-2.7677839 2.5513833 -0.17114145 0
-2.204 2.5539999 -0.17399999 0
-2.1479306 2.5291791 -0.17590271 0
-2.0460842 2.5490527 -0.17476743 0
-1.9697897 2.5052361 -0.17197663 0
-1.8524818 2.5492554 -0.17216441 0
-1.6739862 2.5500774 -0.16847712 0
-1.5437146 2.5711946 -0.16712061 0
-1.487607 2.5256603 -0.16599999 0
-1.2612289 2.5320265 -0.16159633 0
-1.1124034 2.5603194 -0.15997779 0
-1.0480099 2.5579257 -0.15940452 0
-0.93675536 2.5584559 -0.15712912 0
-0.83942813 2.5576584 -0.15539843 0
-0.74940282 2.5434196 -0.15349711 0
-0.64857358 2.5491006 -0.15262802 0
-0.55429053 2.5613863 -0.15094057 0
-0.44453037 2.5607138 -0.14674342 0
-0.36387372 2.5629544 -0.14513278 0
-0.26322854 2.5197506 -0.14105818 0
-0.127 2.503 -0.14 0
0.19076715 2.545366 -0.13929409 0
0.24767758 2.5129638 -0.14029928 0
0.37192318 2.5170851 -0.14100365 0
0.74084914 2.5269341 -0.13689622 0
-3.0933387 2.6213081 -0.10711253 0
-2.9576104 2.6304574 -0.13685986 0
-2.864254 2.6440132 -0.15562633 0
-1.921 2.6400001 -0.17299999 0
-1.7412918 2.6470466 -0.16888627 0
-1.609826 2.6353569 -0.16891178 0
-1.5766784 2.6654339 -0.16599999 0
-1.3216897 2.6471615 -0.16219495 0
-1.0422398 2.6419976 -0.1580911 0
-0.96714664 2.6837418 -0.15700001 0
-0.85773224 2.6731606 -0.15423127 0
-0.72910625 2.6156969 -0.15251942 0
-0.67416441 2.6377821 -0.15197495 0
-0.54467636 2.6741672 -0.14737818 0
-0.44019264 2.6539741 -0.14600813 0
-0.37006232 2.6314268 -0.14439893 0
0.24077682 2.6578124 -0.13622902 0
0.39015397 2.6513562 -0.13825455 0
0.77856135 2.6561675 -0.13337028 0
-3.1240606 2.772378 -0.10678203 0
-3.0574806 2.7156098 -0.11881316 0
-2.9607244 2.7366431 -0.14011121 0
-1.614 2.724 -0.16599999 0
-1.3821505 2.7622967 -0.16279358 0
-1.1327388 2.732724 -0.15918753 0
-0.9593972 2.7603893 -0.15616682 0
-0.86699998 2.757 -0.153 0
-0.74246711 2.734174 -0.15193832 0
-0.69937575 2.7109306 -0.15237132 0
-0.5894779 2.7539985 -0.1488324 0
-0.44100001 2.72 -0.147 0
0.24061622 2.7749572 -0.13290882 0
0.40838477 2.7856274 -0.13550547 0
0.81627369 2.7854011 -0.12984434 0
-3.1215081 2.8910263 -0.11425266 0
-3.0571947 2.829273 -0.12459608 0
-1.403 2.802 -0.163 0
-1.1782794 2.838985 -0.15903573 0
-1.0355942 2.8686912 -0.15700001 0
-0.9582901 2.8634968 -0.15506266 0
-0.74546969 2.8856633 -0.15121414 0
-0.59899998 2.8499999 -0.15000001 0
0.24649999 2.8429999 -0.131 0
0.42053863 2.8751416 -0.13367274 0
0.83600003 2.8529999 -0.12800001 0
-3.1858215 2.9527795 -0.10390925 0
-0.75400001 2.918 -0.15099999 0
0.42500001 2.908 -0.133 0
3.1603737 -3.5366726 -0.067391343 0
3.2405 -3.5580001 -0.0625 0
3.056689 -3.4374933 -0.028595511 0
3.1424227 -3.4122748 -0.0064669792 0
3.2017114 -3.4801373 -0.018233489 0
-3.5260715 -3.3801978 -0.09789177 0
-3.4661074 -3.3192966 -0.083837658 0
2.9980335 -3.3712399 -0.012893267 0
-3.406143 -3.2583954 -0.069783539 0
-3.3461788 -3.197494 -0.055729426 0
-3.2862146 -3.1365929 -0.041675307 0
-3.2262504 -3.0756917 -0.027621187 0
-3.198 -3.0469999 -0.020999998 0
-3.4360001 -2.023 -0.0060000001 0
3.0462484 -1.9405661 -0.031964924 0
3.1465564 -1.9145684 -0.059253894 0
2.8540914 -1.8258407 -0.064201772 0
2.9785666 -1.8580831 -0.06041678 0
3.0676556 -1.8683437 -0.067451365 0
2.6676862 -1.7145495 -0.095473692 0
2.7422483 -1.759066 -0.082964927 0
2.8382847 -1.7339648 -0.091282099 0
2.9147418 -1.7787578 -0.083338521 0
2.7618279 -1.6891718 -0.099225685 0
4.594902 -0.50633705 -0.089083426 0
4.6816096 -0.51486325 -0.086048663 0
4.3389511 -0.48116851 -0.098041713 0
4.4242682 -0.48955801 -0.095055617 0
4.5095854 -0.49794751 -0.092069522 0
4.280786 -0.36998209 -0.096814483 0
4.3650479 -0.37630945 -0.093419313 0
4.4493098 -0.38263682 -0.090024143 0
4.5537858 -0.39048207 -0.085814491 0
4.1554952 -0.25876841 -0.098933063 0
4.2377429 -0.26315263 -0.094899595 0
4.3199906 -0.26753682 -0.090866119 0
4.431119 -0.27346051 -0.085416332 0
4.1975431 -0.15969539 -0.096937872 0
4.2813907 -0.16226052 -0.093250498 0
4.3652387 -0.16482565 -0.089563116 0
4.459043 -0.1676954 -0.085437872 0
3.9529433 -0.03502515 -0.098449305 0
4.042429 -0.039281439 -0.096061632 0
4.1319151 -0.043537728 -0.093673959 0
4.2214007 -0.047794014 -0.091286287 0
4.3108869 -0.052050304 -0.088898614 0
4.4286861 -0.057653297 -0.085755467 0
4.0384836 0.040751107 -0.098331861 0
4.1256447 0.042668141 -0.095775813 0
4.2563868 0.045543693 -0.091941744 0
4.3871288 0.048419248 -0.088107675 0
4.4590001 0.050000001 -0.086000003 0
3.9536648 0.24349004 -0.098339975 0
4.0425811 0.24711256 -0.095924966 0
4.1314969 0.25073507 -0.093509957 0
4.2204132 0.25435758 -0.091094956 0
4.3537874 0.25979131 -0.087472439 0
4.408 0.26199999 -0.086000003 0
4.134831 0.34207729 -0.097703703 0
4.2210383 0.35009661 -0.09462963 0
4.3503504 0.36212561 -0.090018526 0
4.4349999 0.37 -0.086999997 0
3.8073621 0.49921703 -0.099294744 0
3.8968163 0.50862271 -0.096392989 0
3.9862702 0.51802838 -0.093491241 0
4.0757241 0.52743411 -0.090589486 0
4.1651783 0.53683978 -0.087687731 0
4.2546325 0.54624546 -0.084785983 0
4.3440866 0.55565113 -0.081884228 0
4.4330001 0.565 -0.079000004 0
3.8734772 0.77463353 -0.099084564 0
3.9613464 0.78904188 -0.096355706 0
4.0492158 0.80345023 -0.093626842 0
4.137085 0.81785864 -0.090897985 0
4.2249546 0.83226705 -0.08816912 0
4.319912 0.84783769 -0.085220128 0
3.8906617 1.0515614 -0.097504586 0
3.975394 1.0702736 -0.094605505 0
4.0601263 1.0889859 -0.091706418 0
4.1100001 1.1 -0.090000004 0
-2.8900001 1.562 -0.097999997 0
1.4610497 2.350759 -0.097908095 0
1.4595792 2.4297304 -0.097545989 0
1.5080663 2.427012 -0.082877457 0
1.6306815 2.4476948 -0.08713302 0
-3.2098432 2.5917225 -0.080701925 0
-3.1434877 2.5351322 -0.094114184 0
0.1722376 2.525646 -0.099123091 0
0.22808309 2.5124655 -0.092951655 0
1.5389401 2.5301521 -0.074161604 0
1.6020994 2.5795178 -0.05281619 0
1.7072594 2.5581355 -0.066618599 0
-3.243 2.6199999 -0.074000001 0
-3.1600618 2.6760261 -0.09346462 0
0.17855725 2.6150239 -0.090997823 0
0.24234867 2.6473651 -0.081317589 0
1.6256371 2.656616 -0.047438771 0
1.7583113 2.6317627 -0.052942321 0
-3.221 2.7260001 -0.081 0
0.18793845 2.7477009 -0.078936279 0
0.255 2.767 -0.071000002 0
1.6729085 2.7326975 -0.033181112 0
1.8348891 2.7422032 -0.032427896 0
-3.2279999 2.8610001 -0.088 0
-3.1906407 2.8291464 -0.094750889 0
1.6972111 2.8092816 -0.030122645 0
1.7439432 2.8467345 -0.012181122 0
1.9114668 2.852644 -0.011913471 0
1.7922639 2.961102 -0.0031533092 0
-3.2349999 3 -0.096000001 0
4.0127258 3.581346 -0.010951886 0
4.0758629 3.6411729 -0.022475943 0
4.1389999 3.701 -0.034000002 0
5.0370002 -9.6260004 0.078000002 0
4.9794235 -9.5370178 0.087159969 0
4.9134235 -9.4350176 0.097659968 0
3.0880001 -3.7219999 0.0099999998 0
3.0423431 -3.6605992 0.022370111 0
2.9738576 -3.5684981 0.040925272 0
2.885 -3.4489999 0.064999998 0
2.9053721 -3.476397 0.059480444 0
2.939378 -3.3049865 0.0028089769 0
3.0831342 -3.3444121 0.0052995328 0
2.8807225 -3.2387333 0.018511217 0
2.9645569 -3.2086866 0.028832553 0
3.0238454 -3.2765493 0.017066041 0
2.7634118 -3.1062267 0.049915697 0
2.8220673 -3.1724799 0.034213457 0
2.9052682 -3.1408238 0.040599063 0
2.7457237 -3.0225358 0.064875007 0
2.8459797 -3.0729613 0.052365579 0
3.43873 -3.0023286 0.032047879 0
3.5020001 -3.0580001 0.026000001 0
2.595 -2.9159999 0.094999999 0
2.6461008 -2.9737201 0.081320167 0
2.7274024 -2.9372358 0.075898603 0
3.3754599 -2.9466569 0.038095757 0
2.6395569 -2.8366866 0.093332559 0
3.2489197 -2.835314 0.050191514 0
3.3121898 -2.8909855 0.044143632 0
3.1540143 -2.7518067 0.05926333 0
3.0940001 -2.6989999 0.064999998 0
3.4649999 -2.6229999 0.023 0
3.3554854 -2.5429323 0.032254755 0
3.4960001 -2.5209999 0.022 0
3.172961 -2.4094863 0.047679342 0
3.2459707 -2.4628646 0.041509509 0
3.3493547 -2.4195087 0.036137037 0
3.4226773 -2.4702542 0.029068518 0
-3.9801064 -2.3370566 0.088992454 0
3.0634465 -2.3294187 0.0569341 0
3.2393706 -2.3433902 0.046739817 0
-3.9023769 -2.2921915 0.075422101 0
-3.8246474 -2.2473261 0.061851751 0
-3.746918 -2.202461 0.048281401 0
2.9539318 -2.249351 0.06618885 0
3.0560639 -2.216526 0.064411111 0
3.1293867 -2.2672718 0.057342593 0
-3.6691885 -2.1575956 0.034711048 0
-3.591459 -2.1127305 0.021140702 0
2.8444171 -2.1692834 0.075443611 0
2.94608 -2.1404076 0.075013891 0
4.2389998 -2.1099999 0.02 0
-3.5137296 -2.0678651 0.0075703505 0
2.684 -2.052 0.089000002 0
2.7349026 -2.0892158 0.084698364 0
2.818548 -2.0521445 0.087308332 0
4.0569239 -2.0284948 0.05384133 0
4.1661696 -2.0773978 0.033536531 0
3.8659244 -1.9429948 0.089341328 0
3.9476786 -1.9795917 0.074146137 0
-9.5620003 1.278 0.083999999 0
-9.5285072 1.3202648 0.090379596 0
1.7901657 2.8845298 0.0073063672 0
1.8329999 2.954 0.020999998 0
1.9797593 2.9511356 0.0063813999 0
1.821 3.007 0.0049999952 0
2.9786098 3.1311669 0.075690418 0
3.0249147 3.1935005 0.066785626 0
3.0696099 3.2536671 0.058190417 0
3.6516476 3.2391984 0.054953624 0
3.1366525 3.3439169 0.045297604 0
3.7601771 3.3420379 0.035144351 0
3.8981123 3.3522153 0.09265504 0
3.854883 3.4317784 0.017858259 0
3.9652898 3.4095724 0.077924035 0
4.0324674 3.4669292 0.063193023 0
3.9495885 3.5215189 0.00057217106 0
4.0996451 3.524286 0.048462018 0
