# .PCD v0.7 - Point Cloud Data file format
VERSION 0.7
FIELDS x y z intensity
SIZE 4 4 4 4
TYPE F F F F
COUNT 1 1 1 1
WIDTH 519
HEIGHT 1
VIEWPOINT 0 0 0 1 0 0 0
POINTS 519
DATA ascii
-7.0493598 2.8783798 1.443015 8.666667
-7.0303454 2.6624241 1.8383981 10.6
-6.9584761 2.9298778 1.8676243 10.5
-7.0170221 2.6608007 2.1094031 12
-7.0466909 2.9048522 2.1400108 11.666667
-6.89222 2.9486697 2.5188971 13
-5.2059412 1.8318598 0.011279576 3
-5.4352765 -1.3079245 2.2883255 14.666667
-4.8763075 2.0011225 -0.10062256 3
-4.9863796 -3.3793726 1.4774678 10.5
-5.0848093 -3.1664927 1.4213903 10.333333
-4.9438338 -2.6295331 1.5886686 12
-4.8532219 -3.752269 1.8271917 12
-4.8789153 -3.4826674 1.7276592 11.6
-5.0107036 -2.5471311 1.8371089 12.8
-4.9868293 -1.3648851 1.8293483 13.5
-4.8356962 -3.3053279 2.0832484 13.5
-4.9271483 -2.9864495 2.1556232 13.8
-4.9658499 -2.5466547 2.1627266 14.2
-4.9778123 -2.3890498 2.3535593 15
-4.9309483 -1.3613422 2.1506181 15.5
-4.7809358 -3.2080698 -0.12802133 3
-4.720952 1.6505702 0.054506022 4
-4.4557734 -4.8453622 1.3808961 9.5
-4.4057627 -4.7323265 1.558863 10
-4.504734 -4.3676829 1.559637 11
-4.4470177 -4.5874953 1.7043551 11.5
-4.5984817 -4.2607064 1.8385428 11.75
-4.653543 -3.9621987 1.7433759 11.5
-4.4340029 -4.6091657 2.0517883 13
-4.4979272 -4.1485333 2.1920822 13.571428
-4.6155534 -3.8243256 2.1814678 13.666667
-4.735188 -3.4269342 2.1639624 13.8
-4.6022792 -2.8776181 2.3512444 15.5
-4.7047453 -2.6445351 2.3429942 15.666667
-4.0671988 1.8829039 -0.067277126 3
-4.3309169 -4.8432989 1.7439542 11.5
-4.3676424 -4.7609477 1.8268951 12
-4.2863464 -4.8043208 2.0059552 12
-4.3208385 -4.6626148 2.1636181 13
-4.387042 -4.245368 2.3336313 14
-4.0790935 -3.9194148 2.3791127 15
-4.0896306 -3.9239156 2.5316107 16
-3.9006846 -4.5231996 2.3389959 14
-3.7426667 1.5752796 2.3629091 19
-3.703711 1.6015533 2.3589196 19
-3.8677752 -4.4608216 2.5294807 15
-3.8251867 -4.3474326 2.5269432 16
-3.9193835 -3.8256481 2.5316403 16
-3.3476598 -0.86933076 -0.068361104 3
-3.337851 1.506906 0.26683399 5.5
-3.3469136 1.5019168 0.47508126 7.5
-3.2705703 -2.5705202 0.95711374 10
-3.3093724 -2.1682777 2.5307436 20
-3.2818503 1.4011581 2.5830004 21.75
-2.9766991 -2.0216906 -0.17578249 2
-2.8247423 -1.6949745 -0.070607305 2.5
-2.8827319 -1.5492369 -0.062272441 2.5
-3.1948175 1.1040072 -0.17778623 2
-3.1582825 1.2654827 -0.17980096 2
-2.8213248 -1.724116 0.18970172 5
-2.8833938 -1.5490546 0.1573607 4.5999999
-2.801239 -1.1723037 0.0019500861 3
-2.8386073 -1.7185489 0.55764693 8
-2.8359625 -3.3144093 0.97872221 10
-2.5151501 -2.5587251 -0.05422546 3
-2.4675462 -2.1444075 -0.17651203 2
-2.612504 -1.9321225 -0.096669644 2
-2.6343379 -0.9812268 -0.089552015 2
-2.6817832 -0.69685906 -0.14916562 2
-2.4616511 -2.625792 0.19378263 4.8333335
-2.5993063 -2.3924434 0.049545512 4
-2.7953992 -1.7992482 0.10503119 4
-2.576946 -1.0716995 0.029000118 4
-2.4221735 -0.67700136 0.25392544 6
-2.7540922 -3.3684692 0.76795566 8.5
-2.4290106 -2.6856349 0.46209788 7.3333335
-2.7135739 -3.3815668 1.0040094 10.166667
-2.463161 -5.8584547 1.5924677 11
-2.7552855 -3.3717473 1.2224567 11.5
-2.4663613 -5.8513317 1.8574623 12
-2.4334309 -5.8587313 2.168318 13
-2.0914636 -2.9013052 -0.088965341 2.5
-2.2863879 -2.7736878 -0.18912496 2
-2.2515464 -2.362617 -0.1828129 2
-2.3472366 -0.84395492 -0.13299178 2
-2.0506701 0.97634655 -0.041301489 2.5
-2.1453435 -2.87534 0.19149555 4.8571429
-2.3923287 -2.7632055 0.26115334 5.6666665
-2.2580354 -0.902785 0.23977913 6.1999998
-2.3257124 -0.75521833 0.15568696 5
-2.0255628 0.97993612 0.24687503 6.6666665
-2.1679821 -2.876425 0.54790211 7.8333335
-2.2316277 -0.96044821 0.5519678 10
-2.0523829 0.97786063 0.59709764 11
-2.1230111 -5.7101607 1.1660764 9
-2.0262001 -2.9298491 0.84558189 10.5
-2.0654879 0.97807169 0.85469216 14
-2.1854846 -5.7514553 1.4168144 10.166667
-2.0157285 -3.6248231 1.3584611 13
-2.0644124 -3.5888016 1.4449159 13.333333
-2.0161698 -3.0220945 1.2791358 13
-2.0385811 0.98137879 1.2617029 19
-2.1804852 -5.7614045 1.8561068 12.4
-2.0356851 0.98051584 1.6087044 22
-2.2154329 -5.7638292 2.200155 13.6
-2.3291953 -2.0871437 2.3660219 23
-2.3251987 -0.73874635 2.3600819 26.5
-2.2266035 -1.6870586 2.5349274 25.25
-2.2675791 -1.0080267 2.5490637 27.25
-2.0522056 -0.78442687 2.558434 29
-1.8305888 -3.0050364 -0.11477943 2.5
-1.6470028 -1.6592938 -0.18038006 1
-1.8087779 -1.2795384 -0.17811786 1
-1.8485148 -0.99362403 -0.17674707 1
-1.9269936 -0.63821864 -0.17790081 1
-1.7314497 -0.3171691 -0.031424254 2.5
-1.8417494 1.0249754 -0.049255949 2.4000001
-1.7309738 1.250039 -0.12420708 1
-1.8384598 -2.9866614 0.19110373 4.8823528
-1.7050389 -0.30843967 0.082083151 4.5
-1.8203762 1.0305963 0.18452567 5.9375
-1.8323624 -3.6788352 0.59508789 7.5
-1.801739 -3.4942148 0.62260216 8.1999998
-1.8345699 -2.9881227 0.56053948 8.1000004
-1.7594382 -0.32655329 0.68906808 14.5
-1.8055522 1.0357122 0.58190745 11.529411
-1.8008575 -3.4499333 0.96026993 10.5
-1.8478212 -2.9837036 0.92665577 11.222222
-1.7226282 1.0509665 0.95063621 16.545454
-1.9942266 -5.6916986 1.4476402 10
-1.9314237 -3.0334628 1.2808512 14
-1.7902309 1.0436383 1.3545856 20.90909
-1.6582774 0.76046592 1.8358948 26.666666
-1.6684283 0.99664694 1.7665629 25.6
-1.7500027 -3.7350519 2.3902202 19
-1.9680086 -0.52127516 2.3683801 29
-1.8191166 -3.7015431 2.4759414 19.666666
-1.6731533 -3.5819819 2.544621 20
-1.6388675 -1.6475991 2.549619 28
-1.6828779 -1.4046998 2.5530059 29
-1.791499 -1.0230902 2.5593498 30.125
-1.8658352 -0.77058458 2.5595548 30.666666
-1.4080057 -1.7996684 -0.1819524 1
-1.5304363 -1.3066757 -0.17899157 1
-1.2414682 -0.90847832 -0.17187682 0
-1.4515808 -0.18782669 -0.038978852 2.5
-1.227996 0.36700273 -0.040870968 2
-1.5817959 1.1022735 -0.043971404 2.5
-1.3929271 1.3615013 -0.078295141 2
-1.4048467 -0.16021563 0.10245873 5.375
-1.2260873 0.29877809 0.12038028 6.3333335
-1.5615032 1.1136554 0.1858799 6
-1.4119679 1.3753328 0.18757354 6.1428571
-1.5793467 1.1220133 0.58911502 12
-1.4099177 1.3859301 0.58920801 12
-1.5616852 1.0962603 1.1118882 19.5
-1.3777264 1.4036855 0.96383607 17
-1.5657183 1.0872642 1.2218879 21
-1.3905013 1.3622508 1.4105266 22.200001
-1.5135219 0.71252233 1.831391 28.5
-1.5278388 0.95935673 1.8961419 27.799999
-1.3503201 1.3909709 1.7539289 25.6
-1.5951655 -3.6874678 2.3947225 19
-1.4295833 1.1349596 2.161191 29.5
-1.4812479 1.2384042 2.0947373 28.5
-1.5884525 -3.6544015 2.4017074 20
-1.2322887 -3.2163212 2.5496576 22
-1.3857294 -3.1623135 2.5462923 22
-1.2618711 -2.0647652 2.54563 27.5
-1.3572741 -1.8232586 2.5522385 28.4
-1.5583082 -1.378528 2.5552597 30
-1.0185944 -1.7919048 -0.17701972 0.66666669
-1.0631812 -1.5920041 -0.18014644 0
-1.1701235 0.20948032 -0.032769587 2.6666667
-0.89762896 1.0504713 -0.16605744 0
-0.99385017 1.5013549 -0.091093734 1.7142857
-1.1779581 0.21188028 0.054585923 4.5
-1.0105869 1.5063001 0.18362299 6.3571429
-1.0418415 1.5148332 0.60535991 13
-1.0165963 1.5061321 1.0074908 18.571428
-1.0810695 1.5049058 1.4137672 23
-1.0632299 1.4227413 1.809036 27.363636
-0.85769987 -1.7942783 2.3619306 29.333334
-0.9716996 -3.2772176 2.5507586 22.333334
-1.0766066 -3.1820166 2.5557261 23
-1.0459751 -2.1986887 2.5476115 27.4
-1.1981063 -1.8957052 2.5569472 29
-0.58768666 -1.4121073 -0.057802387 2
-0.61897582 1.5114933 -0.095984429 1.4
-0.45665723 1.6075464 -0.09229289 1.5
-0.50002325 -1.6206719 0.35815665 9.5
-0.51301658 -1.3242962 0.14705284 6.4166665
-0.63945538 1.5510749 0.20674887 7
-0.47467622 1.6173311 0.20922881 7
-0.49161768 -1.6262997 0.51653928 12.166667
-0.43410864 -1.596622 0.53055435 12.75
-0.65833515 1.5532945 0.54479253 12.538462
-0.48636565 1.6223551 0.59525603 13.375
-0.65142095 1.5519929 1.0261058 19.75
-0.45575547 1.6233387 0.90480471 18
-0.74932581 1.504619 1.3766285 24
-0.58435977 -2.043149 2.3605485 28
-0.67260414 -1.8674769 2.3599479 29.6
-0.6104809 -3.3736978 2.5462382 22.25
-0.3881233 -1.211496 -0.06776458 1.5
-0.21474683 -1.1446007 -0.043660313 2
-0.39283976 1.5888189 -0.16566196 0
-0.21752022 1.6798007 -0.096363313 1.5
-0.3973459 -1.6252761 0.35321629 10
-0.26633373 -1.359318 0.23326968 8
-0.19928962 -1.1417269 0.11992014 6.3125
-0.2245498 1.6953402 0.19939002 6.7647057
-0.38254109 -1.6150585 0.50171876 12
-0.18238899 -1.4997085 0.52737939 13.416667
-0.23116963 1.7018386 0.59525126 13.214286
-0.15377885 1.7217119 0.99761188 19
-0.14243476 1.7364247 1.4203299 24
-0.074994631 -3.1626403 2.3508613 22.5
-0.29374731 -2.0945034 2.3769679 28.5
-0.1040429 -2.2734563 2.5216432 28.25
0.26039821 -1.6966468 -0.10018465 1
0.25230828 -1.366693 -0.049589675 2
0.047191713 -1.1109681 -0.027753145 2.5
0.33470988 0.77478802 -0.045629699 1.5
0.25080803 0.89157081 -0.038424466 2
0.37679836 1.5719446 -0.15636458 0
0.17870173 1.7912911 -0.10421246 1.5833334
0.39529678 -1.6609664 0.35081214 9
0.2168763 -1.3702987 0.25259024 8.625
0.064137965 -1.1135098 0.10120457 6
0.33041304 0.77885473 0.17285666 9.0714283
0.2914339 0.85899121 0.12946284 7.4000001
0.16799626 1.8244611 0.20442064 6.625
0.19077718 -1.3679831 0.53414655 14.352942
0.14712815 1.8240441 0.57901472 12.5
0.32181153 -1.4283742 0.85012972 19
0.16447309 1.8235143 0.98025715 18.055555
0.14865771 1.8172176 1.3759817 22.714285
0.15769683 1.8186908 1.7805862 26.571428
0.25983512 -2.9637003 2.3657157 23.333334
0.19130938 -2.8455403 2.5511043 25
0.2099327 -2.799082 2.549612 25
0.17284489 -2.2309835 2.5490072 28.6
0.59908158 -1.2467729 -0.05490116 2
0.54162383 -1.192933 -0.062113225 2
0.53226829 0.5727551 -0.041603293 1.6363636
0.44139186 1.5190452 -0.15633303 0
0.4014478 1.6920152 -0.15838231 1
0.78002036 -2.8323648 0.3405759 6.5
0.43337819 -1.6648011 0.31575346 8.333333
0.58211964 -1.2371224 0.17927392 7.1666665
0.55386895 0.58881396 0.1384557 8.1111107
0.41800272 0.82725555 0.20931099 9.666667
0.75932288 -2.8208463 0.46357876 8
0.54565543 -1.2771112 0.5602051 14.692307
0.51248437 0.79986799 0.77684295 24
0.42730063 1.8564366 0.635791 13
0.47537899 -1.3510374 0.8482272 19.4
0.63330251 0.77790052 0.94204092 26
0.60304093 0.80593175 0.94186324 26
0.40242615 1.8414947 0.96608639 17.5
0.44753668 1.8828121 1.7705085 25.5
0.66984445 -2.7252259 2.3582273 24.333334
0.62666303 -2.5455763 2.5323238 26
0.59966248 -2.1071265 2.5432694 29
0.75145251 -1.9669014 2.5439389 30
1.0039812 -1.2747822 -0.058642015 2
0.84979546 0.44310665 -0.050950918 1.5
0.85632426 -2.8009927 0.38257945 7
0.94559371 -1.269269 0.009859533 3
0.86929995 0.4431563 0.17585213 8.5384617
0.83432049 -2.8079631 0.41557875 7
0.88128221 0.43373898 0.43396986 15.5
0.95766997 -2.6091564 2.3511131 24.5
0.96117675 -2.4406242 2.5284784 26
1.0218364 -2.1764724 2.53966 27.333334
1.0264585 -1.8645687 2.5461891 29.25
1.4269258 -1.3511498 -0.17365929 0.66666669
1.3816931 -1.0385333 -0.17127347 0.33333334
1.3564315 -0.64800376 -0.16521671 0
1.3398154 0.18610083 -0.16307837 0
1.4024543 0.66041005 -0.096513703 1.5
1.2364447 -2.0771112 0.096709199 4
1.5137038 -1.9578934 0.31406403 7
1.5906311 0.69800156 0.12074567 5.5
1.3723469 -1.8599467 0.5591777 10.428572
1.4346555 0.71760231 1.1119845 21.5
1.4954175 0.69321352 1.3113235 23.4
1.3491349 -1.7285581 2.5497653 28.799999
1.4570955 -1.4190297 2.5539491 30.285715
1.5786889 -1.1644355 2.5546222 31
1.9564164 -0.98640442 -0.17134956 1
1.9408445 -0.59413207 -0.16754562 1
1.9679708 -0.30115521 -0.1676807 1
1.8222115 0.23762743 -0.15843064 1
1.7227751 0.59118515 -0.074326672 2
1.6820154 0.80895537 -0.15900642 1
1.6970489 0.66702205 0.094669811 5
1.6517128 0.69304603 1.0574994 19.5
1.6999695 0.83517087 2.3863926 30
1.7124892 -1.3380572 2.5533433 29
1.8210955 -1.0222484 2.5579052 29.777779
1.8594118 -0.57800925 2.4876776 30.428572
1.8965777 -0.25313976 2.4863031 30.666666
1.9580154 0.25945038 2.5773497 30.666666
1.9474865 0.48758474 2.5809693 30.5
2.0523973 -0.60644686 -0.075846724 2.2
2.0280039 -0.091002934 -0.16199729 1
2.1362414 -3.2006092 0.095495194 4
2.3710849 -2.3274472 0.26041791 5.75
2.2301102 -0.97160929 0.30737048 6.8000002
2.1219306 -0.58538377 0.15452728 5.5714288
2.3686893 -2.5887618 0.5486176 8
2.3498955 -2.3019392 0.56604755 8.5
2.2410433 -0.97288525 0.47923696 9
2.2418144 -0.54074299 0.50521123 9.5
2.3633053 -0.2192691 2.3979943 27
2.0612929 0.94889909 2.3840904 27.5
2.3669779 -1.856521 2.5577564 24
2.1295569 -0.99560744 2.5571663 27.799999
2.0273952 -0.57586473 2.4822416 29
2.1388056 -0.17613366 2.5099509 29
2.1921532 0.20812038 2.5750999 29
2.3481815 0.62674737 2.5778084 27.5
2.2750783 0.85087454 2.5705214 27.5
2.6018777 -2.5249572 -0.079866685 2.5
2.6053391 -2.3284807 -0.084828921 2.5
2.540328 -1.8151473 -0.06773454 2.5
2.6010339 -1.4039485 -0.057162318 2.6666667
2.496094 -1.0658816 -0.099859253 2.25
2.7909713 -0.65114194 -0.031300653 3
2.7347221 0.6857518 -0.15896162 2
2.6430387 0.8656143 -0.15946533 2
2.524461 -2.5710952 0.22978999 5
2.5875485 -2.2715995 0.27834821 5.625
2.545038 -1.7679284 0.24217553 5.6363635
2.6421821 -1.4066236 0.046587601 4
2.4501483 -1.0870628 0.10663743 4.5
2.7903321 -0.66859806 0.095613837 4.5
2.4228368 -2.589283 0.53995174 8
2.6145647 -2.1841092 0.50439852 7.5999999
2.5374203 -1.7884163 0.54687393 8.4444447
2.5231481 -0.39563692 0.62897784 10.5
2.5755272 -1.7131863 0.9017843 11.75
2.5142 -0.41869164 0.81147534 12.5
2.6514044 -3.8385813 1.7587459 14
2.6408675 -3.832777 2.1908762 16.5
2.6092985 -1.9108499 2.3939989 22.5
2.5599477 -0.17422272 2.389915 25.6
2.7548673 0.35577571 2.381532 24.5
2.7135868 0.53751445 2.3765345 24.666666
2.6250143 0.83717304 2.3920345 25
2.5612633 -1.860442 2.4814522 23
2.4956093 -0.1163099 2.4721031 26.5
2.5933518 0.21379812 2.5426855 26.200001
2.5689912 0.63132703 2.526123 25.857143
3.0489192 -3.3732922 -0.083525002 3
2.8602135 -2.3650789 -0.12233195 2
2.9874213 -1.2302682 -0.1671312 2
2.8794441 -1.0154253 -0.065544076 2.6666667
2.8664408 -0.54390252 -0.094538011 2.3333333
2.9693375 -0.30137032 -0.17001134 2
2.8728545 0.50738388 -0.16196142 2
2.8002677 -3.7535107 0.11739478 4
2.8637798 -3.2689676 0.23782559 5
3.0104861 -1.4186201 0.004838903 3
2.8753757 -0.98331249 0.09092585 4.5
2.8670166 -0.53488809 0.11896317 4.5
3.0115948 -0.25190261 0.19463646 5.1428571
3.1200137 -3.6681895 0.69741774 7.5
2.9498074 -0.28183311 0.44599056 8
3.1032748 -3.6483948 1.0725325 10
3.0793619 -3.6455913 1.3726712 11.75
3.1937215 -3.58672 1.4154353 12
3.0057218 -3.6988492 1.7730622 14
2.9355156 -3.7322872 2.0765679 15.666667
3.0757074 -3.3913574 2.358072 17.4
3.1894062 -3.1873856 2.3905146 18
2.9596541 -1.7408215 2.3925338 21.5
3.1276875 -0.51584727 2.3649666 23
2.9075103 0.13444372 2.3768556 23.666666
2.9561725 -3.3645003 2.506475 19
2.9964938 -3.1477907 2.5485187 19
2.8995225 -1.6939123 2.4567914 22.333334
2.8677092 -1.5560124 2.5638149 23
2.8359911 -0.94794238 2.5606322 24.333334
2.918031 -0.60478371 2.5642552 24.5
2.8602209 -0.010227832 2.4180131 24.5
2.8399758 0.17858264 2.4280248 24.5
3.4940541 -0.18506554 -0.20099792 2
3.3613851 0.15465631 -0.16897199 2
3.5917993 -0.047258127 0.14751466 4.5
3.5749729 0.057217114 0.21764776 5
3.3617039 -3.5852582 1.0931889 10
3.3832898 -3.5249641 1.3913516 11.6
3.2107091 -3.6087744 1.6644313 13
3.41366 -3.5272958 1.8199204 14
3.3943241 -3.4322948 2.2291369 16.25
3.4059064 -3.1719248 2.3600218 17.5
3.4914451 1.1276368 2.3862255 20.5
3.5670435 1.2245024 2.3875606 20
3.4747212 -3.1009743 2.4847593 18
3.4938257 0.72295755 2.5005548 21.5
3.4357367 0.98816347 2.5064738 21.5
3.6729677 -0.049423371 -0.10415177 2.5
3.6225593 0.078514971 -0.036975283 3
3.9274364 1.3922342 -0.041929964 3
3.6682034 -0.15311264 0.1712058 4.5555553
3.6739547 0.13188483 0.17065391 4.5
3.9167802 1.3957535 0.23394465 5
3.9185376 1.3872572 0.63144487 8
3.8981135 1.4111174 0.94626886 10
3.7169368 -3.4068437 1.451682 11.6
3.7818367 -3.3862889 1.7928208 13.5
3.762409 -3.3977525 2.1916749 15.571428
3.8127272 -3.003619 2.3663962 17
3.9157741 -0.044042151 2.3920166 20
3.8466804 0.19757047 2.3764095 20
3.9905999 0.53557247 2.3860559 19
3.8318245 0.97995007 2.294745 18.857143
3.8154218 1.2552929 2.2558453 18.666666
3.7236116 -2.9767482 2.4825661 17.5
3.9914083 -0.45561153 2.5759773 20
3.7512252 -0.016661597 2.5760183 21
3.756453 0.18215705 2.5765331 21
3.6051619 0.66283065 2.4430554 21
4.2310128 0.38321853 0.34505031 6
4.3665957 -0.090027481 0.67332816 7.75
4.2277713 0.21439108 0.66134453 8
4.3578463 -0.092248239 0.9757486 9.8000002
4.2361665 0.21975483 0.99060178 10.125
4.1012716 -3.2619514 1.5016854 11.5
4.3563094 -0.089607924 1.3865157 12.6
4.2368274 0.21640074 1.4125847 13
4.1492314 -3.2385519 1.7732742 13
4.3573217 -3.1577897 1.9175444 13.5
4.3537097 -0.076244242 1.7668501 15
4.2813411 0.163572 1.804769 15.2
4.0932455 -3.2566657 2.2160192 15.5
4.3289909 -3.0060854 2.2508225 15.5
4.2577276 -2.7679827 2.3666165 16
4.3491473 -0.9138841 2.3725893 18
4.2690988 -0.58982712 2.3860879 18.25
4.2882237 -0.14484777 2.2984099 17.799999
4.221622 0.1471739 2.2561593 18
4.1696496 0.50873011 2.2594316 18
4.260808 -2.6435068 2.5558398 17
4.2588444 -0.92032903 2.556422 19
4.1421175 -0.51472241 2.5419707 19.333334
4.1272964 -0.387447 2.5749853 20
4.7750182 0.93238753 -0.036916602 3
4.5687785 0.53405756 0.20256263 4.5
4.7752285 0.94767594 0.20283394 4.5
4.4144831 -0.18397477 0.52300721 7
4.544498 0.51813 0.56236148 6.8000002
4.7780395 0.91403782 0.64174956 7
4.5387287 -0.48848656 1.0848513 10.5
4.4642448 -0.25846145 1.0260001 10.166667
4.5185728 0.49874607 0.97831005 9.75
4.7610478 0.90335822 0.96308213 9.5
4.5616536 -0.56774455 1.4268601 12.285714
4.4424839 -0.27842358 1.3801231 12.25
4.4063439 -3.1375206 1.976549 14
4.7404094 -0.95040345 1.8353374 14.166667
4.5663624 -0.59716713 1.8299994 14.714286
4.4484782 -0.27570942 1.8026235 14.833333
4.5380788 -1.6069323 2.3648233 17
4.486721 -1.4289224 2.3935175 17.333334
4.648088 -1.0103576 2.253201 16.444445
4.5780468 -0.61605513 2.1882949 16.5
4.4472146 -0.26439363 2.1711245 16.75
4.4519682 -2.3643353 2.5516944 17
4.4607611 -1.5454935 2.5288327 18
5.0334864 0.73800719 -0.068921216 3
4.9192262 0.85423881 -0.019917427 3
5.0189071 0.77383715 0.19958034 4.5
4.8790436 0.85240716 0.25291526 5
4.986939 0.74816889 0.66982865 7
4.8968687 0.85458863 0.5830822 6.6666665
4.9859433 0.74203795 0.94257838 9
4.9000401 0.84791958 0.95591539 9
5.0424695 0.7290296 1.5470787 12
4.9505382 0.84960622 1.4384162 11.666667
5.1354184 -2.0231488 1.8972626 13.5
5.0515938 -1.775183 1.7682307 12.857142
4.8989272 -1.3919519 1.8596928 14
4.8113589 -1.1604961 1.8723927 14.5
4.9573073 0.79817182 1.6530806 13
4.9201808 0.85428822 1.7000825 13
5.1754045 -2.1170845 2.2502472 14.5
5.0557914 -1.7718544 2.1134689 14.5
4.9295454 -1.4438612 2.1593521 15.2
5.5993118 1.4033862 -0.085888036 3
5.5027075 1.6568701 -0.08588586 3
5.2600884 -2.2440438 1.8602271 13
5.423883 1.1218817 1.9557673 13.666667
5.2325263 -2.2230177 2.0900631 14
8.389266 1.8895791 0.37017649 5
8.3828611 1.8259646 0.66817403 5.5
8.3530207 2.0198412 0.66618043 5.5
8.3762465 1.8860933 1.0066761 6.5
8.3490047 2.018856 1.1381803 7
8.361413 1.9724454 1.4671788 8.333333
8.381115 1.9507462 1.7186787 9.5
8.3940401 1.9888339 2.0271797 10
8.5757704 2.2062068 0.3245233 4.6666665
8.5255699 2.577909 0.30369741 4.5
8.4424543 1.7773752 0.70417297 6
8.5916252 2.2843716 0.64619255 5
8.5907793 2.4724801 0.62769687 5.5
8.4171906 1.9266751 0.9471783 7
8.6762476 2.2231486 0.97019243 6.5
8.5496531 2.5745378 1.0605978 6.8000002
8.66364 2.2727196 1.4271935 8
8.5397053 2.5722821 1.4326975 8
8.4238329 1.8255078 1.8811746 10
8.6120853 2.28492 1.8016927 9.333333
8.5294428 2.5602074 1.7836636 9.3999996
