# .PCD v0.7 - Point Cloud Data file format
VERSION 0.7
FIELDS x y z intensity
SIZE 4 4 4 4
TYPE F F F F
COUNT 1 1 1 1
WIDTH 149
HEIGHT 1
VIEWPOINT 0 0 0 1 0 0 0
POINTS 149
DATA ascii
-3.5112388 -1.7746036 1.1594685 12
-3.5348046 -1.6334538 1.3323814 13
-3.4038098 -1.5588489 1.8134133 17
-3.3284156 -2.1040754 1.2984186 13
-3.3850195 -1.9163666 1.6956149 16
-3.3061588 -1.6379105 2.1325073 19
-2.9159281 -2.0952697 1.8089808 17
-2.3362875 -0.6738826 -0.040452886 3
-2.3020473 -0.81176388 0.076626778 4
-2.3153725 -1.0456649 0.28223205 6.5
-2.2225907 -2.0629356 1.4403658 17
-2.085443 -2.3901808 1.0476639 13
-2.1618733 -2.2935982 1.4075521 16
-2.1752298 -2.2755651 1.6205322 18
-2.0603447 -2.358304 1.9106588 20
-2.0533917 -2.3601534 2.029664 21
-2.1163938 -0.89597666 2.1347635 26
-2.117939 -0.57096261 2.1351154 26.5
-2.1058433 -0.86070901 2.3247521 27
-2.0650671 -0.50881344 2.2626162 28
-1.9613417 0.66269481 1.5173025 22
-1.9418492 0.72610831 1.8242983 25
-1.8482076 -0.38663039 2.3726778 30
-1.6175627 0.49667796 0.29853192 9
-1.6355973 1.4297817 0.4193235 9
-1.6400731 1.4252737 1.6333219 23
-1.6326742 -0.1757126 1.8357105 29
-1.7725354 0.69345653 1.8274009 26
-1.6170025 0.99310708 1.8484261 27
-1.7315747 0.87112772 2.0233853 28
-1.7948909 -1.8819637 2.3585079 25
-1.7011095 -0.7318145 2.3889017 31
-1.5833834 -0.21440749 -0.010251592 3
-1.5238415 0.75668198 -0.0074711228 3
-1.5844421 -0.21402289 0.093414418 5.3333335
-1.5856426 -0.19428949 0.16874033 6
-1.5299165 0.75869817 0.12352495 5.5
-1.5825524 -0.21024762 0.24174742 8
-1.479283 0.30152768 0.30065346 9
-1.5491314 0.77965933 0.30750951 9
-1.5764941 0.47905919 0.43055871 11
-1.5818281 1.4205797 1.3393581 20
-1.5123692 1.3380911 1.4824173 22
-1.5755514 1.124519 1.7304235 25
-1.3135273 -0.64568269 -0.051939514 2
-1.3559923 1.5254596 1.6914725 24
-1.316069 1.2968063 2.1775448 29
-1.1316313 0.58575618 0.2807923 10
-1.0216826 0.62566698 0.30385181 11
-1.0223581 0.62933534 0.67235094 18.5
-1.0288531 0.60785943 0.86885059 22
-1.1867608 1.5606711 1.7285687 25
-1.1169405 1.4794883 1.8409628 27
-0.92781329 0.65557086 0.66590518 19
-0.73831588 0.69369757 0.055020656 5
-0.50632983 -1.2677325 -0.011090442 3
-0.43520966 -0.40384367 0.14238133 10
-0.53225297 0.7598502 0.13839859 7.5
-0.5447284 0.75373387 0.24680775 11
-0.54410636 0.74515706 0.46214306 17
-0.53587532 0.76128191 0.65181267 22
-0.5453397 -1.8979049 2.3708608 29.5
-0.20426908 -0.8800475 -0.022672733 2.5
-0.20885791 -0.87922466 0.083023541 6
-0.34772339 -0.50830042 0.15748054 10.5
-0.32348463 0.78523129 0.089488149 6.4000001
-0.21794413 0.81471688 0.098354079 7
-0.20993479 -0.88389343 0.26849315 12
-0.21546392 -0.50800037 0.36154899 21
-0.24404828 0.79965878 0.24833985 12
-0.24506237 0.80464172 0.21533801 11
-0.26209918 0.48931342 0.53388757 26.5
-0.13825008 -0.88921279 0.1009342 6.75
-0.082355857 -0.89880341 0.3433533 14
-0.050421871 0.6393944 0.22551398 13
-0.17676781 0.80793136 0.22938362 11
-0.092049241 -0.90099543 0.48273608 18
-0.1716551 -0.57221758 0.57661885 26.25
-0.063609309 -0.90595871 0.78701353 25
-0.041592825 -0.90701693 0.83300841 26
0.065931097 -0.92305577 0.13031672 7.3333335
0.12311701 -0.72727156 0.073413029 6
0.014469013 0.75050461 0.029524818 4
0.15517011 0.84536636 0.096578158 6.5
0.10534576 -0.91515207 0.2934778 12.25
0.15822026 -0.72338194 0.29525742 14.75
0.045699093 0.50862706 0.36661983 22
0.11891533 0.64828473 0.36262143 18.5
0.083860971 -0.91916269 0.49848101 18.25
0.090975292 -0.73413622 0.51301807 22
0.16861986 0.65089476 0.53164953 23
0.1495254 -0.72770745 0.67600799 25.5
0.18235947 0.61341113 0.66517019 27.5
0.34453288 -0.69008714 0.13248542 8.5
0.29468924 0.76554322 0.14767601 8.5
0.37606478 -0.68208176 0.24698299 12
0.3432672 0.51473677 0.2857852 16
0.32171953 -0.70015103 0.44132009 18.666666
0.36024508 0.44009995 0.52806938 25.5
0.28277963 0.64959532 0.53750986 23
0.25257564 -0.7082172 0.68399441 25.5
0.26771063 0.53985268 0.63024151 27.5
0.30241513 0.61998731 0.63372964 26
0.22715953 -2.0169845 2.3547251 29
0.4829644 0.49161056 -0.007155471 3
0.44546169 -0.67120379 0.087577969 6.5999999
0.52724248 0.46353593 0.072866514 6
0.57201511 1.2949215 0.17862593 7
0.47814277 0.57963771 0.34206396 16
0.45108703 -0.67705119 0.4009766 17
0.54700488 -2.2076044 2.3536644 27
0.49233666 -2.091516 2.5396919 29.5
0.652978 -0.72096997 0.18695742 9
0.73470873 -0.32546267 0.056247775 5.5
0.64628154 0.47454673 0.055692829 5.4000001
0.62886739 -0.665869 0.24816652 11.4
0.68119854 -0.5555461 0.309479 13.5
0.67126662 -0.37096119 0.24199693 12
0.61199516 0.54545802 0.28586498 13
0.67373878 -0.52146751 0.49198321 19
0.74323398 -0.35984728 0.50066239 19.666666
0.63405353 0.53731233 0.58387291 21.5
0.63530749 -0.4402701 0.64799309 24
0.77794421 -0.79211581 1.008942 25
0.60315645 -2.1886861 2.384666 28
0.81641573 0.076023839 0.029990124 4
0.82758445 0.016787127 0.29899541 14
0.92349112 -0.33390811 0.98299479 27
1.1739556 0.54981184 -0.031037793 3
1.1246423 0.61099946 0.083946146 5
1.1036532 0.58798927 0.62394726 17
1.0637765 -1.8568677 2.4957302 29
1.1163108 -1.6806779 2.5377686 30
1.3284781 -1.4612926 2.3638165 29.5
1.5341475 0.23989362 -0.076982044 2
1.5050209 0.46111587 -0.049996249 2.5
1.5018915 0.49724481 0.12650044 5.5
1.5519084 0.32721549 0.25001556 8
1.5622022 0.20532313 0.5620203 13.5
1.5073465 0.50246298 0.51366705 13
1.5542364 0.18876581 0.62302035 15
1.4802756 0.51584297 0.63499701 15
1.6683774 -0.46975589 0.10532257 5
1.641706 -0.056044731 0.74102074 16
1.6372887 -0.11625498 0.82501787 17.5
1.7846497 -1.1934927 2.5448794 29
1.703958 -0.9007715 2.5559292 31
1.9410396 -0.74914151 2.5619578 30
2.0180418 -0.72902286 2.5559626 29
