# .PCD v0.7 - Point Cloud Data file format
VERSION 0.7
FIELDS x y z intensity
SIZE 4 4 4 4
TYPE F F F F
COUNT 1 1 1 1
WIDTH 1363
HEIGHT 1
VIEWPOINT 0 0 0 1 0 0 0
POINTS 1363
DATA ascii
-3.0280001 0.96899998 -0.20100001 0
-3.098 1.104 -0.20100001 0
-2.6800001 1.562 -0.20100001 0
-2.7320001 1.778 -0.204 0
-2.7938776 1.817665 -0.20109123 0
-1.3200001 -3.4070001 -0.184 0
-2.5331163 -3.3643777 -0.19994622 0
-1.5867596 -3.3826771 -0.18496084 0
-1.2970631 -3.3431487 -0.1833026 0
-1.1251054 -3.3531032 -0.18172656 0
-1.0375167 -3.3461123 -0.18060118 0
-0.86747503 -3.3362479 -0.17985314 0
-0.78502572 -3.3328323 -0.1788618 0
-2.4479475 -3.2488921 -0.1990086 0
-1.5294327 -3.2531285 -0.18426807 0
-1.2667228 -3.2586877 -0.18238008 0
-1.0459592 -3.2281942 -0.18009695 0
-0.84616011 -3.2409968 -0.178965 0
-0.76704282 -3.2402205 -0.17760301 0
-2.3676627 -3.1400287 -0.19812474 0
-1.7439448 -3.1456132 -0.1876834 0
-1.4753461 -3.130903 -0.18361445 0
-1.2363825 -3.1742268 -0.18145758 0
-1.0631405 -3.1504707 -0.18030208 0
-0.98045248 -3.1398747 -0.17843026 0
-0.82837009 -3.1614976 -0.17822376 0
-0.75103426 -3.1577764 -0.17648241 0
-0.057999998 -3.118 -0.1675 0
0.13 -3.125 -0.16500001 0
-2.3141394 -3.0674531 -0.19753549 0
-1.6875284 -3.0353231 -0.18657097 0
-1.4392884 -3.0494192 -0.18317871 0
-1.2060421 -3.0897658 -0.18053506 0
-1.1757017 -3.0053048 -0.17961255 0
-1.0381054 -3.068603 -0.17972656 0
-0.95716202 -3.0556998 -0.17754421 0
-0.81058002 -3.0819983 -0.1774825 0
-0.76390785 -3.0389159 -0.17605153 0
-0.30591643 -3.0700359 -0.16999519 0
-0.233 -3.003 -0.17200001 0
-0.16679144 -3.058568 -0.17093918 0
-0.070701197 -3.0510352 -0.16781962 0
0.12577805 -3.0715704 -0.16456325 0
0.824 -3.085 -0.155 0
-2.2338548 -2.9585898 -0.19665161 0
-1.6471672 -2.9564199 -0.18577512 0
-1.4032307 -2.9679353 -0.18274297 0
-1.1453614 -2.9208438 -0.17869005 0
-1.0130702 -2.9867353 -0.17915104 0
-0.96095335 -2.9381962 -0.17761683 0
-0.73234195 -2.9421108 -0.17445393 0
-0.64321905 -2.9789922 -0.17581117 0
-0.50125039 -2.9438491 -0.17102419 0
-0.43429595 -2.965724 -0.16898263 0
-0.26309094 -2.9555125 -0.17024152 0
-0.1626524 -2.9706135 -0.16973196 0
-0.04084928 -2.9510939 -0.166797 0
0.11648628 -2.9539814 -0.16360202 0
0.77806014 -2.9123948 -0.12512964 0
0.8010301 -2.9986973 -0.14006482 0
-2.1535697 -2.8497267 -0.19576775 0
-1.606806 -2.8775165 -0.18497926 0
-1.3491441 -2.8457096 -0.18208936 0
-1.1150211 -2.8363829 -0.17776753 0
-0.93679047 -2.855175 -0.17688605 0
-0.88729054 -2.803175 -0.17488605 0
-0.65502799 -2.8527155 -0.17322105 0
-0.4645741 -2.8499801 -0.1705776 0
-0.26554844 -2.8518209 -0.16919355 0
-0.15675668 -2.8453293 -0.16801238 0
-0.04855983 -2.8461943 -0.16550237 0
0.0029396934 -2.8432364 -0.16656281 0
0.10719451 -2.8363926 -0.16264081 0
0.75509024 -2.8260922 -0.11019447 0
1.0089999 -2.823 -0.149 0
1.3986564 -2.8542027 -0.15177754 0
1.408 -2.872 -0.152 0
-2.1000464 -2.7771511 -0.19517849 0
-2.0465233 -2.7045755 -0.19458926 0
-1.5462642 -2.7591615 -0.1837855 0
-1.2950577 -2.7234838 -0.18143573 0
-1.0846807 -2.7519219 -0.17684501 0
-0.86400002 -2.7190001 -0.17399999 0
-0.60567409 -2.7898767 -0.17326182 0
-0.58829206 -2.702323 -0.17208156 0
-0.44092569 -2.7630172 -0.17020187 0
-0.39948112 -2.7048275 -0.16812299 0
-0.24623317 -2.7444758 -0.16841677 0
-0.15086097 -2.7200453 -0.16629279 0
-0.05639841 -2.7449718 -0.16391198 0
0.0060000001 -2.737 -0.167 0
0.101 -2.7579999 -0.162 0
0.9833256 -2.7485566 -0.14875431 0
1.1535001 -2.7185001 -0.148 0
1.3578243 -2.7764273 -0.15080534 0
-1.993 -2.632 -0.19400001 0
-1.4857224 -2.6408067 -0.18259171 0
-1.2589999 -2.642 -0.18099999 0
-1.0543404 -2.6674609 -0.17592251 0
-0.57091004 -2.6147692 -0.1709013 0
-0.38811082 -2.6196208 -0.16784224 0
-0.23965544 -2.6603172 -0.16761118 0
-0.14693049 -2.6365228 -0.1651464 0
-0.055910341 -2.6617103 -0.16307931 0
0.75971365 -2.6652615 -0.15097487 0
0.9631319 -2.6316445 -0.14944984 0
1.0771142 -2.6192782 -0.14683093 0
1.1383089 -2.6822586 -0.1478956 0
1.2761602 -2.6208768 -0.14886095 0
1.3169923 -2.698652 -0.14983314 0
1.7116627 -2.6653757 -0.14796266 0
-1.4453611 -2.5619032 -0.18179585 0
-1.024 -2.5829999 -0.175 0
-0.55352807 -2.5272152 -0.16972104 0
-0.37674055 -2.5344138 -0.16756149 0
-0.23307772 -2.5761585 -0.1668056 0
-0.171 -2.533 -0.1645 0
-0.085000001 -2.5969999 -0.163 0
0.76097929 -2.557816 -0.14979723 0
0.92622709 -2.5433755 -0.14903979 0
1.0723635 -2.5221848 -0.14749685 0
1.1335582 -2.5851653 -0.14856152 0
1.2476641 -2.5460505 -0.14644438 0
1.6524662 -2.5332446 -0.14665766 0
1.7494142 -2.5922537 -0.145 0
-1.405 -2.483 -0.18099999 0
-0.53614604 -2.4396615 -0.16854079 0
-0.36537027 -2.4492068 -0.16728075 0
-0.25400001 -2.471 -0.167 0
0.69260681 -2.4381309 -0.15023744 0
0.77177286 -2.483784 -0.14937653 0
0.84314793 -2.4491796 -0.14802872 0
0.93745047 -2.4476175 -0.14650001 0
1.0393908 -2.4421477 -0.14729747 0
1.1966788 -2.4430175 -0.14620885 0
1.2622519 -2.4795134 -0.14474586 0
1.307 -2.497 -0.14399999 0
1.408 -2.408 -0.14399999 0
1.5564277 -2.429626 -0.14704771 0
1.6444626 -2.4402061 -0.145 0
-0.51876402 -2.3521078 -0.16736053 0
-0.354 -2.3640001 -0.167 0
0.671 -2.365 -0.15000001 0
0.75135678 -2.3488503 -0.14951432 0
0.86628556 -2.3771932 -0.1487699 0
0.96124715 -2.359113 -0.14459507 0
1.028093 -2.3433609 -0.14559358 0
1.1429285 -2.3470979 -0.14557248 0
1.2318027 -2.3484321 -0.14521778 0
1.3777039 -2.3547945 -0.14432116 0
1.495 -2.3039999 -0.14399999 0
1.5500375 -2.360153 -0.14587758 0
-0.50138199 -2.2645538 -0.16618027 0
0.69644165 -2.232305 -0.15050086 0
0.7588799 -2.2477179 -0.14905462 0
0.83378565 -2.2482235 -0.14786796 0
0.95666516 -2.2631292 -0.14626616 0
1.0387012 -2.2503788 -0.14496128 0
1.150126 -2.2512567 -0.14612293 0
1.2934693 -2.2068629 -0.1452141 0
1.3355865 -2.2808287 -0.14476763 0
1.4557538 -2.2397323 -0.14550236 0
1.5300378 -2.2545376 -0.14377187 0
-0.484 -2.177 -0.16500001 0
0.67133123 -2.1484787 -0.15087566 0
0.75642717 -2.142796 -0.14972185 0
0.87614989 -2.1319597 -0.14623262 0
0.94646585 -2.1547112 -0.1466953 0
1.0708585 -2.1521127 -0.14655034 0
1.1363567 -2.1598587 -0.14676346 0
1.251352 -2.1328971 -0.14566058 0
1.3684185 -2.120996 -0.14573102 0
1.4427508 -2.1590087 -0.14463674 0
1.587955 -2.111022 -0.14322333 0
1.612 -2.1440001 -0.14300001 0
0.6462208 -2.0646524 -0.15125044 0
0.72707033 -2.059222 -0.14991638 0
0.8371799 -2.0471516 -0.14717913 0
0.93003452 -2.0607121 -0.1472946 0
1.0580595 -2.0434763 -0.14746058 0
1.2092346 -2.0589316 -0.14610705 0
1.3508816 -2.0423641 -0.14548279 0
1.4186774 -2.0764725 -0.14454372 0
1.5381291 -2.042685 -0.14368612 0
1.6548758 -2.0635707 -0.14242373 0
0.65001279 -1.9656857 -0.15081932 0
0.75099462 -1.9469618 -0.14863054 0
0.85720426 -1.9430261 -0.14843205 0
1.1460587 -1.9479829 -0.14677677 0
1.2610713 -1.9423647 -0.14552118 0
1.3313522 -1.9652689 -0.14538592 0
1.4633904 -1.9401793 -0.14438027 0
1.5626649 -1.9483738 -0.14322348 0
1.6466643 -1.9912641 -0.14311637 0
1.7293445 -1.9609445 -0.1420875 0
2.6482491 -1.9644105 -0.12184863 0
-1.1011488 -1.8125613 -0.17297803 0
-1.062 -1.844 -0.171 0
0.59600002 -1.897 -0.152 0
0.65486884 -1.8507022 -0.1505 0
0.75253904 -1.8436681 -0.1492504 0
0.81961381 -1.8220848 -0.14951783 0
1.2369312 -1.8518268 -0.14618881 0
1.3886517 -1.8376739 -0.14507444 0
1.4718137 -1.858356 -0.14413559 0
1.5637324 -1.8468659 -0.14345962 0
1.6470597 -1.8553996 -0.14286229 0
1.7458346 -1.8538897 -0.14239462 0
1.8059416 -1.8088775 -0.14102915 0
2.54 -1.885 -0.14399999 0
-1.12923 -1.7617786 -0.17297623 0
-1.0480115 -1.7703034 -0.171278 0
-0.99803317 -1.7301766 -0.17005931 0
0.66949999 -1.7615 -0.15000001 0
0.75059837 -1.7437676 -0.15047339 0
1.1849933 -1.7404182 -0.14787707 0
1.253 -1.7432499 -0.14625001 0
1.3540485 -1.7467277 -0.14545788 0
1.4512767 -1.7565588 -0.14419371 0
1.5630951 -1.7598835 -0.14370129 0
1.6599374 -1.7385577 -0.14378962 0
1.7675183 -1.7298188 -0.14132828 0
1.852 -1.7305 -0.14050001 0
-1.1691003 -1.6199995 -0.17204596 0
-1.053408 -1.670586 -0.1710562 0
-0.95778036 -1.6282896 -0.16950624 0
0.74599999 -1.663 -0.15099999 0
1.0828415 -1.6239377 -0.15017545 0
1.1531862 -1.6483001 -0.14864384 0
1.2487894 -1.6499438 -0.1472823 0
1.3313702 -1.6444035 -0.14461757 0
1.4496711 -1.6333237 -0.14475638 0
1.5373619 -1.6532707 -0.14454916 0
1.6399945 -1.6635442 -0.14360897 0
1.7267506 -1.655035 -0.14181219 0
1.8474077 -1.6335424 -0.14097743 0
-1.224 -1.5245 -0.1725 0
-1.1719095 -1.5321851 -0.17159769 0
-1.0516579 -1.555486 -0.16966504 0
-0.95749998 -1.529 -0.16850001 0
1.0451972 -1.5340673 -0.15215082 0
1.1169138 -1.5587437 -0.15026158 0
1.2471201 -1.5681295 -0.1489782 0
1.3417006 -1.5358245 -0.14616093 0
1.4499514 -1.5603635 -0.14538261 0
1.5422208 -1.5369388 -0.14476457 0
1.6514572 -1.557371 -0.14357337 0
1.7618006 -1.5701649 -0.14255559 0
1.8586297 -1.5439765 -0.14110984 0
1.9247822 -1.5482101 -0.14098525 0
2.375 -1.517 -0.133 0
-1.2407384 -1.4371928 -0.17229848 0
-1.1391554 -1.4520079 -0.17050968 0
-1.0462166 -1.4457947 -0.16878329 0
0.96464026 -1.4506563 -0.1541959 0
1.0419979 -1.4396592 -0.1526684 0
1.144075 -1.4643736 -0.15160815 0
1.2439464 -1.4380995 -0.14918035 0
1.3520437 -1.4655036 -0.14725585 0
1.4545168 -1.4542691 -0.14632082 0
1.5533035 -1.4513843 -0.14545962 0
1.636179 -1.457868 -0.14473449 0
1.7423013 -1.4730114 -0.14299059 0
1.8362772 -1.4513046 -0.14316459 0
1.9504967 -1.4723397 -0.14138018 0
2.0039999 -1.4400001 -0.141 0
2.2423751 -1.4339528 -0.13550574 0
2.3412111 -1.4572859 -0.13303447 0
-2.1289999 -1.349 -0.185 0
-2.0582056 -1.3049427 -0.18407513 0
-1.2443073 -1.3734705 -0.17116591 0
-1.1560596 -1.3362435 -0.16980976 0
-1.0583521 -1.3682462 -0.16836487 0
0.97350001 -1.3575001 -0.155 0
1.0463847 -1.334956 -0.15438332 0
1.1471381 -1.3512436 -0.15231812 0
1.2315395 -1.3485532 -0.15073025 0
1.3475332 -1.3652232 -0.14783353 0
1.414 -1.3660001 -0.147 0
1.5481385 -1.3505213 -0.14629591 0
1.6588149 -1.3824883 -0.14455491 0
1.7483965 -1.3600841 -0.14466633 0
1.857336 -1.3669908 -0.14313489 0
1.9560741 -1.3604765 -0.14184032 0
2.0586407 -1.3628573 -0.13968965 0
2.1663284 -1.3863337 -0.13694252 0
2.2506077 -1.366524 -0.13385022 0
-1.9425248 -1.2329514 -0.18256387 0
-1.1248845 -1.2380784 -0.16769432 0
-1.0780001 -1.2745 -0.168 0
1.0555668 -1.2604748 -0.15472031 0
1.1448704 -1.2418143 -0.15291776 0
1.274938 -1.2339791 -0.15008049 0
1.3484497 -1.2514426 -0.14979789 0
1.4384943 -1.2572852 -0.14900681 0
1.5528026 -1.2584147 -0.14742583 0
1.6556244 -1.2700343 -0.1459484 0
1.7646805 -1.2347318 -0.14468876 0
1.8337173 -1.2838025 -0.14368692 0
1.9572331 -1.2245879 -0.13978966 0
2.0344465 -1.2713724 -0.1384318 0
2.133038 -1.2975992 -0.13576861 0
-1.826844 -1.16096 -0.1810526 0
-1.7497234 -1.1129656 -0.18004508 0
1.0680001 -1.169 -0.155 0
1.1569793 -1.1219931 -0.1526935 0
1.2304749 -1.1412213 -0.15189895 0
1.3458909 -1.1397834 -0.1519222 0
1.4665813 -1.1615342 -0.15067835 0
1.5579607 -1.1811553 -0.1470108 0
1.6448935 -1.1575772 -0.14672959 0
1.7353202 -1.1402093 -0.14475562 0
1.8598528 -1.1564687 -0.14105977 0
2.3494797 -1.1398704 -0.13794434 0
2.457 -1.191 -0.13699999 0
-1.6726029 -1.0649713 -0.17903757 0
-1.5954822 -1.0169771 -0.17803006 0
1.098 -1.066 -0.154 0
1.1859956 -1.0502282 -0.15320545 0
1.2638975 -1.017441 -0.15261403 0
1.3258463 -1.0691615 -0.15242104 0
1.46724 -1.0415999 -0.14738064 0
1.5666068 -1.0745903 -0.1461924 0
1.6483798 -1.0374498 -0.14522108 0
1.7411394 -1.0678498 -0.14216323 0
2.0655763 -1.0048649 -0.14043784 0
2.1466916 -1.043438 -0.13972542 0
2.2278068 -1.082011 -0.13901298 0
-1.5183617 -0.96898282 -0.17702253 0
-1.4412411 -0.92098856 -0.17601502 0
1.1335 -0.95499998 -0.15349999 0
1.2471544 -0.95081007 -0.15168896 0
1.35754 -0.98184961 -0.1493564 0
1.4403245 -0.9389751 -0.14790969 0
1.5301266 -0.96098328 -0.14590703 0
1.9439034 -0.94700551 -0.14150649 0
-1.9531038 -0.82097125 -0.1779564 0
-1.3641205 -0.87299424 -0.17500751 0
-1.2869999 -0.82499999 -0.17399999 0
1.1619999 -0.84399998 -0.153 0
1.2331306 -0.8503468 -0.15138143 0
1.3397028 -0.87485945 -0.14944355 0
1.66 -0.81199998 -0.14399999 0
1.7411152 -0.850573 -0.14328757 0
1.8222305 -0.88914597 -0.14257513 0
2.3877892 -0.82956207 -0.13305381 0
-2.2390001 -0.76700002 -0.183 0
-2.1574912 -0.73936987 -0.18265462 0
-1.9844477 -0.72665012 -0.17804518 0
-1.8457494 -0.77695072 -0.17778242 0
-1.7652912 -0.74395895 -0.17765202 0
-1.6848329 -0.71096718 -0.17752162 0
1.1720001 -0.76800001 -0.152 0
1.9960076 -0.71309596 -0.14008543 0
2.0604446 -0.72672659 -0.13819878 0
2.1412683 -0.73892903 -0.13745844 0
2.2447414 -0.76161987 -0.13458641 0
2.338161 -0.75253356 -0.13246793 0
-2.0170965 -0.66194791 -0.18006185 0
-1.9620152 -0.64366752 -0.17990692 0
-1.8593212 -0.66724521 -0.17975737 0
-1.7582682 -0.62455976 -0.18041389 0
-1.6291649 -0.64305204 -0.17885783 0
-1.5239165 -0.64498359 -0.1772608 0
-1.4434583 -0.61199176 -0.1771304 0
1.7678885 -0.62569261 -0.1421375 0
1.8549908 -0.63132679 -0.14101444 0
1.9389884 -0.65928358 -0.13983056 0
2.0504217 -0.6563732 -0.13817993 0
2.1435208 -0.66294575 -0.13549998 0
2.235105 -0.63359833 -0.13398913 0
2.3403404 -0.66311783 -0.13230637 0
-2.0144868 -0.56233895 -0.17900001 0
-1.9462596 -0.52710474 -0.1790666 0
-1.8519787 -0.56508183 -0.17849928 0
-1.750078 -0.52707708 -0.17872688 0
-1.65268 -0.55185246 -0.17988408 0
-1.551985 -0.55304289 -0.18044148 0
-1.4514925 -0.53552151 -0.18172073 0
-1.363 -0.579 -0.177 0
1.5416505 -0.53531915 -0.14593883 0
1.6520488 -0.5498845 -0.14359172 0
1.7360588 -0.56437212 -0.14218226 0
1.8642943 -0.53319752 -0.14070356 0
1.9687262 -0.55588967 -0.13913989 0
2.0488729 -0.56354654 -0.13807327 0
2.1439841 -0.56658447 -0.13628261 0
2.2787137 -0.55977553 -0.1339874 0
2.352 -0.57700002 -0.133 0
-2.0235 -0.45499998 -0.17900001 0
-1.9586684 -0.44061285 -0.18057801 0
-1.8538369 -0.46256781 -0.18004391 0
-1.7519507 -0.42992225 -0.18137945 0
-1.6547738 -0.46441051 -0.17919487 0
-1.55723 -0.45018497 -0.17914999 0
-1.4804814 -0.46553645 -0.17886345 0
-1.398 -0.44 -0.17900001 0
1.5410819 -0.45816636 -0.1462024 0
1.6459293 -0.44637662 -0.1437964 0
1.7435153 -0.4703775 -0.1435702 0
1.8284688 -0.47465235 -0.14028701 0
1.9388772 -0.47990379 -0.13856603 0
2.0268068 -0.45059973 -0.13705251 0
2.1149719 -0.41740969 -0.13535458 0
2.2427635 -0.44153261 -0.13336095 0
2.3299999 -0.458 -0.132 0
-1.8767829 -0.39983192 -0.18406482 0
-1.7598914 -0.37541598 -0.18803242 0
-1.637271 -0.36868608 -0.18795604 0
-1.548771 -0.36668611 -0.18495604 0
-1.4571213 -0.37024701 -0.18195385 0
1.5505109 -0.35422978 -0.14741541 0
1.6712087 -0.35109019 -0.14266464 0
1.7741944 -0.35308194 -0.14067093 0
1.8593887 -0.36916387 -0.13934183 0
1.9387773 -0.34300613 -0.13940433 0
2.0257425 -0.30900735 -0.13824883 0
2.1273196 -0.32688057 -0.1369475 0
2.2469187 -0.33317927 -0.13410667 0
2.325 -0.34400001 -0.133 0
1.5622687 -0.24472977 -0.14730591 0
1.6704977 -0.24908499 -0.14289372 0
1.7700762 -0.25535861 -0.1418009 0
1.8559561 -0.26721501 -0.14056234 0
1.9462681 -0.26822388 -0.13858771 0
2.0316625 -0.25476873 -0.137758 0
2.1178279 -0.2647109 -0.1366975 0
2.2470765 -0.27962419 -0.13510674 0
2.3369999 -0.28999999 -0.134 0
2.4224195 -0.20405547 -0.13839728 0
2.552129 -0.21458322 -0.13859591 0
2.6818388 -0.22511095 -0.13879454 0
2.7683117 -0.23212944 -0.13892697 0
2.816 -0.236 -0.139 0
1.5463321 -0.15505789 -0.14909105 0
1.66558 -0.15364474 -0.14347763 0
2.0461655 -0.1064629 -0.13922223 0
2.1706054 -0.14888549 -0.13755052 0
2.2578571 -0.15516408 -0.13690966 0
2.322473 -0.16001849 -0.13663243 0
2.6811969 -0.10110329 -0.13725188 0
2.7550001 -0.104 -0.13699999 0
1.4974999 -0.049000002 -0.149 0
1.5595533 -0.056197226 -0.14813447 0
1.6619375 -0.058787286 -0.14470437 0
1.7380602 -0.087077416 -0.14417173 0
1.8260903 -0.092616126 -0.14275758 0
1.9141204 -0.098154835 -0.14134344 0
2.1689999 -0.081 -0.139 0
2.2543662 -0.084350549 -0.13870865 0
2.3397322 -0.087701097 -0.13841729 0
2.4250984 -0.091051646 -0.13812594 0
2.5531478 -0.096077472 -0.13768891 0
1.5465126 0.067709796 -0.15227589 0
1.6311784 0.043328725 -0.14983694 0
1.708292 0.044982783 -0.14801723 0
1.8480222 0.029939733 -0.14706026 0
1.9804604 0.032913905 -0.14408609 0
2.0687523 0.034896687 -0.14210331 0
2.1670222 0.053439733 -0.14056027 0
2.267735 0.050375801 -0.1386119 0
2.3467364 0.074530326 -0.14039595 0
2.4316044 0.076795489 -0.14009394 0
2.5164726 0.079060659 -0.13979191 0
2.643775 0.082458407 -0.13933888 0
2.7390001 0.085000001 -0.139 0
-2.2311919 0.15885599 -0.18633601 0
-2.1433458 0.15667799 -0.19141801 0
1.49 0.131 -0.15099999 0
1.556025 0.15764666 -0.15179431 0
1.666082 0.14996037 -0.14834671 0
1.7212856 0.1374144 -0.14737412 0
1.8268567 0.18224323 -0.14662236 0
1.9121423 0.19265763 -0.14549647 0
2.175 0.17299999 -0.142 0
2.2585671 0.1783652 -0.14134967 0
2.3421345 0.18373042 -0.14069934 0
2.4257016 0.18909563 -0.14004901 0
2.5510523 0.19714344 -0.13907352 0
-2.2337246 0.23317185 -0.18747452 0
-2.1384873 0.23108591 -0.19248727 0
1.489 0.204 -0.153 0
1.5570596 0.23451675 -0.15291566 0
1.6575644 0.24682775 -0.14958568 0
1.7466868 0.24776438 -0.14898811 0
1.833046 0.26071534 -0.14782038 0
1.9577854 0.26232228 -0.1459408 0
2.049669 0.24391818 -0.14406371 0
2.1638122 0.25155511 -0.14236513 0
2.2598259 0.2320849 -0.14132525 0
2.3426518 0.23916981 -0.1406505 0
2.425478 0.24625473 -0.13997574 0
2.5497169 0.25688207 -0.13896361 0
2.6778011 0.22606377 -0.13803267 0
-2.2435439 0.37495118 -0.19145885 0
-2.151022 0.36347559 -0.19647944 0
-1.4736974 0.38026637 -0.18365584 0
-1.388 0.35600001 -0.183 0
1.487 0.352 -0.15650001 0
1.5609417 0.3243309 -0.1521257 0
1.6434288 0.33987296 -0.15027186 0
1.7305654 0.36150637 -0.1498332 0
1.8158569 0.35823303 -0.14850469 0
1.9422853 0.38484955 -0.14725706 0
2.0796843 0.31306145 -0.14510465 0
2.1714885 0.32841277 -0.14404069 0
2.2626071 0.32349637 -0.14204578 0
2.3374276 0.34898552 -0.14218313 0
2.4592485 0.36397463 -0.14082049 0
2.5810692 0.37896377 -0.13945784 0
2.622 0.384 -0.139 0
-2.2030001 0.47600001 -0.189 0
-2.1625905 0.46838665 -0.189 0
-2.0585184 0.47408295 -0.189 0
-1.9925001 0.46100003 -0.189 0
-1.8164868 0.47733176 -0.18627924 0
-1.7307895 0.4530654 -0.18562339 0
-1.6450921 0.42879906 -0.18496753 0
-1.5593947 0.4045327 -0.18431169 0
1.448 0.47499999 -0.15700001 0
1.5494028 0.45336765 -0.15430683 0
1.6393316 0.43657011 -0.15277722 0
1.7472707 0.46917608 -0.15113206 0
1.8440585 0.43252528 -0.14988513 0
1.9442723 0.46818107 -0.14897531 0
2.0666966 0.43651909 -0.14649966 0
2.1600919 0.46270895 -0.14566651 0
2.2441337 0.49980533 -0.14525974 0
-3.276 0.59899998 -0.193 0
-2.1644557 0.54329073 -0.18898052 0
-2.0560594 0.5740487 -0.18962339 0
-1.9546887 0.53615421 -0.18850867 0
1.4523685 0.57433689 -0.15541238 0
1.5492381 0.5605886 -0.15380837 0
1.6442742 0.5393877 -0.15352435 0
1.7349081 0.55620342 -0.15210456 0
1.8557864 0.55383933 -0.15087889 0
1.9767997 0.52622974 -0.1486358 0
2.0611668 0.54864466 -0.14760044 0
2.1432669 0.57952976 -0.14678255 0
2.2279999 0.574 -0.145 0
2.3242676 0.51461065 -0.14451946 0
2.4444683 0.53681862 -0.14340907 0
2.5808344 0.56201327 -0.14214933 0
-3.7782021 0.6663565 -0.19894323 0
-3.6490531 0.64903474 -0.19741483 0
-3.5247021 0.63235646 -0.19594322 0
-3.4418015 0.62123764 -0.19496214 0
-3.3589008 0.61011881 -0.19398108 0
-2.1462324 0.62627763 -0.191 0
-2.0172904 0.6968624 -0.19266336 0
-1.954 0.67699999 -0.193 0
1.4525 0.68700004 -0.1575 0
1.5461149 0.64180368 -0.15306257 0
1.6476278 0.66066504 -0.15329225 0
1.7514555 0.64669216 -0.15169431 0
1.8545736 0.6243329 -0.1506588 0
1.9484056 0.63937479 -0.14975159 0
2.0430944 0.64853823 -0.14851199 0
2.1517215 0.6788125 -0.14698552 0
2.220643 0.60598391 -0.14663298 0
2.3401074 0.63295978 -0.14608245 0
2.4595723 0.65993565 -0.14553192 0
2.5571077 0.68195975 -0.14508244 0
-3.4443669 0.78692377 -0.19768551 0
-3.3217468 0.76416951 -0.1966742 0
-3.24 0.74900001 -0.19599999 0
-2.1318285 0.77060813 -0.19200091 0
-2.0480223 0.74251634 -0.19244313 0
-1.9452038 0.76065993 -0.19288899 0
-1.278 0.76899999 -0.186 0
1.392 0.75700003 -0.162 0
1.4866376 0.74417496 -0.15662116 0
1.5307518 0.74887961 -0.15438502 0
1.6407387 0.79857415 -0.15659052 0
1.7606728 0.71397394 -0.15240249 0
1.8322906 0.72933364 -0.15083022 0
1.9389 0.76512724 -0.1491309 0
2.0488071 0.71904242 -0.14866798 0
2.1307237 0.74741524 -0.14793438 0
2.262002 0.74406993 -0.14691146 0
2.3383245 0.73029685 -0.14643331 0
2.448818 0.77026945 -0.14675829 0
-3.7249999 0.83899999 -0.2 0
-3.6487336 0.82484746 -0.199371 0
-3.5342975 0.84620142 -0.19796382 0
-3.4197059 0.8647936 -0.19642314 0
-3.3378038 0.84686238 -0.19561543 0
-3.2583001 0.86554408 -0.19591814 0
-3.1533334 0.84564668 -0.19566311 0
-3.062 0.81900001 -0.199 0
-2.105917 0.83696961 -0.19200045 0
-2.0471485 0.85267478 -0.19221576 0
-1.9541209 0.86323869 -0.19232921 0
-1.8895 0.8355 -0.193 0
-1.4291435 0.86128914 -0.18760304 0
-1.3408082 0.85223663 -0.18713793 0
-1.255 0.83999997 -0.18700001 0
1.35 0.84350002 -0.162 0
1.4745064 0.85248238 -0.15862595 0
1.5197659 0.82966805 -0.1567561 0
1.6206301 0.88609564 -0.15863229 0
1.7576082 0.85786116 -0.15488577 0
1.9983455 0.8109479 -0.14980496 0
2.0724473 0.82269496 -0.14779904 0
2.1387365 0.83034283 -0.14614882 0
2.2574189 0.88205713 -0.14689291 0
2.3365128 0.80673712 -0.14740941 0
2.4671795 0.84440374 -0.14707607 0
2.5309999 0.80000001 -0.147 0
-3.6732059 0.92029357 -0.19892314 0
-3.5616424 0.95576721 -0.19594537 0
-3.4475276 0.95613497 -0.19548775 0
-3.3465829 0.92440957 -0.19533819 0
-3.233794 0.94402885 -0.1960054 0
-3.1341708 0.98188215 -0.19888589 0
-2.1527615 0.98388982 -0.1890035 0
-2.0462177 0.95174152 -0.19100292 0
-1.9496868 0.94253039 -0.19298674 0
-1.8522367 0.95270032 -0.19383256 0
-1.6558588 0.9997229 -0.1900076 0
-1.5425011 0.93050605 -0.18880531 0
-1.4376111 0.96332181 -0.18818578 0
-1.2571979 0.93219948 -0.18718365 0
-1.178 0.96499997 -0.185 0
1.3521938 0.94088912 -0.16269688 0
1.4464426 0.95419484 -0.15886615 0
1.5549723 0.96653813 -0.16020554 0
1.6968403 0.92912745 -0.15750971 0
1.7730503 0.97215933 -0.15638715 0
1.8744775 0.91714823 -0.15318103 0
1.9523904 0.95667291 -0.15204453 0
2.0239999 0.99299997 -0.15099999 0
2.364233 0.92859995 -0.14756259 0
2.434 0.95899999 -0.148 0
-3.8403339 1.0651166 -0.19793802 0
-3.7405844 1.038704 -0.19751655 0
-3.6555009 1.0161749 -0.19715704 0
-3.4400001 1.0369999 -0.19 0
-3.3382962 1.0362333 -0.19278122 0
-3.2510247 1.0552928 -0.19431533 0
-3.1766832 1.0265286 -0.19654356 0
-2.016 1.031 -0.192 0
-1.9481778 1.0571088 -0.19290772 0
-1.8441371 1.0588094 -0.1928653 0
-1.7621435 1.0506225 -0.19293638 0
-1.6202222 1.0866436 -0.18937157 0
-1.5471778 1.0373149 -0.18889727 0
-1.4331872 1.0631967 -0.18810184 0
-1.3381503 1.0433004 -0.18674162 0
-1.2243866 1.0532544 -0.18487915 0
-1.138 1.028 -0.184 0
0.93449998 1.0404999 -0.16350001 0
1.0071229 1.0704838 -0.163 0
1.252 1.0353333 -0.163 0
1.330281 1.0737975 -0.16271371 0
1.44697 1.0324 -0.16082233 0
1.5184549 1.0841 -0.16023348 0
1.6623263 1.0534811 -0.15806307 0
1.7438058 1.0674546 -0.15839118 0
1.8492603 1.0151912 -0.15526457 0
1.9254704 1.058223 -0.15414201 0
-3.3504741 1.1554693 -0.19005394 0
-3.2362812 1.1482718 -0.19444121 0
-3.1526947 1.1619802 -0.19608229 0
-3.0641243 1.1714121 -0.19572198 0
-2.99 1.145 -0.197 0
-1.9505 1.1485 -0.1925 0
-1.8650973 1.1482911 -0.19278331 0
-1.765345 1.1483612 -0.19242513 0
-1.6866333 1.1639862 -0.19142294 0
-1.5387808 1.141795 -0.18865277 0
-1.449018 1.1866058 -0.18649733 0
-1.3812635 1.1312044 -0.186123 0
-1.2680373 1.1442144 -0.18476793 0
-1.0716667 1.171 -0.18266666 0
0.85699999 1.1595 -0.16500001 0
0.94963664 1.1652339 -0.1643177 0
1.042642 1.1620218 -0.1632944 0
1.1611229 1.1704839 -0.163 0
1.2555314 1.1276332 -0.16268785 0
1.3464795 1.1565835 -0.16163372 0
1.4453568 1.1392407 -0.16213322 0
1.58994 1.1358 -0.15964465 0
1.6614249 1.1875 -0.15905581 0
1.769223 1.1423197 -0.15645085 0
1.8510071 1.1550294 -0.15642546 0
2.0023403 1.1016275 -0.15300971 0
-3.3380001 1.2690001 -0.191 0
-3.2494354 1.2374425 -0.19252697 0
-2.9130001 1.272 -0.199 0
-2.1034732 1.2880356 -0.19200893 0
-2.034157 1.2442571 -0.19241428 0
-1.9663678 1.2014428 -0.19281071 0
-1.8595889 1.2484074 -0.19069862 0
-1.745195 1.2547859 -0.19079198 0
-1.6286871 1.2421968 -0.19060186 0
-1.5506496 1.269708 -0.18705884 0
-1.3655653 1.2313752 -0.18534389 0
-1.2187953 1.2674341 -0.18283969 0
-1.1495965 1.2248466 -0.18285176 0
-1.0597217 1.2447608 -0.18213612 0
-0.97749996 1.2704999 -0.18349999 0
0.76450002 1.273 -0.16500001 0
0.8825134 1.2582041 -0.1651523 0
0.9795084 1.2658594 -0.16468194 0
1.0740572 1.2521135 -0.16338317 0
1.1580926 1.2660277 -0.16350354 0
1.2422101 1.2365121 -0.16238661 0
1.328733 1.2321804 -0.16197647 0
1.4327199 1.2446332 -0.16249181 0
1.5366238 1.2411901 -0.1618548 0
1.6187136 1.2764816 -0.16126643 0
1.7329099 1.2392001 -0.15846698 0
1.8043948 1.2909001 -0.15787813 0
1.95023 1.228755 -0.15507343 0
-3.204062 1.395785 -0.19230892 0
-3.1312966 1.3648387 -0.19398169 0
-3.058531 1.3338925 -0.19565445 0
-2.9857657 1.3029462 -0.19732723 0
-2.8239999 1.393 -0.2 0
-1.7736869 1.3427213 -0.19004487 0
-1.6430751 1.3515772 -0.18962456 0
-1.5340559 1.3528216 -0.1886519 0
-1.4645467 1.354768 -0.18745992 0
-1.3385907 1.3908681 -0.18367937 0
-1.2473031 1.3602147 -0.18364243 0
-1.1465914 1.3456446 -0.18338054 0
-1.0486399 1.3261734 -0.18303789 0
-0.91799998 1.354 -0.183 0
0.69 1.359 -0.16599999 0
0.77908313 1.3660243 -0.16543807 0
0.85465646 1.3451219 -0.16532491 0
0.95378363 1.3635104 -0.16538072 0
1.0635786 1.364545 -0.16499384 0
1.1603616 1.3504944 -0.16334267 0
1.2392048 1.3414731 -0.163 0
1.3847891 1.3242687 -0.16265999 0
1.4622144 1.3651259 -0.16254753 0
1.592096 1.3174937 -0.16187054 0
1.6741858 1.3527851 -0.16128218 0
1.7573991 1.3862743 -0.16057301 0
1.8758798 1.3426001 -0.1572893 0
1.911 1.368 -0.15700001 0
2.2473223 1.3362114 -0.15342879 0
-3.2609999 1.42 -0.191 0
-3.0369537 1.4972782 -0.19434637 0
-2.9659691 1.4625188 -0.19623092 0
-2.8949845 1.4277594 -0.19811545 0
-2.1300926 1.4513932 -0.19050866 0
-2.056 1.4 -0.191 0
-1.8333162 1.4477021 -0.18884361 0
-1.7352364 1.4382463 -0.18785422 0
-1.6539967 1.4619346 -0.18815517 0
-1.5568151 1.4491433 -0.18718381 0
-1.3623824 1.4604565 -0.18421744 0
-1.2567676 1.4725586 -0.18367882 0
-1.1572531 1.4598535 -0.18378037 0
-1.0433788 1.456974 -0.18355384 0
-0.93712962 1.4519877 -0.18249622 0
-0.85350001 1.4335001 -0.18099999 0
0.583 1.484 -0.168 0
0.65333903 1.4537638 -0.16599999 0
0.74492323 1.4605561 -0.16634542 0
0.81916618 1.4330485 -0.16587614 0
0.95215642 1.4541218 -0.16532491 0
1.04479 1.4549752 -0.16502306 0
1.1221354 1.4475741 -0.16410244 0
1.2005966 1.4620619 -0.16334364 0
1.527143 1.4255323 -0.1624344 0
1.6065649 1.4643404 -0.16232261 0
1.7626438 1.4592404 -0.16130581 0
1.849371 1.4590852 -0.16011314 0
2.3622892 1.4058458 -0.1517152 0
2.4389336 1.4522686 -0.15057281 0
2.515578 1.4986916 -0.14943041 0
4.9330001 1.413 -0.164 0
5.0551958 1.4361317 -0.15293702 0
5.1773915 1.4592633 -0.14187405 0
5.2588553 1.4746845 -0.13449873 0
5.3403187 1.4901056 -0.1271234 0
-3.1354692 1.5455189 -0.19173092 0
-2.2412319 1.528483 -0.18977168 0
-2.0649273 1.557983 -0.18813105 0
-1.9554408 1.5445157 -0.18698473 0
-1.8613108 1.5244317 -0.18562184 0
-1.7839868 1.5547384 -0.18762068 0
-1.605 1.516 -0.186 0
-1.5226419 1.5805097 -0.18496946 0
-1.4450793 1.5365793 -0.18461056 0
-1.3350264 1.5500921 -0.18427683 0
-1.2362652 1.5575275 -0.18462093 0
-1.1759038 1.5569146 -0.18463422 0
-1.0662087 1.5632359 -0.1834359 0
-0.95271266 1.5514603 -0.18169428 0
-0.85613561 1.5584257 -0.18069571 0
-0.755 1.5525 -0.18349999 0
0.493 1.575 -0.169 0
0.55221194 1.5426263 -0.16724122 0
0.61176044 1.5545938 -0.16728693 0
0.75110126 1.5600839 -0.16634542 0
0.87929082 1.5335847 -0.16653323 0
0.95698756 1.5471781 -0.16597328 0
1.0442836 1.5250105 -0.16538072 0
1.1901751 1.5485259 -0.16401528 0
1.2553949 1.5285928 -0.16251545 0
1.3101932 1.5951238 -0.16168725 0
1.5775782 1.5075374 -0.16231997 0
1.6570001 1.5463454 -0.16220817 0
1.7377532 1.5837872 -0.16209681 0
1.855 1.536 -0.161 0
2.5922227 1.5451144 -0.14828801 0
2.6688671 1.5915374 -0.14714561 0
4.2350001 1.591 -0.148 0
5.4190001 1.505 -0.12 0
-2.8489997 1.6633997 -0.19466251 0
-2.7475998 1.6025599 -0.198465 0
-2.4264636 1.6569662 -0.18854335 0
-2.352371 1.6055729 -0.18903467 0
-2.2067823 1.6659491 -0.18639317 0
-2.1358547 1.611966 -0.18726212 0
-2.0509467 1.6530486 -0.18392724 0
-1.9309766 1.6486131 -0.18576623 0
-1.8449835 1.611173 -0.18677586 0
-1.4470365 1.6631482 -0.18498023 0
-1.3393316 1.6438746 -0.18461546 0
-1.2553678 1.6592577 -0.18524706 0
-1.1156117 1.6329811 -0.1835812 0
-1.0444252 1.6939206 -0.18138857 0
-0.96920818 1.631642 -0.18023765 0
-0.86272031 1.6592081 -0.18011419 0
-0.75987506 1.6544827 -0.18373272 0
-0.66100001 1.649 -0.18300001 0
0.39899999 1.688 -0.17200001 0
0.45849177 1.6476849 -0.16920342 0
0.5329057 1.6355622 -0.16777174 0
0.63935798 1.6549088 -0.16629398 0
0.75137299 1.6623468 -0.16599999 0
0.842731 1.6414082 -0.16696057 0
0.92199999 1.605 -0.167 0
1.1335404 1.6291125 -0.16595685 0
1.2517298 1.6257256 -0.16325356 0
1.3367256 1.6790531 -0.16168308 0
1.754526 1.656179 -0.16202332 0
2.7455115 1.6379602 -0.14600322 0
2.8221562 1.6843832 -0.14486082 0
4.3462381 1.6345279 -0.13923398 0
4.4574761 1.6780558 -0.13046794 0
-2.9751997 1.7391198 -0.18993001 0
-2.5376029 1.734056 -0.18780634 0
-2.3486371 1.7739151 -0.18465528 0
-2.2574472 1.7473005 -0.18386921 0
-2.1470134 1.7501348 -0.18249036 0
-2.0489473 1.7493358 -0.18462101 0
-1.9500299 1.7472584 -0.184778 0
-1.8559999 1.7460001 -0.18450001 0
-1.4777061 1.7682288 -0.18472308 0
-1.3598711 1.7594175 -0.18556514 0
-1.2144175 1.7724717 -0.18387182 0
-1.1411915 1.7271389 -0.18597811 0
-1.054963 1.7540697 -0.18028648 0
-0.9025805 1.7308121 -0.17867129 0
-0.82562512 1.7854483 -0.18319817 0
-0.75046766 1.7449201 -0.18258193 0
-0.65669125 1.7585927 -0.18249393 0
-0.55900002 1.7463332 -0.18300001 0
-0.48100001 1.791 -0.18099999 0
0.26800001 1.778 -0.1715 0
0.35701427 1.7522055 -0.17186312 0
0.44638959 1.7532114 -0.16989273 0
0.54641646 1.7489471 -0.16693282 0
0.64732277 1.7544885 -0.1661313 0
0.741 1.75 -0.1655 0
0.99599999 1.7690001 -0.161 0
1.3651894 1.7671769 -0.16176067 0
1.447189 1.7614511 -0.1596168 0
1.820278 1.7424059 -0.16087218 0
2.8988006 1.7308061 -0.14371842 0
2.947 1.76 -0.14300001 0
4.5316348 1.7070744 -0.12462391 0
4.6030002 1.735 -0.119 0
-2.9176323 1.8969949 -0.1952737 0
-2.8557549 1.85733 -0.19818246 0
-2.7228346 1.8625391 -0.18657802 0
-2.6487417 1.8111459 -0.18706936 0
-2.4550281 1.8548896 -0.18335187 0
-2.3403788 1.8570449 -0.1804195 0
-2.2536213 1.8573333 -0.17982958 0
-2.1566374 1.8554977 -0.18371736 0
-2.0640557 1.8934009 -0.184 0
-1.9542699 1.8368571 -0.18450001 0
-1.898 1.887 -0.18799999 0
-1.78 1.888 -0.184 0
-1.5364121 1.8374577 -0.18444617 0
-1.408244 1.8563077 -0.18551025 0
-1.3371189 1.8524624 -0.1847721 0
-1.2355001 1.847 -0.18349999 0
-1.1391451 1.8606488 -0.18090089 0
-1.0630554 1.8142359 -0.17917155 0
-0.96237075 1.8382181 -0.17650694 0
-0.85000002 1.834 -0.183 0
-0.76635867 1.8528515 -0.18097937 0
-0.64801925 1.8649516 -0.18137771 0
-0.54363686 1.8378636 -0.18114966 0
-0.4342083 1.8470992 -0.17894144 0
-0.36199999 1.8625 -0.17649999 0
0.14750001 1.868 -0.1725 0
0.24683195 1.8543286 -0.17198847 0
0.36973542 1.847379 -0.17138952 0
0.46192464 1.8504109 -0.16921544 0
0.56896091 1.8683571 -0.16535418 0
0.62878889 1.8715901 -0.1669421 0
0.92699999 1.85 -0.161 0
1.0384791 1.8479636 -0.16110335 0
1.465973 1.8199674 -0.15967141 0
1.5416036 1.8779688 -0.15843126 0
1.8815562 1.8048117 -0.15974437 0
1.9428341 1.8672177 -0.15861654 0
-2.9660001 1.928 -0.193 0
-2.8099999 1.923 -0.186 0
-2.7969275 1.9139323 -0.1860867 0
-2.6323469 1.9898473 -0.18117951 0
-2.5368943 1.965101 -0.1797384 0
-2.4330635 1.9627898 -0.17736703 0
-2.3434188 1.9365785 -0.17884408 0
-2.2362049 1.9549167 -0.1837801 0
-2.1300743 1.9535345 -0.184 0
-2.0395079 1.96334 -0.185 0
-1.9664392 1.9262226 -0.18624631 0
-1.8415101 1.951984 -0.184 0
-1.7598505 1.9592676 -0.18099999 0
-1.6699121 1.9729576 -0.18144616 0
-1.5569251 1.9528049 -0.18435 0
-1.4409819 1.9447327 -0.18455447 0
-1.0039999 1.913 -0.175 0
-0.83027917 1.951714 -0.18261394 0
-0.71694922 1.9320121 -0.18232614 0
-0.65070283 1.9359016 -0.17994571 0
-0.54333335 1.9330679 -0.17952551 0
-0.44374144 1.961326 -0.17869081 0
-0.38211855 1.9448417 -0.17723584 0
0.15346116 1.9438637 -0.17297792 0
0.25047922 1.9621887 -0.17268927 0
0.34471488 1.9345623 -0.17161393 0
0.41512829 1.9508493 -0.17076799 0
0.53010637 1.9606442 -0.16790701 0
0.65523612 1.9542377 -0.16667764 0
0.9366796 1.9469494 -0.16229828 0
1.0809581 1.9269271 -0.16120671 0
1.168 1.962 -0.163 0
1.299 1.92 -0.162 0
1.3501784 1.9935429 -0.162 0
1.4658246 1.9233141 -0.15963389 0
1.565293 1.9621458 -0.15869194 0
2.0347514 1.9608265 -0.15692481 0
2.6400001 1.929 -0.146 0
2.7128594 1.980031 -0.13125116 0
-2.6470001 2.0009999 -0.18099999 0
-2.5225 2.0514998 -0.17750001 0
-2.4535322 2.0329285 -0.1776582 0
-2.3367662 2.0424917 -0.18311414 0
-2.2621114 2.0738018 -0.184 0
-2.1562054 2.0415628 -0.18466668 0
-2.0476832 2.0458798 -0.18673149 0
-1.9337753 2.04796 -0.184 0
-1.8494022 2.0560703 -0.18099999 0
-1.7281723 2.0403295 -0.1813077 0
-1.6619999 2.039 -0.18000001 0
-1.5739759 2.0702312 -0.18404099 0
-1.4727134 2.0347743 -0.18363266 0
-1.298 2.0899999 -0.185 0
-0.86434901 2.0353925 -0.18251742 0
-0.74257398 2.0547025 -0.18183343 0
-0.5914157 2.0219388 -0.18121135 0
-0.45061636 2.0437584 -0.17829891 0
-0.38230598 2.0410402 -0.178 0
-0.21799999 2.079 -0.178 0
-0.13075 2.0475001 -0.17675 0
-0.054000001 2.092 -0.17550001 0
0.16927697 2.0393093 -0.17340778 0
0.28312749 2.0287933 -0.17043343 0
0.34126806 2.0476055 -0.17244707 0
0.43958551 2.062233 -0.17017867 0
0.57437611 2.0292737 -0.16705127 0
0.6816833 2.0368853 -0.16641316 0
0.86608678 2.0542819 -0.16500001 0
0.97768807 2.0766306 -0.16278961 0
1.0449364 2.0501261 -0.16292734 0
1.1582073 2.0440533 -0.16182184 0
1.2391447 2.0296321 -0.16284481 0
1.4013567 2.0670857 -0.162 0
1.5534428 2.0469787 -0.15902756 0
1.6488105 2.0119064 -0.15729378 0
1.7024139 2.0788753 -0.15672505 0
2.1266685 2.0544353 -0.1552331 0
2.4649999 2.075 -0.15099999 0
2.7857187 2.0310621 -0.11650231 0
2.858578 2.082093 -0.10175347 0
-2.5046844 2.188725 -0.1820021 0
-2.4373276 2.1300666 -0.18244816 0
-2.3611393 2.1640019 -0.184 0
-2.233016 2.14768 -0.185 0
-2.1374929 2.1412077 -0.1859704 0
-2.0260406 2.1439362 -0.184 0
-1.9389539 2.152873 -0.18099999 0
-1.8303384 2.1503916 -0.18035387 0
-1.7542748 2.1302173 -0.18084361 0
-1.6379199 2.1495025 -0.18134095 0
-1.5540701 2.1441617 -0.18294901 0
-1.3467077 2.1663244 -0.18490542 0
-0.8447724 2.1490319 -0.18169105 0
-0.7246713 2.1391695 -0.18057618 0
-0.62562358 2.1449084 -0.18031704 0
-0.53524959 2.1425951 -0.17914858 0
-0.46729946 2.1535103 -0.17823178 0
-0.39399999 2.1370001 -0.178 0
-0.22785179 2.1678715 -0.17040591 0
-0.14702205 2.133796 -0.1728204 0
-0.056081071 2.1815863 -0.17100489 0
0.16125414 2.1483357 -0.1744349 0
0.29483664 2.1090577 -0.17024457 0
0.31777292 2.1656611 -0.17202786 0
0.40296328 2.1358128 -0.17000096 0
0.59685135 2.1133285 -0.16666153 0
0.61932653 2.1973832 -0.16627179 0
0.71556526 2.1427665 -0.16607434 0
0.9148891 2.1548634 -0.16523916 0
1.0504055 2.1670382 -0.16184221 0
1.1255437 2.1586833 -0.16441871 0
1.2492565 2.1430397 -0.16222917 0
1.3254342 2.1748965 -0.16253442 0
1.4525352 2.1406286 -0.162 0
1.6320291 2.1368308 -0.15866813 0
1.7307929 2.1686873 -0.15671915 0
2.1879466 2.1168413 -0.15410528 0
2.2479999 2.178 -0.153 0
2.4404824 2.1550429 -0.14759789 0
2.5329664 2.1285493 -0.13561364 0
2.6009331 2.1820989 -0.12022726 0
3.855 2.1270001 -0.14300001 0
3.9340882 2.1713262 -0.13794205 0
-2.4715836 2.2646012 -0.184 0
-2.3620212 2.2705736 -0.185 0
-2.277379 2.238719 -0.1849778 0
-2.1732135 2.2383318 -0.1847315 0
-2.058028 2.2287979 -0.1825 0
-1.9461653 2.2648163 -0.17900001 0
-1.8591182 2.2450547 -0.18098852 0
-1.7363137 2.262548 -0.18209839 0
-1.6609259 2.2386205 -0.18184768 0
-1.58 2.2509999 -0.18099999 0
-1.3954154 2.2426491 -0.18481085 0
-0.94952345 2.2445889 -0.18227613 0
-0.84945703 2.246995 -0.18093392 0
-0.76455712 2.2485657 -0.18023546 0
-0.65983146 2.2678778 -0.17942271 0
-0.55189323 2.2475827 -0.17840813 0
-0.48531216 2.240819 -0.17801985 0
-0.22099227 2.2775531 -0.16587996 0
-0.15536116 2.2350657 -0.16724904 0
-0.058162145 2.2711723 -0.16650981 0
0.2 2.201 -0.17399999 0
0.31 2.2130001 -0.17 0
0.63499999 2.256 -0.16599999 0
0.94914812 2.2348042 -0.16497831 0
1.0265745 2.2661853 -0.16400707 0
1.1461446 2.2455938 -0.16256404 0
1.2508743 2.2427812 -0.16162013 0
1.3448261 2.2560949 -0.16217373 0
1.5293026 2.2509429 -0.162 0
1.6692927 2.2244749 -0.15941042 0
1.7428319 2.2791753 -0.15802428 0
1.8459483 2.2581983 -0.15520214 0
2.3482265 2.2684417 -0.13636543 0
2.5409296 2.242172 -0.13139158 0
2.6688995 2.2356482 -0.1048409 0
3.8940001 2.22 -0.134 0
3.9708352 2.2639706 -0.12901366 0
4.0527201 2.2378154 -0.1303551 0
-2.431762 2.3370101 -0.185 0
-2.3435564 2.3599317 -0.1842241 0
-2.2413259 2.3678803 -0.184 0
-2.1479075 2.3787463 -0.18099999 0
-2.0423849 2.3561957 -0.18074362 0
-1.944334 2.3457623 -0.18058082 0
-1.8606453 2.3416278 -0.18108661 0
-1.7609339 2.3527205 -0.18079087 0
-1.6604929 2.344753 -0.18145524 0
-1.5748965 2.3610306 -0.18135414 0
-1.468477 2.3571358 -0.18466899 0
-1.0006282 2.3701065 -0.18213136 0
-0.93009746 2.3918848 -0.17932051 0
-0.8425355 2.3652196 -0.18022543 0
-0.76108062 2.3382156 -0.17901026 0
-0.65196604 2.3258953 -0.17900735 0
-0.56735188 2.3547857 -0.17764503 0
-0.23023838 2.36658 -0.15981993 0
-0.15255494 2.3577623 -0.1599676 0
-0.060243219 2.3607585 -0.16201471 0
0.96604127 2.3363805 -0.164 0
1.0633752 2.3463612 -0.16369364 0
1.1651683 2.3391953 -0.161 0
1.2502669 2.3377731 -0.16303588 0
1.3663416 2.339077 -0.16171031 0
1.4332961 2.3564768 -0.16214642 0
1.6060702 2.3612573 -0.162 0
1.7774391 2.3677125 -0.15961564 0
1.803 2.313 -0.156 0
2.4484534 2.3588834 -0.11973087 0
2.6413765 2.3293009 -0.11518526 0
4.0476704 2.3079412 -0.1240273 0
4.1479292 2.3281081 -0.12090456 0
4.2258906 2.3722563 -0.1158824 0
4.3295288 2.3929567 -0.11265225 0
-2.3269999 2.457 -0.184 0
-2.2158043 2.4521408 -0.18099999 0
-2.1440001 2.4890001 -0.17900001 0
-2.0728507 2.4388013 -0.1805 0
-1.9513081 2.4668183 -0.17974359 0
-1.8520145 2.4416623 -0.18117322 0
-1.754977 2.4645543 -0.18122707 0
-1.6465859 2.4601228 -0.1794166 0
-1.5415386 2.4716227 -0.18452711 0
-1.4349999 2.46 -0.17900001 0
-1.0428993 2.4739285 -0.1820116 0
-0.96346331 2.4741797 -0.17876068 0
-0.85466367 2.4431975 -0.17955749 0
-0.73229367 2.4508374 -0.17824315 0
-0.64057171 2.4559507 -0.17828858 0
-0.58770382 2.4405713 -0.17729005 0
-0.23948452 2.4556065 -0.1537599 0
-0.16075432 2.4740353 -0.15280926 0
-0.062324289 2.4503446 -0.15751961 0
0.99830157 2.4172258 -0.164 0
1.0519249 2.4746265 -0.16419578 0
1.1457362 2.4425497 -0.16231623 0
1.2477472 2.4393888 -0.16212806 0
1.357072 2.4401898 -0.16187853 0
1.4474961 2.4421334 -0.16154893 0
1.6572485 2.4348001 -0.162 0
1.8315122 2.4393311 -0.15971823 0
2.5152712 2.419178 -0.10864116 0
4.2781754 2.4398527 -0.10906826 0
4.3550105 2.4838233 -0.10408191 0
4.4481606 2.459446 -0.10506532 0
-2.0650196 2.5158257 -0.17805773 0
-1.9420753 2.5504785 -0.18196501 0
-1.8614068 2.5302882 -0.17876163 0
-1.765871 2.5705338 -0.18016724 0
-1.6943789 2.5261841 -0.17812489 0
-1.5452471 2.5477965 -0.18176901 0
-1.4530877 2.552206 -0.17742035 0
-1.363 2.54 -0.177 0
-1.288 2.546 -0.183 0
-1.1461866 2.5539718 -0.18222499 0
-1.0825721 2.5615849 -0.18068251 0
-0.95484304 2.5493381 -0.17914207 0
-0.87170541 2.5655174 -0.17799127 0
-0.77304757 2.5556087 -0.17757422 0
-0.64265049 2.5562863 -0.17724508 0
-0.23465692 2.5524912 -0.14185174 0
-0.15387273 2.5623047 -0.15339456 0
-0.064405359 2.5399308 -0.15302451 0
1.0628222 2.5789161 -0.164 0
1.1095457 2.5302184 -0.16386984 0
1.2435209 2.5501919 -0.16138615 0
1.327 2.5239999 -0.163 0
1.449 2.5384998 -0.16150001 0
1.7340162 2.5451145 -0.162 0
1.8855854 2.5109499 -0.15982084 0
1.9396586 2.5825686 -0.15992345 0
2.4820001 2.5039999 -0.147 0
2.5451393 2.5633163 -0.13355823 0
-2.01 2.615 -0.186 0
-1.9235001 2.6115 -0.178 0
-1.8134999 2.6535001 -0.1785 0
-1.7899648 2.6583066 -0.17554149 0
-1.638954 2.6242719 -0.18433796 0
-1.5623791 2.6740303 -0.17856778 0
-1.4463385 2.6445673 -0.17772843 0
-1.348552 2.6515415 -0.18045342 0
-1.2007467 2.6768866 -0.17990001 0
-1.118144 2.6391702 -0.17936502 0
-1.030195 2.6387694 -0.17764102 0
-0.94223082 2.6539869 -0.17793617 0
-0.8543275 2.6567442 -0.17699824 0
-0.73795843 2.6700668 -0.17690665 0
-0.6385836 2.6550355 -0.17640261 0
-0.24384928 2.6416314 -0.13537592 0
-0.15921451 2.6521754 -0.14886437 0
-0.066486433 2.6295171 -0.14852941 0
1.086 2.6370001 -0.164 0
1.1579016 2.6356273 -0.16317408 0
1.2485482 2.666419 -0.16202663 0
1.3239471 2.6653254 -0.161 0
1.791 2.6270001 -0.162 0
1.98 2.6359999 -0.16 0
2.6398482 2.6522908 -0.11339557 0
-1.7363695 2.7769208 -0.1841488 0
-1.6574942 2.7172596 -0.18270472 0
-1.582351 2.7568245 -0.17568138 0
-1.4444718 2.7651861 -0.17862573 0
-1.2371199 2.7588298 -0.17835 0
-1.1715021 2.7555478 -0.17738882 0
-1.0335804 2.7332253 -0.17719087 0
-0.93153989 2.7342114 -0.17671718 0
-0.87207067 2.7835279 -0.17609514 0
-0.76246083 2.7561228 -0.17638056 0
-0.66911149 2.7837141 -0.17587015 0
-0.26398486 2.7455719 -0.12598687 0
-0.14889485 2.7564397 -0.13466543 0
-0.068567507 2.7191031 -0.14403431 0
1.353 2.7249999 -0.161 0
-1.813 2.8970001 -0.184 0
-1.7480335 2.8680649 -0.18290165 0
-1.6425323 2.823478 -0.17718643 0
-1.5187865 2.851052 -0.18012615 0
-1.469656 2.8626246 -0.17536026 0
-1.2491767 2.8563492 -0.17610629 0
-1.128 2.8800001 -0.176 0
-1.0642133 2.8142958 -0.17644852 0
-0.97414583 2.8433285 -0.17581803 0
-0.8603093 2.8529234 -0.17556748 0
-0.75059253 2.8467445 -0.17608815 0
-0.68946338 2.8694997 -0.17551517 0
-0.3066662 2.8788426 -0.10965317 0
-0.24494389 2.8348827 -0.12501279 0
-0.16989809 2.8319168 -0.13980404 0
-0.039386705 2.8177578 -0.17341939 0
-1.747 2.947 -0.182 0
-1.5298666 2.9239075 -0.17745385 0
-1.3098664 2.9227161 -0.17525001 0
-1.2604322 2.9495106 -0.17409509 0
-1.0437458 2.9558959 -0.17501572 0
-0.95286226 2.93294 -0.17526275 0
-0.84788936 2.9228818 -0.17505758 0
-0.73461896 2.9609578 -0.17525311 0
-0.31400001 2.9449999 -0.104 0
-0.25953773 2.9451048 -0.12406407 0
-0.18497099 2.9525135 -0.14578761 0
-0.04264671 2.9528999 -0.17312303 0
-1.6356264 3.0843413 -0.18247077 0
-1.5966798 3.0065782 -0.18168923 0
-1.3644264 3.0456309 -0.17292501 0
-1.29 3.0139999 -0.17299999 0
-1.0395155 3.0379128 -0.17436257 0
-0.9553566 3.0633221 -0.17417611 0
-0.85714835 3.0437167 -0.17449813 0
-0.79949069 3.0204308 -0.17511019 0
-0.162 3.0020001 -0.17200001 0
-0.044 3.0090001 -0.17299999 0
-1.6619999 3.1370001 -0.183 0
-1.4189863 3.168546 -0.17060001 0
-1.0880001 3.1370001 -0.17299999 0
-1.4553597 3.2504892 -0.16905001 0
-1.48 3.306 -0.168 0
3.1289999 -2.8989999 -0.0070000002 0
0.73212028 -2.7397895 -0.095259294 0
0.70915037 -2.6534867 -0.080324113 0
0.68618047 -2.5671842 -0.06538894 0
0.66321051 -2.4808817 -0.050453767 0
0.62875569 -2.3514276 -0.028051008 0
3.1534116 -2.3349931 -0.018475585 0
0.59430075 -2.2219737 -0.0056482404 0
2.9729965 -2.2026422 -0.05539453 0
3.0451627 -2.2555826 -0.040626951 0
2.9008303 -2.1497018 -0.07016211 0
2.7564981 -2.0438211 -0.099697262 0
2.8286643 -2.0967615 -0.08492969 0
2.9314373 2.1331241 -0.087004617 0
3.0042965 2.184155 -0.072255775 0
2.7368662 2.2891977 -0.089454532 0
3.0771558 2.2351861 -0.057506934 0
3.1500151 2.286217 -0.042758092 0
2.8388159 2.3695216 -0.066374987 0
3.259304 2.3627634 -0.020634834 0
2.5820892 2.4794724 -0.09755145 0
2.7418234 2.41643 -0.098978952 0
2.8087883 2.4745159 -0.088174753 0
2.9407659 2.4498458 -0.043295451 0
2.6489069 2.5397668 -0.086461738 0
2.8757529 2.5326018 -0.077370547 0
2.9427176 2.5906878 -0.066566341 0
3.0173662 2.5101976 -0.025954545 0
4.4318457 2.5277939 -0.099095553 0
4.5377369 2.5488496 -0.095793791 0
4.6458807 2.570261 -0.092420414 0
2.7491336 2.6302085 -0.069827177 0
3.0213411 2.6588869 -0.053881068 0
4.572 2.608 -0.090000004 0
4.7150002 2.609 -0.088 0
2.7345574 2.7412658 -0.093232915 0
2.8493605 2.7206502 -0.053192608 0
2.9161782 2.7809448 -0.042102896 0
-0.13735296 2.8927603 -0.098162569 0
2.7976966 2.8005822 -0.079791136 0
2.860836 2.8598986 -0.066349365 0
2.9649999 2.825 -0.034000002 0
-0.244 2.937 -0.1 0
-0.139 2.9349999 -0.093999997 0
2.9683635 2.9609153 -0.043457802 0
-0.052999999 -3.7149999 0.021 0
-0.051726561 -3.624131 0.023183037 0
-0.050453123 -3.5332623 0.025366073 0
-0.049179684 -3.4423933 0.02754911 0
-0.04790625 -3.3515244 0.029732145 0
-0.046632811 -3.2606554 0.031915184 0
-0.045359373 -3.1697867 0.034098219 0
-0.044085935 -3.0789177 0.036281258 0
-0.042812496 -2.9880488 0.038464293 0
-0.040902339 -2.8517456 0.041738845 0
3.0658271 -2.8385031 0.0055647464 0
-0.039000001 -2.7160001 0.045000002 0
2.6630685 -2.740294 0.01985456 0
2.753 -2.7049999 0.016000001 0
2.9207408 -2.7192545 0.02384712 0
3.0026546 -2.7780061 0.018129494 0
1.034 -2.6199999 0.013 0
2.5762744 -2.6481767 0.028418243 0
2.6949103 -2.6467357 0.02280331 0
2.7766993 -2.6100283 0.043828353 0
2.8578293 -2.661263 0.036836579 0
0.93099999 -2.5179999 0.015 0
1.0037208 -2.5468764 0.019385433 0
1.125 -2.506 0.017000001 0
1.5039999 -2.513 0.016000001 0
2.26 -2.553 0.016000001 0
2.4605491 -2.5253534 0.039836485 0
2.5485711 -2.558486 0.035268646 0
2.6368203 -2.5884714 0.029606622 0
2.7320063 -2.5452805 0.062815502 0
2.8131361 -2.5965152 0.055823736 0
0.93975908 -2.441149 0.026899362 0
1.0945443 -2.442188 0.023381192 0
1.2590083 -2.4691949 0.0080166096 0
1.4553226 -2.435595 0.025575871 0
2.17274 -2.4434855 0.035911702 0
2.2163699 -2.4982429 0.025955852 0
2.3448236 -2.4025302 0.051254727 0
2.4326186 -2.4388103 0.04778108 0
2.5546947 -2.4577568 0.063642055 0
2.6539357 -2.4632008 0.081709303 0
3.2616608 -2.4144037 0.0036757886 0
3.3169999 -2.4549999 0.015000001 0
0.86018431 -2.3456609 0.034427311 0
0.9128828 -2.3275061 0.038541727 0
1.0488608 -2.3464704 0.032952979 0
1.1725248 -2.3225846 0.03354983 0
1.2080331 -2.3827798 0.023066437 0
2.120055 -2.3773642 0.04793378 0
2.3169999 -2.3729999 0.054000001 0
2.4200001 -2.3710001 0.055 0
2.5260983 -2.3880847 0.097485051 0
0.85250002 -2.2540002 0.045000002 0
1.02 -2.286 0.039000001 0
0.58099997 -2.1719999 0.0030000061 0
3.3747964 2.443655 0.0027442127 0
3.0613499 3.772728 0.062726296 0
3.1097748 3.8523417 0.055339441 0
3.1698875 3.9511709 0.046169721 0
3.23 4.0500002 0.037 0
2.4909999 -2.3570001 0.105 0
2.586 -2.3789999 0.101 0
