# .PCD v0.7 - Point Cloud Data file format
VERSION 0.7
FIELDS x y z intensity
SIZE 4 4 4 4
TYPE F F F F
COUNT 1 1 1 1
WIDTH 1338
HEIGHT 1
VIEWPOINT 0 0 0 1 0 0 0
POINTS 1338
DATA ascii
1.0667214 -1.4345949 -0.16388813 0
1.1553702 -1.4455996 -0.16538614 0
1.2447114 -1.4560018 -0.1725693 0
1.3226666 -1.4376665 -0.17200001 0
1.5463414 -1.4485536 -0.16821952 0
-1.9831594 -1.3197728 -0.17990737 0
-1.8639979 -1.3728894 -0.17098115 0
-1.7921379 -1.3196994 -0.16546339 0
-1.6494502 -1.3616514 -0.17318921 0
-1.5295411 -1.3895547 -0.16542347 0
-1.4501864 -1.3411278 -0.16500077 0
-1.343307 -1.353989 -0.18099876 0
-1.2701389 -1.3152189 -0.17828223 0
-1.1799999 -1.342 -0.17900001 0
-0.34732282 -1.3814349 -0.10052297 0
0.6999051 -1.3228834 -0.11938658 0
0.97363424 -1.3424387 -0.14866844 0
1.059775 -1.353907 -0.15033548 0
1.1567504 -1.3449801 -0.15646881 0
1.249084 -1.3686371 -0.17088307 0
1.4650136 -1.3491683 -0.15911989 0
1.5441345 -1.3730112 -0.14112706 0
-3.0299678 -1.2948091 -0.17411284 0
-2.9350421 -1.2538564 -0.17500311 0
-2.8521485 -1.2180946 -0.17578055 0
-2.1630588 -1.2452953 -0.18269831 0
-1.9201026 -1.2779126 -0.16935198 0
-1.8486673 -1.2302299 -0.17208022 0
-1.7202778 -1.2665093 -0.15994561 0
-1.6513531 -1.2549466 -0.17262688 0
-1.5618198 -1.2873805 -0.16366521 0
-1.4682413 -1.2466779 -0.16559441 0
-1.3484741 -1.2445399 -0.14313677 0
-1.2533969 -1.2364134 -0.17902763 0
0.65835768 -1.2438251 -0.10707988 0
0.8557387 -1.2490276 -0.12919173 0
0.94912583 -1.2391196 -0.12004416 0
1.0487381 -1.2704047 -0.14184417 0
1.158411 -1.2440058 -0.15390399 0
1.2478683 -1.2529671 -0.16922908 0
1.3597378 -1.2325759 -0.14992891 0
1.4534715 -1.2530981 -0.13517278 0
1.543 -1.248 -0.13699999 0
-2.7351274 -1.1461663 -0.15527898 0
-2.6449146 -1.12869 -0.17772412 0
-2.0528057 -1.1807315 -0.18165696 0
-1.9744939 -1.1348724 -0.18091729 0
-1.7553133 -1.1681418 -0.1629353 0
-1.6811714 -1.1188025 -0.15729338 0
-1.5416762 -1.151945 -0.15334816 0
-1.4531153 -1.1563876 -0.15613312 0
-1.3629115 -1.1185534 -0.14634451 0
-1.2536392 -1.1564062 -0.14305782 0
0.77380252 -1.1979988 -0.11036041 0
0.85516459 -1.1507845 -0.12566437 0
0.94916624 -1.1352917 -0.13530385 0
1.0563335 -1.1601379 -0.13183378 0
1.1421574 -1.1388623 -0.15330131 0
1.2478833 -1.1510574 -0.14707829 0
1.3453925 -1.1466759 -0.15996179 0
1.4330622 -1.1668295 -0.14384869 0
-2.6197364 -1.0770108 -0.1389484 0
-2.5254362 -1.0446539 -0.14281963 0
-2.4464915 -1.0247717 -0.16431451 0
-2.3547871 -1.0035236 -0.18044513 0
-2.0020001 -1.071 -0.17900001 0
-1.94654 -1.0412323 -0.17013422 0
-1.8680648 -1.0474397 -0.17706625 0
-1.6245133 -1.0815629 -0.12675984 0
-1.5517737 -1.0325375 -0.15618743 0
-1.4170688 -1.07572 -0.160505 0
-1.3435023 -1.0363057 -0.14496015 0
-1.2588434 -1.0623109 -0.16182838 0
-1.1709208 -1.0179756 -0.16487259 0
0.76521611 -1.0560827 -0.11057521 0
0.83406663 -1.0429244 -0.11753294 0
0.9479143 -1.0452772 -0.12085439 0
1.0418398 -1.0573056 -0.13510384 0
1.1617724 -1.0395801 -0.13541098 0
1.2499901 -1.0557401 -0.14688176 0
1.3337132 -1.0500801 -0.15385075 0
1.439 -1.0829999 -0.17200001 0
-2.4356875 -0.98211998 -0.11403705 0
-2.3631229 -0.96292084 -0.13821404 0
-2.2605116 -0.93429905 -0.15876526 0
-2.1889999 -0.93199998 -0.182 0
-1.949 -0.91299999 -0.18000001 0
-1.82942 -0.97792298 -0.15718001 0
-1.7475171 -0.95638889 -0.15744929 0
-1.6767144 -0.92855656 -0.14745411 0
-1.5829352 -0.90557718 -0.17721899 0
-1.4587457 -0.97078502 -0.14036767 0
-1.362365 -0.95402241 -0.17516956 0
-1.2643334 -0.97066671 -0.17633332 0
-1.1509215 -0.95857614 -0.15888263 0
-1.0677158 -0.93092775 -0.14829732 0
0.75385612 -0.96663153 -0.10455947 0
0.85103369 -0.9481504 -0.11661835 0
0.95509529 -0.95247298 -0.11829309 0
1.050739 -0.93241274 -0.11426757 0
1.1345507 -0.95638025 -0.12588611 0
1.2586473 -0.95733309 -0.14547449 0
1.317 -0.93599999 -0.169 0
1.4170001 -0.91000003 -0.175 0
1.640983 -0.92187279 -0.17675252 0
1.7132394 -0.9610455 -0.17797032 0
1.8718691 -0.92277741 -0.15740457 0
1.9722276 -0.96221322 -0.1490249 0
-2.36057 -0.86697292 -0.10996169 0
-2.2881711 -0.83962214 -0.12022381 0
-2.1548872 -0.85904241 -0.14565992 0
-2.0336354 -0.82984817 -0.1650735 0
-1.9565719 -0.80772954 -0.1790783 0
-1.869959 -0.87616414 -0.17425612 0
-1.7512536 -0.82084328 -0.1656298 0
-1.6348455 -0.87328285 -0.12871322 0
-1.5405972 -0.84964693 -0.16363545 0
-1.4263117 -0.81385905 -0.17573966 0
-1.2920001 -0.85900003 -0.17399999 0
-1.1031072 -0.88508332 -0.15005378 0
-1.0398219 -0.86546773 -0.13919501 0
-0.96877879 -0.8333776 -0.12816943 0
0.76718664 -0.87450594 -0.10432918 0
0.83915412 -0.85773212 -0.11184926 0
0.93307763 -0.8536725 -0.10574495 0
1.0740942 -0.84430629 -0.11012572 0
1.1623132 -0.84767216 -0.13031347 0
1.2616237 -0.85504633 -0.14990413 0
1.3444632 -0.86378187 -0.16087778 0
1.4647436 -0.82632732 -0.1737822 0
1.5704873 -0.88365459 -0.17556439 0
1.6610466 -0.8081063 -0.16282487 0
1.7648035 -0.85049045 -0.1464493 0
1.8372892 -0.85155392 -0.15097474 0
1.9328575 -0.85790396 -0.15644023 0
2.0234523 -0.83203071 -0.15483363 0
-2.2508035 -0.74887836 -0.12324142 0
-2.1365769 -0.75845265 -0.14039533 0
-2.0531683 -0.75074887 -0.15338951 0
-1.9633983 -0.74180299 -0.16448875 0
-1.8540521 -0.75238347 -0.1752013 0
-1.757844 -0.73890769 -0.17957208 0
-1.6325481 -0.76552236 -0.15700349 0
-1.553411 -0.72864175 -0.15125263 0
-1.4589818 -0.77560985 -0.14299473 0
-1.3446964 -0.73982197 -0.15509894 0
-0.93150955 -0.76117045 -0.11894661 0
-0.86641872 -0.75087142 -0.11012719 0
0.833 -0.74599999 -0.102 0
1.0501148 -0.73142791 -0.10840698 0
1.1410108 -0.76355875 -0.12416819 0
1.359 -0.76899999 -0.17200001 0
1.5455233 -0.75055313 -0.16741243 0
1.6966197 -0.7268151 -0.15940206 0
1.7521808 -0.74942917 -0.16569757 0
1.8512237 -0.76864582 -0.1569894 0
1.9517742 -0.75162762 -0.13036725 0
2.1482255 -0.72333997 -0.1536838 0
-2.3333821 -0.65866888 -0.11568326 0
-2.2485766 -0.66219693 -0.12550125 0
-2.1394277 -0.64493054 -0.16056843 0
-2.0471001 -0.63958108 -0.15974981 0
-1.9246279 -0.64623982 -0.17545627 0
-1.8510876 -0.6530112 -0.17460133 0
-1.7433258 -0.64342874 -0.177285 0
-1.692 -0.60399997 -0.176 0
-1.474274 -0.69176114 -0.14550175 0
-1.3555684 -0.63644028 -0.13687545 0
-1.261021 -0.65849936 -0.12706847 0
-0.83163762 -0.68162131 -0.10322636 0
1.0543158 -0.67890918 -0.10438892 0
1.3642635 -0.63336962 -0.16812216 0
1.4434524 -0.65710187 -0.16855025 0
1.5430225 -0.62274361 -0.14723133 0
1.6408386 -0.64927018 -0.14258148 0
1.7588197 -0.62384087 -0.14131054 0
1.8602145 -0.65261275 -0.13457304 0
1.9639226 -0.63383675 -0.1520458 0
2.0318394 -0.64537239 -0.1474693 0
2.1083272 -0.68949485 -0.13784042 0
2.442733 -0.61356705 -0.16074899 0
2.5448873 -0.62723285 -0.14910148 0
2.6534326 -0.6294688 -0.12079164 0
2.7681756 -0.65626788 -0.11216666 0
-2.0407326 -0.58071923 -0.16282506 0
-1.9373982 -0.55906028 -0.17088833 0
-1.8499769 -0.55146676 -0.17259772 0
-1.7567835 -0.54999906 -0.17439647 0
-1.6450723 -0.53888065 -0.17552279 0
-1.5482477 -0.5325563 -0.17825055 0
1.0751625 -0.51043516 -0.11446595 0
1.1557674 -0.53176069 -0.1290444 0
1.2433069 -0.54652995 -0.14376634 0
1.3547635 -0.57151628 -0.16383246 0
1.4738898 -0.56450385 -0.14168754 0
1.5507302 -0.55005848 -0.14675263 0
1.6683103 -0.53772229 -0.15644601 0
1.7644022 -0.53730935 -0.13610435 0
1.8406124 -0.54805058 -0.12876236 0
1.9313909 -0.58296502 -0.14298481 0
2.0493665 -0.51578355 -0.16387451 0
2.159204 -0.52872252 -0.16118716 0
2.2458706 -0.54962081 -0.15761071 0
2.3528826 -0.55394304 -0.14868459 0
2.4584839 -0.55647802 -0.13635628 0
2.5199664 -0.5417766 -0.13150531 0
2.6468563 -0.5690096 -0.12025691 0
2.74 -0.58899999 -0.112 0
-1.8140687 -0.49317431 -0.17297231 0
-1.7555395 -0.48242986 -0.17422035 0
-1.6778097 -0.48033643 -0.17505349 0
-1.5417639 -0.48239705 -0.17597705 0
-1.4478533 -0.45561215 -0.17785117 0
1.0676337 -0.4619782 -0.11060815 0
1.1345376 -0.47577232 -0.12167288 0
1.3609999 -0.46700001 -0.164 0
1.4444691 -0.44384548 -0.12860639 0
1.5671768 -0.47623762 -0.12772207 0
1.6625565 -0.43211317 -0.14645667 0
1.753155 -0.43018949 -0.16638362 0
1.8389742 -0.4510105 -0.16596907 0
1.941626 -0.43305552 -0.16444817 0
2.0487595 -0.45094353 -0.16628595 0
2.1542192 -0.44109279 -0.13908559 0
2.2726994 -0.46914276 -0.14614032 0
2.3739214 -0.45261762 -0.13903756 0
2.4528987 -0.46803722 -0.14035611 0
2.5020001 -0.42199999 -0.111 0
2.7892468 -0.40592495 -0.1429214 0
2.8770294 -0.41607809 -0.13382588 0
-3.0033801 -0.3673566 -0.19277638 0
-2.9157603 -0.35671318 -0.17955276 0
-2.8281403 -0.34606978 -0.16632913 0
-2.7405202 -0.33542639 -0.15310551 0
-2.6529005 -0.324783 -0.13988188 0
-2.5652804 -0.31413957 -0.12665826 0
-2.4776604 -0.30349618 -0.11343464 0
-2.23 -0.31 -0.112 0
1.4499563 -0.34205228 -0.12979968 0
1.5581204 -0.35628089 -0.14273027 0
1.6511936 -0.34568799 -0.15114382 0
1.7432221 -0.35271153 -0.16085277 0
1.8468426 -0.35722977 -0.16219923 0
1.9631218 -0.34925565 -0.16217913 0
2.0430171 -0.35080069 -0.16265735 0
2.1492331 -0.36548957 -0.16099556 0
2.2451386 -0.34928942 -0.16171807 0
2.3494325 -0.37224871 -0.15213664 0
2.47 -0.36899999 -0.176 0
2.5498118 -0.37823123 -0.16773035 0
2.6296234 -0.38746247 -0.15946071 0
2.7094352 -0.39669371 -0.15119106 0
-2.3900404 -0.29285279 -0.10021102 0
1.3695 -0.26949999 -0.16499999 0
1.4594574 -0.25452372 -0.166208 0
1.5567433 -0.24294244 -0.15029795 0
1.6504977 -0.2520569 -0.15109919 0
1.7676367 -0.25466824 -0.16440021 0
1.8630195 -0.24941769 -0.1653699 0
1.9536756 -0.25060308 -0.16378494 0
1.3577913 -0.1455681 -0.13773298 0
1.4572092 -0.14770672 -0.1430445 0
1.5581489 -0.13912684 -0.12995544 0
1.6402982 -0.15943435 -0.13930835 0
1.7261876 -0.16828722 -0.14519019 0
1.8462263 -0.16373137 -0.14783227 0
1.9634198 -0.17451389 -0.16201724 0
1.3564386 -0.068182975 -0.14172466 0
1.4487457 -0.058681913 -0.12402482 0
1.5577391 -0.066763349 -0.12006753 0
1.6402704 -0.079763129 -0.12304389 0
1.7594095 -0.067711771 -0.13081262 0
1.8465375 -0.054072596 -0.17529038 0
1.9302686 -0.057536297 -0.18914518 0
1.3456668 0.038666666 -0.161 0
1.4499861 0.041854851 -0.14213964 0
1.5603906 0.037345055 -0.13179806 0
1.646728 0.028639279 -0.15451057 0
1.7442788 0.022107344 -0.15876333 0
1.849999 0.040534854 -0.14804435 0
1.9094387 0.041500002 -0.15223667 0
1.296 0.16500001 -0.15800001 0
1.3500444 0.1389897 -0.16000001 0
1.4473834 0.1386082 -0.15946925 0
1.5535272 0.16136597 -0.15957956 0
1.6477325 0.14867462 -0.16066651 0
1.7543402 0.13530423 -0.16000307 0
1.8416052 0.14392948 -0.15648787 0
1.902 0.14399999 -0.16 0
1.273 0.289 -0.15899999 0
1.3481556 0.2442458 -0.15977624 0
1.4605606 0.24624577 -0.15569001 0
1.5668662 0.25367725 -0.16046365 0
1.6467251 0.24578302 -0.15941213 0
1.7434478 0.2207998 -0.15757786 0
1.844682 0.23664953 -0.15700001 0
1.944 0.23999999 -0.15800001 0
1.2646867 0.361101 -0.15827659 0
1.3591375 0.35431668 -0.15251017 0
1.4489084 0.35849816 -0.14493603 0
1.5402598 0.33829209 -0.13284239 0
1.7227443 0.30071563 -0.16254924 0
1.8250465 0.31782937 -0.16292953 0
1.2616053 0.45047575 -0.160127 0
1.3495094 0.4388957 -0.15194038 0
1.4566385 0.45044076 -0.13503204 0
1.5361805 0.45536903 -0.14055951 0
1.6494274 0.45483264 -0.15118149 0
1.7404528 0.45735335 -0.15220775 0
1.857 0.46000001 -0.168 0
-1.4068725 0.58305621 -0.12703998 0
-1.3369362 0.5555281 -0.12951998 0
-1.2670434 0.55643994 -0.13778456 0
-1.186 0.55949998 -0.1515 0
0.9008103 0.58838326 -0.10264427 0
1.2577205 0.51870835 -0.15547171 0
1.3639665 0.54029554 -0.14957839 0
1.4493685 0.54848975 -0.14165078 0
1.5444318 0.54544097 -0.1603695 0
1.6602435 0.55556661 -0.14556263 0
1.7354553 0.54418969 -0.12343038 0
1.8489987 0.56049657 -0.1216941 0
1.9559922 0.54539073 -0.11583782 0
2.073 0.57499999 -0.114 0
-1.704 0.69 -0.167 0
-1.650972 0.67128426 -0.16440059 0
-1.5478725 0.63855618 -0.12203999 0
-1.4479527 0.6590941 -0.14786902 0
-1.3340631 0.64732522 -0.15045194 0
-1.2577538 0.62505394 -0.1578044 0
-1.1720222 0.64748192 -0.15667148 0
-0.95438045 0.69033784 -0.11580133 0
-0.884 0.639 -0.114 0
0.87574148 0.62297487 -0.10159163 0
0.97032428 0.66094851 -0.11374864 0
1.0382802 0.65819991 -0.11835325 0
1.1291833 0.66226566 -0.13745664 0
1.2159425 0.68515247 -0.15164126 0
1.399 0.63700002 -0.155 0
1.4606094 0.66780472 -0.15562232 0
1.5222187 0.69860935 -0.15624464 0
1.6215637 0.6124469 -0.15608737 0
1.7651749 0.62494212 -0.15286976 0
1.8450303 0.65303326 -0.15995362 0
1.9353036 0.65912646 -0.15262024 0
2.059 0.64899999 -0.124 0
-1.6537604 0.76213968 -0.16170731 0
-1.5536183 0.7622242 -0.14041324 0
-1.4369291 0.74879283 -0.13361806 0
-1.3467851 0.75494576 -0.1464953 0
-1.2499361 0.74806988 -0.15392229 0
-1.1603054 0.74569404 -0.15983012 0
-1.0565804 0.75693786 -0.14180133 0
-0.68814981 0.77453929 -0.1122556 0
0.73687321 0.74159014 -0.10521886 0
0.82317525 0.77562499 -0.12091731 0
0.945306 0.75335348 -0.10672598 0
1.0496688 0.75546783 -0.12055091 0
1.150762 0.7585727 -0.13612755 0
1.2663369 0.74324107 -0.1431268 0
1.3478276 0.76145744 -0.13892376 0
1.4137702 0.7996099 -0.13256502 0
1.590414 0.73270702 -0.15693349 0
-1.5565569 0.85567224 -0.16132747 0
-1.4535824 0.84107983 -0.1322186 0
-1.3467106 0.85259789 -0.15551615 0
-1.2505033 0.85874701 -0.15237595 0
-1.1452179 0.84919423 -0.14499126 0
-1.0646636 0.86636651 -0.15715289 0
-0.96824998 0.84925002 -0.15900001 0
-0.74543321 0.83802617 -0.1271704 0
-0.65906048 0.85782665 -0.10476613 0
0.64089841 0.86175597 -0.10819472 0
0.77798337 0.83285385 -0.11112562 0
0.8712731 0.84465384 -0.13290925 0
0.96615636 0.86545026 -0.13333033 0
1.0697215 0.84639037 -0.12726761 0
1.1585836 0.84223449 -0.13330749 0
1.2466338 0.85845864 -0.14114344 0
1.322 0.80599999 -0.153 0
1.4299999 0.80900002 -0.131 0
-1.5238812 0.9352296 -0.16093573 0
-1.4429137 0.95357674 -0.13790658 0
-1.3494562 0.94132441 -0.14409807 0
-1.2568878 0.96550059 -0.1551539 0
-1.1591301 0.9483431 -0.15833728 0
-1.0519357 0.93684679 -0.15203626 0
-0.97840941 0.95360029 -0.13236952 0
-0.8656925 0.94513357 -0.14439622 0
-0.73479033 0.93857944 -0.11207248 0
-0.69499999 0.91600001 -0.101 0
-0.45974204 0.97641504 -0.10845055 0
0.59237248 0.94994354 -0.10033663 0
0.65475529 0.93131393 -0.11379161 0
0.7491731 0.95957118 -0.11948989 0
0.85064113 0.94661868 -0.12733011 0
0.92603225 0.96778762 -0.13092053 0
1.0294707 0.92753738 -0.14174591 0
1.1496266 0.9540776 -0.1423779 0
1.2427131 0.94524783 -0.14932977 0
1.327 0.95749998 -0.15450001 0
-1.4444017 1.0416912 -0.1443464 0
-1.3474768 1.0540633 -0.13294248 0
-1.2584279 1.0580008 -0.13835564 0
-1.1587267 1.0303328 -0.14378387 0
-1.0153675 1.0704998 -0.13813603 0
-0.94484341 1.0583774 -0.14454713 0
-0.85142672 1.0102096 -0.10754407 0
-0.79049766 1.0397077 -0.11926711 0
-0.68572295 1.0540297 -0.10486177 0
-0.47357568 1.0668826 -0.11494604 0
-0.35479429 1.0837433 -0.10557196 0
-0.2472052 1.0755483 -0.10094354 0
0.67224145 1.0322518 -0.12108864 0
0.75405568 1.071684 -0.14159639 0
0.84800798 1.0436476 -0.12616855 0
0.95544279 1.0457189 -0.13886091 0
1.0445902 1.0967715 -0.12829868 0
1.175 1.022 -0.149 0
-1.4168091 1.1500565 -0.13737671 0
-1.3596795 1.152357 -0.14354573 0
-1.2549579 1.1498665 -0.13189562 0
-1.1559836 1.1560912 -0.12754053 0
-1.0654255 1.1429273 -0.14164758 0
-0.95965606 1.1385257 -0.13452645 0
-0.86987329 1.1425307 -0.13445033 0
-0.75088406 1.1451868 -0.12192085 0
-0.51997352 1.1325104 -0.12886406 0
-0.45281753 1.1390623 -0.11645756 0
-0.35951701 1.162115 -0.11405264 0
-0.26308796 1.1482031 -0.10512274 0
-0.14179219 1.1783826 -0.10225308 0
-0.071079761 1.198943 -0.10105293 0
0.17956682 1.1971611 -0.1013246 0
0.20982815 1.1980621 -0.10149045 0
0.34406412 1.1928334 -0.10704554 0
0.44271949 1.1642604 -0.11069715 0
0.76414222 1.1553373 -0.14607625 0
0.84954947 1.138279 -0.12797171 0
0.94493866 1.1582961 -0.13853198 0
1.0104299 1.1645131 -0.11086054 0
1.1089623 1.1637799 -0.11760536 0
-1.415 1.2244999 -0.134 0
-1.2381455 1.2626796 -0.16224131 0
-1.1479234 1.2461689 -0.12791695 0
-1.040828 1.2347629 -0.15476322 0
-0.94924891 1.2453538 -0.14963356 0
-0.82920659 1.2729264 -0.14044741 0
-0.77720666 1.2183523 -0.12485583 0
-0.60299999 1.28 -0.156 0
-0.54465771 1.2434177 -0.13545598 0
-0.45410642 1.2525202 -0.13578735 0
-0.35406569 1.2453785 -0.12386119 0
-0.25473535 1.2393435 -0.1144783 0
-0.15243375 1.2666061 -0.11270246 0
-0.076733142 1.2864525 -0.11071078 0
0.15394709 1.2419243 -0.10802951 0
0.24583749 1.2408392 -0.10964853 0
0.36678207 1.2699168 -0.11877276 0
0.45548439 1.2405841 -0.1224909 0
0.50361049 1.2367222 -0.12506393 0
0.77100003 1.244 -0.15099999 0
0.84478635 1.2160941 -0.15047956 0
0.95211357 1.2546333 -0.13286589 0
1.0571481 1.229234 -0.11424021 0
-1.3454733 1.3487663 -0.16954139 0
-1.2397648 1.338621 -0.13141501 0
-1.122 1.331 -0.175 0
-1.0464984 1.3554926 -0.16150723 0
-0.98699999 1.395 -0.15700001 0
-0.87703443 1.3458921 -0.1523093 0
-0.60021418 1.3609831 -0.15822935 0
-0.55147123 1.3466392 -0.1471481 0
-0.45380229 1.3526356 -0.14753139 0
-0.34127128 1.3508673 -0.13592106 0
-0.24752159 1.3497622 -0.12811241 0
-0.11762605 1.3794076 -0.12223451 0
-0.082386509 1.373962 -0.12036861 0
0.14958318 1.3526568 -0.12110784 0
0.25446552 1.348151 -0.12220595 0
0.34611973 1.3699611 -0.12169997 0
0.43599999 1.3305 -0.13249999 0
0.51699996 1.3115001 -0.13699999 0
-1.415 1.411 -0.171 0
-1.3417909 1.4876281 -0.11795347 0
-1.2891667 1.4296665 -0.11585475 0
-1.1257446 1.4561167 -0.17239538 0
-1.0353349 1.4644238 -0.15853934 0
-0.921 1.441 -0.156 0
-0.62585342 1.4502294 -0.15811108 0
-0.442 1.4295 -0.15525001 0
-0.34752482 1.4541881 -0.14919922 0
-0.25435695 1.4531137 -0.14046843 0
-0.12508403 1.4692718 -0.13282301 0
-0.088039882 1.4614716 -0.13002646 0
0.16483328 1.4848628 -0.13604313 0
0.25096923 1.4626987 -0.12772545 0
0.32967961 1.4759415 -0.14054996 0
-1.353 1.5 -0.117 0
-1.2489781 1.592467 -0.17358153 0
-1.1962336 1.5268502 -0.16918615 0
-1.0836699 1.5338475 -0.16007866 0
-0.64999998 1.5420001 -0.154 0
-0.33199999 1.5044999 -0.15349999 0
-0.26454371 1.5518543 -0.15242243 0
-0.13254201 1.5591359 -0.1434115 0
-0.093693256 1.548981 -0.1396843 0
0.17500001 1.573 -0.146 0
0.25133333 1.5466666 -0.134 0
0.32999998 1.5599999 -0.15000001 0
-1.3017228 1.6580837 -0.17797691 0
-1.1561723 1.6379831 -0.16238765 0
-0.21689147 1.6392641 -0.1505664 0
-0.14 1.649 -0.154 0
-0.099346623 1.6364905 -0.14934215 0
-1.3642336 1.7358503 -0.18318614 0
-1.2286747 1.7421187 -0.16469665 0
-0.22728294 1.7480283 -0.13463281 0
-0.105 1.724 -0.15899999 0
-1.301 1.846 -0.167 0
-1.2770097 1.8115425 -0.16623597 0
0.85130709 -1.8545525 -0.094410345 0
-0.88698626 -1.7364264 -0.0016136849 0
0.34040397 -1.7132878 -0.031432666 0
0.7665 -1.7365 -0.049999997 0
-3.5239999 -1.638 -0.089000002 0
-3.4683223 -1.6113114 -0.088355795 0
-0.84999311 -1.6587131 -0.0063068424 0
0.3205497 -1.6160648 -0.034741715 0
0.58064836 -1.6806682 -0.09815605 0
0.71261823 -1.6772897 -0.025373608 0
-3.3506103 -1.5548875 -0.086993843 0
-0.81532151 -1.5827652 -0.027206361 0
-0.77502322 -1.5330582 -0.032745149 0
-0.29699999 -1.503 -0.090999998 0
0.11453729 -1.5535957 -0.09143018 0
0.31473777 -1.5419502 -0.073548608 0
0.53763461 -1.5551693 -0.087023079 0
0.64662057 -1.5464047 -0.055165455 0
-3.2473607 -1.4804212 -0.048940219 0
-3.1685207 -1.4448159 -0.055205166 0
-3.0759492 -1.4232318 -0.08381594 0
-0.833 -1.401 -0.082000002 0
-0.74442679 -1.4456439 -0.042822719 0
-0.28033125 -1.4184465 -0.082934484 0
-0.19862664 -1.4065558 -0.095994458 0
0.074413523 -1.4231966 -0.081855349 0
0.11839667 -1.4691811 -0.088870361 0
0.28947753 -1.4306699 -0.060261101 0
0.49462092 -1.4296705 -0.075890116 0
0.579579 -1.4387062 -0.084914595 0
0.62176335 -1.4511312 -0.076955989 0
-3.1034117 -1.3951893 -0.039124276 0
-3.0242059 -1.3615947 -0.05256214 0
-2.9538248 -1.3538719 -0.076969326 0
-0.75933802 -1.3494382 -0.053886216 0
-0.6712262 -1.3563756 -0.045943502 0
-0.59957999 -1.3111049 -0.053174444 0
-0.44361654 -1.3569754 -0.03430495 0
-0.3509953 -1.364679 -0.025286123 0
-0.26366252 -1.3338931 -0.074868962 0
-0.18643996 -1.3188336 -0.086991683 0
0.06979008 -1.3347045 -0.075345472 0
0.14517982 -1.355451 -0.080609277 0
0.27232957 -1.3552331 -0.054341156 0
0.34666666 -1.3430001 -0.090999998 0
0.46297255 -1.3250022 -0.082734071 0
0.56734502 -1.3535722 -0.069834776 0
-1.0749391 -1.2411189 -0.014335329 0
-0.73130971 -1.2662765 -0.052384034 0
-0.63419712 -1.2488359 -0.04617713 0
-0.55336994 -1.2409178 -0.03855012 0
-0.46918705 -1.2750583 -0.040040977 0
-0.34448725 -1.249869 -0.064748779 0
-0.24699378 -1.2493395 -0.06680344 0
-0.17425328 -1.2311114 -0.077988908 0
0.06516663 -1.2462125 -0.068835601 0
0.14991949 -1.2448624 -0.071228959 0
0.26373696 -1.2632407 -0.056803338 0
0.3445504 -1.2518394 -0.082605138 0
0.45325762 -1.2442174 -0.083580077 0
0.52675289 -1.2475452 -0.066703603 0
0.73900002 -1.229 -0.093000002 0
0.84756029 -1.240575 -0.09780167 0
-1.177349 -1.1080292 -0.094242066 0
-1.0644495 -1.137463 -0.036972351 0
-0.98009908 -1.1584821 -0.015161192 0
-0.70168692 -1.1777289 -0.049658798 0
-0.65426153 -1.1581308 -0.035438072 0
-0.53433323 -1.1672499 -0.031820305 0
-0.48279276 -1.1231235 -0.023238257 0
-0.30599999 -1.183 -0.055 0
-0.25949746 -1.1459459 -0.066913761 0
-0.17453331 -1.1406946 -0.068493068 0
0.075817011 -1.1561092 -0.064109616 0
0.13909686 -1.1364244 -0.061398108 0
0.24573307 -1.1470954 -0.049830634 0
0.36302614 -1.1294281 -0.054216761 0
0.43668932 -1.1394806 -0.063467674 0
0.51599997 -1.192 -0.096000001 0
0.65546048 -1.1601195 -0.089091286 0
0.76264495 -1.1533518 -0.089610569 0
0.82957882 -1.146541 -0.085721612 0
0.92513639 -1.1524723 -0.090515479 0
1.0915377 -1.1189655 -0.0088607557 0
1.1532453 -1.1821586 -0.0022329055 0
-2.6163707 -1.0547199 -0.095595241 0
-1.4349878 -1.0545907 -0.099342398 0
-1.3636112 -1.0016645 -0.089010201 0
-1.2259626 -1.0047774 -0.090876482 0
-1.1458842 -1.0565797 -0.089162521 0
-1.0625641 -1.0431961 -0.063778728 0
-0.94677579 -1.0649387 -0.019716954 0
-0.87497669 -1.0196983 -0.013717718 0
-0.61414486 -1.0288813 -0.028097995 0
-0.55218053 -1.0679541 -0.039619423 0
-0.47404921 -1.0463454 -0.01795272 0
-0.24236526 -1.0618833 -0.058777172 0
-0.17248936 -1.0428239 -0.056206334 0
0.0637426 -1.0526968 -0.055892661 0
0.1419138 -1.0483608 -0.052657742 0
0.24794127 -1.0455962 -0.049885321 0
0.35794196 -1.0518527 -0.053567767 0
0.42927969 -1.0505719 -0.050830714 0
0.53812224 -1.0364197 -0.052328277 0
0.63843423 -1.0364704 -0.076513976 0
0.74703813 -1.0418707 -0.069026619 0
0.85555339 -1.0586461 -0.071745574 0
1.0298302 -1.0557724 -0.015488604 0
1.1541861 -1.0273763 -0.08701168 0
1.2420052 -1.0382947 -0.07302621 0
1.3503535 -1.0420086 -0.0211809 0
1.4289945 -1.0399586 -0.045079093 0
1.5222714 -1.0465863 -0.061915997 0
1.6322305 -1.0407876 -0.080920994 0
1.702 -1.043 -0.090999998 0
-2.4459984 -0.91938508 -0.090038642 0
-1.4028213 -0.9343006 -0.094815746 0
-1.329 -0.97600001 -0.083999999 0
-1.2612453 -0.98248541 -0.089866161 0
-1.1502767 -0.95317572 -0.060854949 0
-1.0731013 -0.93871987 -0.066287704 0
-0.9620657 -0.96170205 -0.056194007 0
-0.84492522 -0.94151837 -0.028174011 0
-0.54518592 -0.97472548 -0.03477408 0
-0.44602764 -0.93547863 -0.052875284 0
-0.23959792 -0.96259516 -0.052351478 0
-0.1694203 -0.95509362 -0.041969527 0
0.05197753 -0.93180299 -0.030633125 0
0.14274988 -0.94248754 -0.040843137 0
0.22538322 -0.94057626 -0.034462478 0
0.33725157 -0.96644408 -0.04376534 0
0.46896642 -0.9528839 -0.050776277 0
0.54450262 -0.94344753 -0.039982252 0
0.65072334 -0.95162863 -0.059464674 0
0.72775072 -0.93758368 -0.073837809 0
0.84093857 -0.92872012 -0.077806033 0
0.92082089 -0.9581936 -0.045959979 0
1.0674967 -0.92610985 -0.051868975 0
1.1719855 -0.93304944 -0.043811921 0
1.2699447 -0.93184596 -0.032460935 0
1.3564318 -0.95094162 -0.044956189 0
1.4541272 -0.9572885 -0.069811143 0
1.54181 -0.96928757 -0.081624456 0
1.6209302 -0.99332893 -0.088899747 0
-1.5372727 -0.82301527 -0.085924365 0
-1.3289239 -0.88521314 -0.084167719 0
-1.3 -0.866 -0.079999998 0
-1.0247778 -0.85299188 -0.06947349 0
-0.92929 -0.84960973 -0.065577745 0
-0.8504082 -0.85131204 -0.054158513 0
-0.7588675 -0.85365838 -0.023994878 0
-0.687554 -0.81506288 -0.019224016 0
-0.51119387 -0.87216514 -0.022586398 0
-0.44218859 -0.84395444 -0.036533367 0
-0.39375228 -0.87507164 -0.048006337 0
-0.21760547 -0.88425827 -0.042723443 0
-0.14774872 -0.85956585 -0.034787271 0
-0.04091122 -0.83089614 -0.015044377 0
0.04676399 -0.84268022 -0.025029274 0
0.16243722 -0.84424347 -0.021630395 0
0.26055357 -0.83943057 -0.028573602 0
0.33953637 -0.85640001 -0.035520311 0
0.45462105 -0.84564954 -0.034093138 0
0.55739582 -0.85468525 -0.045643587 0
0.66772681 -0.87265617 -0.045940388 0
0.74763691 -0.84159535 -0.058074754 0
0.85983753 -0.84790039 -0.058066618 0
0.96053535 -0.85000628 -0.060829762 0
1.0390333 -0.83649069 -0.042289902 0
1.1385214 -0.84465611 -0.03168346 0
1.2411834 -0.84768206 -0.063974589 0
1.3461649 -0.85686231 -0.074884102 0
1.4673901 -0.89925587 -0.084922023 0
-1.4598181 -0.78168452 -0.070411764 0
-1.3823637 -0.7403537 -0.054899164 0
-0.94729555 -0.76373661 -0.068150893 0
-0.85692978 -0.74734426 -0.069389403 0
-0.74685627 -0.75651205 -0.050576244 0
-0.64130265 -0.73445404 -0.025190286 0
-0.43479416 -0.7519995 -0.021791222 0
-0.35640556 -0.75402904 -0.051841725 0
-0.11928456 -0.76264417 -0.039883245 0
-0.040007245 -0.74926507 -0.010312833 0
0.052318782 -0.74885589 -0.029607186 0
0.15137753 -0.74065387 -0.01787745 0
0.25123027 -0.74428636 -0.015616911 0
0.35260594 -0.75133324 -0.021171011 0
0.45044231 -0.74642551 -0.026569746 0
0.5279783 -0.76683146 -0.037742969 0
0.66690439 -0.7392832 -0.074788392 0
0.7537933 -0.75486934 -0.070221812 0
0.84950978 -0.74575353 -0.050275359 0
0.95167333 -0.75796771 -0.049194358 0
1.0490527 -0.74832332 -0.054383688 0
1.1571585 -0.75294238 -0.069616683 0
1.2431712 -0.75948107 -0.047025502 0
1.8832653 -0.72171044 -0.061469227 0
1.95849 -0.75075579 -0.057878107 0
2.0329459 -0.77015132 -0.070004076 0
2.1029999 -0.778 -0.094999999 0
-1.3049091 -0.69902289 -0.039386556 0
-1.288 -0.69 -0.035999998 0
-0.83051109 -0.68679672 -0.074289396 0
-0.75440961 -0.64936507 -0.080050431 0
-0.65627879 -0.64956003 -0.053660139 0
-0.55953664 -0.63573641 -0.030044697 0
-0.44017279 -0.66466016 -0.011878869 0
-0.37998858 -0.65006226 -0.035210155 0
-0.029468397 -0.66570854 -0.014792795 0
0.032438014 -0.65040845 -0.029495547 0
0.198 -0.699 -0.012 0
0.25354546 -0.69390911 -0.012909091 0
0.36256003 -0.67961407 -0.019105317 0
0.44385403 -0.67212665 -0.018627904 0
0.56882727 -0.65873748 -0.069947764 0
0.6510278 -0.6852023 -0.075983338 0
0.71604359 -0.69040138 -0.063716419 0
0.84895283 -0.65671378 -0.046202574 0
0.94201529 -0.65841979 -0.065964259 0
1.0462252 -0.65840971 -0.065347396 0
1.1366607 -0.66379756 -0.017419923 0
1.7368635 -0.64114392 -0.044206239 0
1.8376045 -0.66110653 -0.054816589 0
1.936 -0.67799997 -0.050999999 0
-0.71700001 -0.57099998 -0.081 0
-0.6701563 -0.57510948 -0.074175857 0
-0.54967684 -0.55271482 -0.049297404 0
-0.46399999 -0.53299999 -0.028833335 0
-0.34752169 -0.56471211 -0.038537752 0
0.011 -0.58700001 -0.028999999 0
0.84784317 -0.56930131 -0.064853333 0
0.92298347 -0.58868897 -0.070465386 0
1.4729121 -0.52342814 -0.04338412 0
1.5442591 -0.53403342 -0.031462144 0
1.6325135 -0.54661775 -0.02771062 0
1.7370347 -0.55580115 -0.036664255 0
1.8014785 -0.58619827 -0.046989225 0
1.9458289 -0.56113881 -0.098509669 0
2.0469999 -0.58999997 -0.096000001 0
-0.46433333 -0.46033335 -0.052000001 0
0.95364642 -0.43280181 -0.090532884 0
1.0002717 -0.44632494 -0.099648908 0
1.1521825 -0.41268563 -0.054276824 0
1.2460171 -0.42649963 -0.045146588 0
1.3539662 -0.44340694 -0.05140686 0
1.4501716 -0.44986105 -0.043360166 0
1.5482236 -0.4483321 -0.05542564 0
1.6387801 -0.44131973 -0.037029836 0
1.7491875 -0.47902679 -0.057397325 0
1.809 -0.49700001 -0.048999999 0
2.016129 -0.40778995 -0.087866813 0
0.76575196 -0.34667805 -0.055514026 0
0.85064441 -0.37405747 -0.070197426 0
1.0828334 -0.33649996 -0.057833333 0
1.1622536 -0.33651584 -0.058481984 0
1.2558407 -0.35707468 -0.060111344 0
1.3501867 -0.34181133 -0.06467019 0
1.4551483 -0.36477438 -0.048183754 0
1.5512421 -0.36063665 -0.010500849 0
1.652024 -0.34335637 -0.012986672 0
1.7597013 -0.34330675 -0.042583726 0
1.8279904 -0.35485294 -0.053706765 0
1.931555 -0.3907479 -0.07464017 0
-2.3024206 -0.2822094 -0.086987391 0
-2.276 -0.27900001 -0.082999997 0
-2.1465328 -0.27267069 -0.076939218 0
-2.0394003 -0.26301911 -0.067890063 0
-1.9540673 -0.25036317 -0.056013826 0
-1.8478268 -0.24018185 -0.046695828 0
-1.7380018 -0.23404294 -0.020495052 0
-1.6364156 -0.21918346 -0.027737238 0
-1.596 -0.213 -0.022 0
1.0805 -0.23449999 -0.058499999 0
1.1374319 -0.26908454 -0.052281305 0
1.2364689 -0.26892558 -0.058063898 0
1.3522615 -0.27957886 -0.061128054 0
1.8442016 -0.21193124 -0.025300991 0
1.9711344 -0.22695416 -0.035533994 0
2.0557561 -0.23696944 -0.042355999 0
2.140378 -0.24698472 -0.049178001 0
2.2249999 -0.257 -0.056000002 0
-1.6749241 -0.19263351 -0.00099544227 0
1.0591075 -0.16699666 -0.035577156 0
1.1434287 -0.13686374 -0.049573682 0
1.2529511 -0.13573289 -0.055811837 0
1.3427932 -0.13690865 -0.051016349 0
1.4437597 -0.14686763 -0.062408023 0
1.5499842 -0.12379098 -0.018962786 0
1.6229999 -0.15799999 -0.011 0
1.7172688 -0.19690831 -0.015067987 0
1.096 -0.017999999 -0.043000001 0
1.1415644 -0.052856263 -0.053524852 0
1.2477047 -0.048123464 -0.054803595 0
1.3449299 -0.048377376 -0.050280698 0
1.435938 -0.046986554 -0.044188946 0
1.5360934 -0.036899745 -0.014246394 0
1.6359934 -0.070545748 -0.014812737 0
1.7849927 -0.08404991 -0.023704801 0
1.8565069 -0.087629706 -0.060406547 0
1.9425111 -0.090827122 -0.058865864 0
2.0496895 -0.09483102 -0.057739783 0
2.1370001 -0.097999997 -0.052999996 0
0.88454354 0.065686986 -0.00041149557 0
0.96419591 0.072538592 -0.0079383245 0
1.068049 0.052563477 -0.051270764 0
1.1614208 0.036074776 -0.049223714 0
1.2439303 0.043519095 -0.05293145 0
1.3406936 0.044360358 -0.057215646 0
1.4364247 0.034966979 -0.03837904 0
1.5574014 0.046758313 -0.02980238 0
1.6449025 0.047828641 -0.048561219 0
1.7626042 0.085133731 -0.069105655 0
-1.5628052 0.12607105 -0.050792985 0
-1.463221 0.11728421 -0.03517193 0
-1.3944157 0.11121316 -0.024378948 0
1.058295 0.11036319 -0.047830172 0
1.145115 0.11222237 -0.057893697 0
1.2566597 0.12081242 -0.05287363 0
1.3596299 0.13976136 -0.045895223 0
1.4425867 0.14418349 -0.047091667 0
1.5547216 0.15932287 -0.054396592 0
1.6653924 0.17368841 -0.05415833 0
1.750343 0.18242562 -0.059538811 0
1.8554429 0.16175775 -0.060505725 0
1.9476445 0.11198765 -0.039303407 0
2.0741925 0.1196502 -0.039071206 0
2.1129999 0.122 -0.039000001 0
1.4656719 0.20174618 -0.029245585 0
1.5443494 0.25463343 -0.077399299 0
1.646011 0.24011065 -0.055351648 0
1.7504253 0.23236042 -0.056565989 0
1.8525904 0.23778971 -0.072990678 0
1.9223138 0.22371557 -0.043957863 0
1.536449 0.34094778 -0.080627896 0
1.637771 0.31414238 -0.08158911 0
1.7592617 0.33985052 -0.043243576 0
1.8668301 0.3303476 -0.028053155 0
-0.42903462 0.4883559 -0.019240119 0
-0.27200001 0.49650002 -0.022 0
0.49214286 0.48771429 -0.025999997 0
0.52260888 0.47460148 -0.022421498 0
0.66013438 0.47026092 -0.040497817 0
0.7294445 0.48124298 -0.068201475 0
1.5505162 0.42735019 -0.05760945 0
1.6544832 0.44963273 -0.063238032 0
1.7529271 0.47029406 -0.061501183 0
1.801 0.484 -0.032000002 0
-1.4009612 0.58946282 -0.081042871 0
-1.3236046 0.57512414 -0.089916989 0
-1.2476667 0.55966669 -0.098666668 0
-0.51828629 0.56712812 -0.043451075 0
-0.44277537 0.55491787 -0.025918044 0
-0.3547478 0.54832357 -0.02364278 0
-0.25013149 0.54722518 -0.024501443 0
-0.17908083 0.57841671 -0.022718986 0
0.46968895 0.54756266 -0.026323412 0
0.55007219 0.55777121 -0.032439929 0
0.64708793 0.54539764 -0.04954287 0
0.76233488 0.55799079 -0.056359716 0
0.84797955 0.55935091 -0.074757665 0
0.96594429 0.59188539 -0.092855446 0
1.349 0.57099998 -0.0040000002 0
1.4493545 0.50936437 -0.079849944 0
1.5273571 0.53454167 -0.081084773 0
1.6404037 0.56534767 -0.052278414 0
1.8281623 0.51183015 -0.071305886 0
1.9505811 0.54341507 -0.092652947 0
-1.5233049 0.66902238 -0.064750068 0
-1.4515367 0.66098529 -0.060342267 0
-1.3456295 0.64772338 -0.071293376 0
-1.2462506 0.64912963 -0.064504921 0
-1.1913185 0.66969895 -0.058951389 0
-0.87400001 0.667 -0.078000002 0
-0.72000003 0.699 -0.030999996 0
-0.62041974 0.67839271 -0.027206773 0
-0.54556292 0.64560121 -0.02871613 0
-0.44540399 0.65257484 -0.030068848 0
-0.35022819 0.64403647 -0.025243169 0
-0.25226951 0.65227133 -0.026003618 0
-0.14925449 0.63802713 -0.027612584 0
-0.057249997 0.67099994 -0.024500001 0
0.25999999 0.69550002 -0.037 0
0.44404081 0.64783317 -0.033797059 0
0.55241698 0.64230084 -0.032540794 0
0.63914096 0.65383852 -0.050684575 0
0.73666674 0.64635831 -0.065021314 0
0.85024571 0.63840568 -0.067158744 0
0.92508936 0.65997666 -0.059000213 0
1.0536845 0.66791034 -0.012498338 0
1.7733228 0.60717809 -0.037422732 0
-1.5135384 0.72591913 -0.041564561 0
-1.4392135 0.75075614 -0.042957015 0
-1.3480114 0.75713885 -0.051166091 0
-1.2550926 0.75133896 -0.04707871 0
-1.1769243 0.75226611 -0.050660271 0
-1.0238401 0.78598034 -0.050920423 0
-0.94333065 0.72016615 -0.077368572 0
-0.74412918 0.7549423 -0.045167729 0
-0.64497858 0.75105911 -0.040370069 0
-0.55021238 0.73866445 -0.031824678 0
-0.44630384 0.75100482 -0.031148726 0
-0.34707153 0.75495929 -0.033990689 0
-0.25445655 0.76384032 -0.031929139 0
-0.1600631 0.73996216 -0.031329423 0
-0.046884034 0.74636477 -0.029239764 0
0.071333133 0.7499215 -0.046462744 0
0.13652872 0.75929898 -0.040006671 0
0.25356811 0.75316072 -0.038351614 0
0.33575308 0.77763706 -0.02520171 0
0.45830047 0.74737799 -0.033127878 0
0.5461992 0.75379741 -0.051747069 0
0.64638865 0.73240697 -0.050347291 0
0.74561191 0.75120509 -0.058220044 0
0.85212767 0.73404294 -0.075250663 0
0.95783597 0.74199504 -0.043568581 0
1.0283415 0.74983877 -0.031517774 0
1.1154553 0.77378505 -0.057023697 0
-1.5201035 0.84231949 -0.027092889 0
-1.4593948 0.83448076 -0.023216205 0
-1.3489559 0.84900904 -0.04001433 0
-1.2464908 0.84838265 -0.041377153 0
-1.1518514 0.86200559 -0.049683522 0
-1.0815547 0.83756524 -0.049481403 0
-0.91892588 0.89132088 -0.065578908 0
-0.8400386 0.85451514 -0.043906514 0
-0.7305848 0.84670901 -0.030426387 0
-0.6679253 0.83644354 -0.037297964 0
-0.56380397 0.84155411 -0.055402402 0
-0.35501337 0.85546029 -0.070457734 0
-0.240881 0.83121425 -0.053457521 0
-0.16763054 0.83774179 -0.047340751 0
-0.057416026 0.83454692 -0.053774957 0
0.034691386 0.85290915 -0.034922872 0
0.1541004 0.85722345 -0.05141313 0
0.25732735 0.83730888 -0.044647779 0
0.344446 0.85227978 -0.039969176 0
0.45073041 0.84640312 -0.026641021 0
0.5466125 0.84604275 -0.051641624 0
0.658629 0.84522665 -0.052396167 0
0.75511956 0.85516441 -0.0591789 0
0.84859443 0.84614897 -0.074594118 0
0.93436557 0.8613115 -0.085925788 0
1.1872276 0.82389253 -0.065011844 0
1.2589999 0.87400001 -0.072999999 0
-1.5262485 0.94956934 -0.029028367 0
-1.4563193 0.92640328 -0.038079597 0
-1.3371235 0.94758713 -0.021652732 0
-1.2587651 0.95936203 -0.067206204 0
-1.1393765 0.95292717 -0.047817066 0
-1.0502801 0.93651676 -0.036784522 0
-0.9498598 0.9777838 -0.055280782 0
-0.85160941 0.92332155 -0.031466216 0
-0.76070142 0.90978348 -0.051339205 0
-0.65841407 0.93809414 -0.069870278 0
-0.57469714 0.92014396 -0.044139799 0
-0.41975069 0.94615728 -0.08785145 0
-0.35383362 0.94879305 -0.086626425 0
-0.25103554 0.96053743 -0.078689054 0
-0.17022844 0.95379692 -0.06191716 0
-0.057578269 0.94775563 -0.068553805 0
0.052415177 0.96231103 -0.046482854 0
0.16034859 0.947864 -0.055669267 0
0.25739086 0.94009 -0.063781999 0
0.36657703 0.94478649 -0.053566422 0
0.4568094 0.94669986 -0.041589387 0
0.5518921 0.94899589 -0.032486968 0
0.64472091 0.94832629 -0.065918103 0
0.73436671 0.96693975 -0.066552185 0
0.83816934 0.9404586 -0.077349454 0
0.94646174 0.94441587 -0.088430427 0
-1.5656602 1.0508254 -0.024817955 0
-1.4406295 1.0884998 -0.057431739 0
-1.3438402 1.0477289 -0.038939733 0
-1.2274034 1.0516206 -0.04129564 0
-1.1392058 1.0556712 -0.038951207 0
-1.0466424 1.0356575 -0.048679527 0
-0.94940573 1.0442768 -0.059403367 0
-0.43013158 1.0333306 -0.096786246 0
-0.33123565 1.028493 -0.087843165 0
-0.26408476 1.0583252 -0.091844372 0
-0.18049395 1.0490049 -0.06998466 0
-0.073783562 1.0219376 -0.080808885 0
0.011047812 1.0377594 -0.011106106 0
0.15050054 1.035776 -0.070341349 0
0.24610901 1.0410223 -0.072420493 0
0.36011904 1.0340145 -0.086559296 0
0.44268373 1.0464758 -0.053891793 0
0.55061615 1.0422308 -0.04010978 0
0.65634352 1.0478748 -0.059757859 0
0.74508584 1.0675137 -0.06438072 0
0.86114353 1.0490899 -0.070095755 0
0.94654107 1.0664777 -0.089802451 0
-1.729 1.1900001 -0.057 0
-1.6450224 1.1252673 -0.050001867 0
-1.51 1.1289999 -0.041999999 0
-1.4508256 1.1556572 -0.040598784 0
-1.3656915 1.118868 -0.053918879 0
-1.2550322 1.1553154 -0.028600534 0
-1.1501262 1.1460036 -0.034905512 0
-1.0533867 1.1422027 -0.055692188 0
-0.99400145 1.1041749 -0.044436634 0
-0.33379012 1.1419954 -0.068963937 0
-0.21014692 1.1197276 -0.092085347 0
-0.19088525 1.1332326 -0.048008617 0
-0.080339245 1.1106244 -0.090932056 0
0.011792885 1.1532857 -0.015487861 0
0.16054013 1.1357591 -0.080550827 0
0.25132474 1.1471822 -0.077271685 0
0.32134616 1.1157501 -0.09531831 0
0.49078548 1.1472969 -0.015851749 0
0.56933713 1.1479378 -0.014857465 0
0.68037933 1.139134 -0.056460556 0
0.74089968 1.1659867 -0.06580542 0
0.96512812 1.1599132 -0.099303007 0
1.0475161 1.1240512 -0.098417528 0
-1.4341803 1.2632922 -0.030747753 0
-1.345934 1.2375249 -0.029997442 0
-1.252254 1.2912014 -0.054046523 0
-1.1520183 1.2385962 -0.033187769 0
-0.35948765 1.2284942 -0.072454922 0
-0.20622343 1.221725 -0.053702384 0
0.15965767 1.2528372 -0.037368678 0
0.25295898 1.2801827 -0.083749793 0
0.32001665 1.2461586 -0.086190067 0
0.53997803 1.2596679 -0.018905127 0
0.61174184 1.2603523 -0.013306725 0
0.75338989 1.2413157 -0.049349863 0
0.82057095 1.2500764 -0.092007689 0
-1.475 1.331 -0.046 0
-1.3015323 1.3468884 -0.045433126 0
-1.180174 1.3099753 -0.09225063 0
-0.38518518 1.3149931 -0.075945906 0
-0.22640876 1.3379498 -0.065143414 0
0.17060062 1.3416435 -0.037263457 0
0.25701559 1.3675022 -0.093118899 0
0.32249999 1.348 -0.085000001 0
0.87699997 1.351 -0.097000003 0
-1.426 1.488 -0.023 0
-1.3728309 1.427721 -0.032582808 0
-0.42373145 1.4447412 -0.081182383 0
-0.24739082 1.4594694 -0.065036409 0
0.18154356 1.4304497 -0.037158236 0
0.28166339 1.4578781 -0.088074833 0
1.2349563 1.4459845 -0.011300035 0
-0.46227774 1.5744896 -0.086418867 0
-0.26757616 1.5756943 -0.076477438 0
0.19524324 1.5416279 -0.03702651 0
0.29899999 1.545 -0.093999997 0
1.2904781 1.5114923 -0.023150017 0
1.346 1.577 -0.035 0
-0.49198765 1.6744943 -0.090454921 0
-0.28291434 1.6641867 -0.082171202 0
-0.2985017 1.7541193 -0.087909974 0
-1.0764759 -2.1344962 0.022426052 0
-1.0349587 -2.0472789 0.017158944 0
-0.99796557 -1.9695659 0.012465786 0
-0.94247591 -1.8529961 0.0054260506 0
1.7359999 -1.704 0.017999999 0
1.6762202 -1.6442202 0.025415711 0
-3.5580001 -1.5880001 0.038000003 0
-3.4598382 -1.5463653 0.021346107 0
1.5566608 -1.5246608 0.040247135 0
1.6164405 -1.5844406 0.032831423 0
-3.3410294 -1.4959733 0.0011893138 0
-0.94477403 -1.480803 0.064391315 0
-0.72911668 -1.4976245 0.00023007113 0
-0.69523335 -1.426249 0.012460142 0
1.4669912 -1.4349914 0.051370703 0
-1.097 -1.304 0.012000002 0
-0.86062336 -1.3486718 0.053318869 0
-0.75548488 -1.3343998 0.055939853 0
-0.66135007 -1.3548735 0.024690213 0
0.2787433 -1.3183936 0.012566022 0
0.3413333 -1.3039999 0.041333333 0
1.2766604 -1.3085449 0.011022791 0
1.3410804 -1.3415804 0.040373571 0
-1.0387154 -1.2349453 0.0078368112 0
-0.75878876 -1.2520353 0.045435697 0
-0.65149856 -1.2597532 0.040702105 0
-0.55549902 -1.2365656 0.048229333 0
0.16989557 -1.2640642 0.047514051 0
0.27642018 -1.2198267 0.023953753 0
0.33169612 -1.2706218 0.037699018 0
0.43701676 -1.2580425 0.040069398 0
0.52149999 -1.2255 0.036499999 0
1.1999809 -1.229466 0.021623733 0
1.2359202 -1.250319 0.035308018 0
1.474 -1.206 0.027000003 0
-0.98014379 -1.1655507 0.0036531277 0
-0.74074894 -1.1604478 0.037545916 0
-0.65589267 -1.1624409 0.034161914 0
-0.56097996 -1.1408832 0.018856833 0
-0.48144919 -1.1310456 0.02959897 0
-0.078000002 -1.15 0.021 0
0.00010235418 -1.1478527 0.027417604 0
0.15499263 -1.1481071 0.034856748 0
0.2689226 -1.1335322 0.019814529 0
0.35805139 -1.147343 0.026715452 0
0.44931114 -1.1693864 0.033708449 0
0.50587082 -1.1525596 0.030493857 0
1.0769616 -1.102932 0.027247466 0
1.1548815 -1.1457927 0.034905966 0
1.2414821 -1.1843424 0.047485381 0
1.3708197 -1.1385962 0.030398756 0
1.4345855 -1.1743605 0.023227911 0
-1.1272423 -1.0124822 0.013400511 0
-0.6462667 -1.0492535 0.025590265 0
-0.54256839 -1.0613949 0.015944267 0
-0.45168948 -1.0354735 0.0091232639 0
-0.071393952 -1.0540059 0.014806828 0
0.00046980556 -1.0468035 0.014556805 0
0.1441941 -1.0640856 0.025685396 0
0.25212401 -1.0414486 0.011612304 0
0.36603796 -1.0304579 0.018720182 0
0.43307686 -1.0677369 0.023847559 0
0.56999999 -1.017 0.048 0
1.0286511 -1.0395299 0.026179738 0
1.1015722 -1.0757413 0.029284293 0
1.2646486 -1.0555526 0.029671794 0
1.3628887 -1.0437524 0.016516266 0
1.411 -1.026 2.7188519e-14 0
1.74 -1.029 0.050999999 0
-1.107 -0.99400002 0.0089999996 0
-0.52935302 -0.93771726 0.0075452193 0
-0.43648985 -0.96012264 0.011673705 0
-0.062929302 -0.93100387 0.0068712179 0
0.0007349028 -0.97390175 0.0052784025 0
0.13339557 -0.98006415 0.016514048 0
0.25023976 -0.95190316 0.010355651 0
0.34844288 -0.93325108 0.0097475229 0
0.41967463 -0.9581598 0.013621415 0
0.55755609 -0.9595241 0.039795361 0
0.66190755 -0.9375053 0.031775557 0
0.89243293 -0.913131 0.035683066 0
0.97034305 -0.96282917 0.016004117 0
1.0682292 -0.95385122 0.011134735 0
1.1587771 -0.95968163 0.025584059 0
1.2597136 -0.98550642 0.016327543 0
1.5906248 -0.9385829 0.034060542 0
1.6662855 -0.98438048 0.042640619 0
-0.64292556 -0.81021965 0.024403932 0
-0.54894978 -0.85928959 0.012309182 0
-0.49002466 -0.8440361 0.00056230463 0
-0.10651206 -0.88274634 0.011249482 0
-0.061531406 -0.85377306 0.0078237522 0
0.029518755 -0.89306021 0.0036782958 0
0.15381068 -0.87679172 0.012630342 0
0.24885833 -0.86958408 0.0026889746 0
0.33023405 -0.85140049 0.0031237309 0
0.46138138 -0.83090359 0.011913538 0
0.53644031 -0.85928577 0.012020923 0
0.60762757 -0.86944848 0.011890212 0
0.79799998 -0.81599998 0.039999999 0
0.83092338 -0.84986407 0.03849493 0
0.97763455 -0.83035165 0.015519224 0
1.0369234 -0.87188041 0.01265745 0
1.1218091 -0.88000429 0.0038850289 0
1.3636427 -0.80119026 0.0083203092 0
1.4393034 -0.84698784 0.01690039 0
1.5149641 -0.89278537 0.025480468 0
-0.53146273 -0.77202648 0.0088686319 0
-0.058555253 -0.76064748 0.0044292351 0
0.16084751 -0.74598205 0.028452156 0
0.39027891 -0.74349445 0.018435422 0
0.44148764 -0.74730301 0.0091130519 0
0.53234762 -0.75889158 0.012838201 0
0.9128173 -0.77567583 0.0062596123 0
1.8300045 -0.71475089 0.036329057 0
1.9405022 -0.75437546 0.026664529 0
2.0510001 -0.79400003 0.017000001 0
2.125 -0.70599997 0.028999999 0
-0.54492557 -0.68971968 0.0054039303 0
0.35571 -0.68337393 0.025815783 0
0.43906793 -0.67885625 0.026660806 0
1.7321696 -0.67966723 0.044886038 0
1.8514922 -0.61926502 0.0045226514 0
1.9316564 -0.6446867 0.011696868 0
2.0519023 -0.68281925 0.022458196 0
1.605 -0.56 0.0029999986 0
1.6676688 -0.49805558 0.0036451239 0
-2.221 -0.32800001 0.052000001 0
-2.1416845 -0.31778145 0.042105835 0
-2.0597475 -0.30722514 0.03188467 0
1.2423631 -0.3013621 0.034386784 0
1.3238904 -0.3204897 0.024509426 0
1.4461815 -0.34918106 0.0096933916 0
1.648 -0.37099999 0.0050000027 0
2.2479999 -0.30199999 0.0099999998 0
-1.9778106 -0.29666886 0.021663502 0
-1.8549054 -0.28083444 0.0063317516 0
1.1454178 -0.27861726 0.046132073 0
1.4407318 -0.20119917 0.032400183 0
1.5304283 -0.21239927 0.029911272 0
1.6201247 -0.22359934 0.027422365 0
1.7546694 -0.24039948 0.023689002 0
1.889214 -0.25719962 0.019955637 0
1.9789106 -0.26839972 0.017466728 0
2.0686071 -0.27959982 0.014977818 0
2.1583035 -0.29079989 0.012488909 0
-1.588028 -0.18014772 0.010859746 0
1.3310177 -0.18749955 0.035444543 0
1.38 -0.068000004 0.010000002 0
1.4329853 -0.070099816 0.0055903904 0
1.5703311 -0.04968226 0.0053576417 0
0.85519981 0.036433015 0.016661538 0
0.98244405 0.011496254 0.022987803 0
1.0706663 0.012353932 0.017703831 0
1.1588886 0.01321161 0.012419859 0
1.2471108 0.014069288 0.0071358867 0
1.3353331 0.014926966 0.0018519149 0
1.7439895 0.013654834 0.00077115372 0
1.8264842 0.013482251 0.0071567316 0
1.9502263 0.013223376 0.016735097 0
2.0569999 0.013 0.025 0
1.3620771 0.16723174 0.021792164 0
1.458276 0.18644637 0.036477886 0
1.5833826 0.20268828 0.014529373 0
-0.37966669 0.47566667 0.019666666 0
-0.29300001 0.49599999 0.021999998 0
0.66961557 0.47157556 0.0058793072 0
0.76129603 0.48915249 0.023336306 0
0.801 0.49599999 0.0049999999 0
1.5499449 0.48391885 0.010705948 0
-0.44844332 0.56080109 0.011260489 0
-0.35353896 0.55767006 0.016271008 0
-0.25662345 0.54158622 0.015550781 0
-0.17741223 0.57725835 0.016166991 0
0.44599998 0.58999997 0.011 0
0.56951725 0.53096962 0.0021645573 0
0.64691377 0.56300014 0.011038967 0
0.74072903 0.54330397 0.010904121 0
0.85569811 0.55623353 0.019063976 0
0.9383868 0.57756102 0.019253384 0
1.1523731 0.56365764 0.012937825 0
1.2486445 0.55398113 0.010144774 0
1.344 0.52399999 0.0040000002 0
1.4257928 0.55527371 0.012419853 0
1.5075856 0.58654749 0.020839706 0
1.6727799 0.5226754 0.012823792 0
1.7546699 0.54851311 0.014235689 0
1.83656 0.57435083 0.015647586 0
-0.75800002 0.69099998 0.029000003 0
-0.68699998 0.69499999 0.023 0
-0.53759515 0.658373 0.0086954786 0
-0.45964962 0.64404702 0.0098523293 0
-0.32906476 0.64708513 0.0065983613 0
-0.24308228 0.65358758 0.0091041652 0
-0.14388222 0.64338201 0.0150498 0
0.44111577 0.6418944 0.0089987246 0
0.56871474 0.66701478 0.0077457768 0
0.67028165 0.64133346 0.011527089 0
0.75107306 0.6623708 0.01958104 0
0.82929873 0.66889876 0.012116594 0
0.95474243 0.62617636 0.021748312 0
1.0388931 0.66831475 0.036036942 0
1.144467 0.69990259 0.040633462 0
1.5893785 0.61782122 0.029259557 0
1.6711714 0.64909494 0.037679411 0
1.7529643 0.68036866 0.04609926 0
1.9184499 0.60018849 0.017059483 0
2.0571899 0.6439634 0.019451551 0
-0.83097291 0.7646203 0.024569586 0
-0.75490534 0.73867756 0.030462198 0
-0.64275694 0.74551749 0.011396868 0
-0.56190968 0.73730111 0.007812107 0
-0.42626983 0.75893468 0.0031293719 0
-0.3475959 0.74497473 0.011815672 0
-0.26514426 0.76016015 0.010526844 0
-0.15112147 0.74538207 0.0097182374 0
0.024719989 0.7634508 0.013040204 0
0.167 0.79400003 -2.2771503e-14 0
0.26699999 0.787 0.003 0
0.347 0.77200001 0.013499999 0
0.45699999 0.79500002 0.019000001 0
0.56098223 0.74799079 0.0039313971 0
0.63395053 0.75203067 0.0097621633 0
0.74799484 0.74996704 0.020722955 0
0.84552819 0.75028199 0.030680871 0
0.9346512 0.78714329 0.034828007 0
1.068 0.72399998 0.039000001 0
1.148 0.70200002 0.041000001 0
1.8347571 0.71164238 0.054519113 0
1.9574463 0.75855303 0.067148894 0
2.0239999 0.78399998 0.074000001 0
-1.3998818 0.87246227 0.00035414472 0
-1.1493047 0.88017005 0.032637384 0
-0.94467765 0.87254107 0.013113255 0
-0.86906481 0.849792 0.020541504 0
-0.73342454 0.86274874 0.014591947 0
-0.66925651 0.82810813 0.018565299 0
-0.23999999 0.81099999 0.024999999 0
-0.16220421 0.83479214 0.010978138 0
0.035371792 0.85781473 0.0090523073 0
0.17586444 0.84396327 0.0064468668 0
0.28680599 0.85291684 0.0085704355 0
0.37684879 0.81497926 0.017888999 0
0.43481952 0.85232198 0.014555804 0
0.53796458 0.8628509 0.016124016 0
0.66039711 0.85011393 0.01062571 0
0.76674378 0.84636593 0.029014729 0
0.87163186 0.83620656 0.031911366 0
0.94518352 0.84808528 0.047178 0
-1.6059999 0.99900001 0.030999999 0
-1.5404698 0.95877045 0.021256905 0
-1.4687169 0.93898475 0.010517779 0
-1.358232 0.95552462 0.010683537 0
-1.2381885 0.95615143 0.018001245 0
-1.1708109 0.92393059 0.022511292 0
-1.0109169 0.93275928 0.0056025144 0
-0.94900531 0.9614163 0.0096643446 0
-0.73631978 0.91826767 0.015413327 0
-0.65464431 0.98860645 0.0010242756 0
-0.18536547 0.94306397 0.022010699 0
0.038663603 0.94295329 0.0080443081 0
0.33937573 0.94275838 0.015051179 0
0.45313853 0.94954866 0.0046972428 0
0.57282645 0.9501074 0.027606854 0
