# .PCD v0.7 - Point Cloud Data file format
VERSION 0.7
FIELDS x y z intensity
SIZE 4 4 4 4
TYPE F F F F
COUNT 1 1 1 1
WIDTH 238
HEIGHT 1
VIEWPOINT 0 0 0 1 0 0 0
POINTS 238
DATA ascii
-3.2398067 -2.2016501 -0.084141858 3
-3.3359764 -2.1528368 0.60544235 8
-3.4180863 -1.8056413 0.65453577 8.5
-3.3437285 -2.1111202 1.0480477 11
-3.4268305 -1.8435316 1.0468857 11
-3.3074007 -2.1322956 1.2432799 12
-3.4847293 -1.7996755 1.3911138 13.75
-3.5361636 -1.5641236 1.3776572 13.5
-3.4294276 -1.7117412 1.84473 16.833334
-3.4850357 -1.5618116 1.7595711 16
-3.3918025 -1.9086994 2.0326066 18
-3.1219988 -1.5234499 -0.073454134 3
-3.0026793 -1.6612394 0.20358464 5
-2.9627457 -1.5903691 0.34791788 6.5
-3.067596 -1.6006466 0.63861638 9
-3.0147722 -1.5886819 0.58773875 8.3999996
-3.0596962 -1.6054186 0.89862335 11
-2.9469576 -2.0504713 1.8441867 17.5
-2.8434184 -1.9672771 2.0259461 19
-2.5325158 -0.99657881 -0.08207278 2.3333333
-2.4082088 -0.9273591 0.21337582 5.8333335
-2.4085541 -0.98680973 0.42465407 8
-2.0895207 -2.5791445 -0.042210586 3
-2.1344872 -2.2858438 -0.076436125 2.5
-2.3366315 -0.84473968 -0.10187595 2
-2.2134449 -0.57169014 -0.079182729 2.2857144
-2.0646956 -2.9885902 0.11109253 4
-2.1713548 -2.1573243 0.28020796 6
-2.3521421 -1.0337176 0.29248461 6.8333335
-2.2281687 -0.58798212 0.1889452 5.8333335
-2.2243023 -0.34320903 0.050468929 4
-2.2069397 -2.1256466 0.51158243 8.166667
-2.3798072 -0.86327893 0.51561034 9
-2.173605 -0.52250528 0.58968621 11
-2.1550915 -0.29261696 0.7189855 12.5
-2.0736558 -2.948478 1.0645579 12
-2.0835783 -2.5970156 0.96430618 11.75
-2.1128523 -2.2772584 0.91840714 12
-2.3595405 -0.81769544 1.0425999 15
-2.2820044 -0.76544416 0.99286628 15
-2.1996446 -2.1847653 1.3934588 15.8
-2.2274463 -1.9918542 1.5173181 17
-2.1608582 -2.2507627 1.8052764 19
-2.1479256 -2.3237855 2.0598309 21
-2.0765133 -0.87628806 2.2566361 27
-2.0862348 -0.68056655 2.2094095 27.166666
-1.6491398 -1.7516646 -0.18448816 1
-1.9056741 -1.4527981 -0.18182266 1
-1.9759369 -0.980537 -0.18037026 1
-1.8866315 -0.62739933 -0.17524165 1
-1.6681857 -0.21648963 -0.014960181 3
-1.6061201 -0.15921086 0.16291802 6.4000001
-1.6118941 0.51995826 0.35886309 9.5
-1.6515102 1.4199123 0.25531602 7
-1.7990037 -0.23548433 0.59514755 12.5
-1.6445365 1.4146957 0.41232139 9
-1.6229087 1.4352152 1.1823301 18
-1.9646093 0.59805691 1.5058162 22
-1.6268563 1.4152063 1.2723322 19.5
-1.7800413 0.72177494 1.8435569 26.333334
-1.6314925 1.0917405 1.7880638 25.333334
-1.7570709 -1.7764927 2.3714628 26
-1.8036162 -0.92596054 2.3620164 29
-1.8172574 -0.628869 2.3672452 30
-1.9116435 -0.3892335 2.3056469 29.5
-1.7244612 0.84917009 2.0513937 28
-1.7789642 -1.8797383 2.4535165 26
-1.7162143 -0.87811404 2.437465 30.5
-1.6988331 -0.76281357 2.4239178 31
-1.2549635 -1.2578511 -0.18256807 0
-1.3465335 -0.99394053 -0.11437561 1.4
-1.2894348 -0.6792649 -0.072285831 1.5
-1.4439725 0.22182256 -0.034799684 2.75
-1.5059912 0.58555418 -0.068934076 1.8571428
-1.5113858 0.96202153 -0.055839047 2.3333333
-1.4419069 1.4042295 -0.1123044 1.75
-1.4093008 -1.0053298 0.09702915 4.8333335
-1.3178654 -0.65001106 0.028060324 4
-1.5869744 -0.18571039 0.19204922 7
-1.4577944 0.24180266 0.14053366 6.0714288
-1.5515825 0.59070724 0.20239384 6.8461537
-1.3122683 1.3816452 0.024529487 3.6666667
-1.4129869 2.9650838 0.10809695 4
-1.5857226 -0.20380329 0.46341029 11.666667
-1.476284 0.2935957 0.40615684 11
-1.5607163 0.60601044 0.42673963 10.5
-1.3474332 1.5319357 1.0764765 18
-1.4367096 1.4802396 1.4482833 21.799999
-1.598848 -0.15636624 1.871721 29
-1.5740575 1.0878512 1.7885987 26
-1.4325612 1.392013 1.7738345 25.153847
-0.9586643 -1.7305409 -0.18156172 0
-0.9319461 -1.4981265 -0.13120942 1
-1.1268082 -1.0316517 -0.066298693 2.3333333
-1.1874622 0.6999439 -0.058261935 2
-1.0423049 0.95508796 -0.05896863 2
-1.0898538 -1.27005 0.036037669 4
-1.1152534 -1.0106391 0.010861396 3.5
-1.0686446 0.6083889 0.3135514 11
-1.0883836 3.4761462 0.13014634 4
-0.96749353 0.63211155 0.69191235 19.5
-1.0790184 0.59129608 0.89398998 22
-1.1730049 1.4604927 1.8539321 27
-0.81884021 -2.0226595 2.3529198 28
-0.81698167 -1.96452 2.4992108 29.5
-0.47654146 -1.2427188 -0.055005118 2
-0.42609149 -0.5784809 -0.016072771 2.6666667
-0.58619887 0.6891852 -0.033209246 2
-0.73638421 0.90623814 -0.049013842 2
-0.53195196 1.3516514 -0.15631133 0
-0.45768559 -1.2449371 0.058259673 4.5
-0.46290714 -0.92419577 0.0064404821 3.5
-0.43034875 -0.53213662 0.083372049 7.1666665
-0.43181333 -0.39479432 0.16437851 11.5
-0.54149944 0.75360626 0.13257235 7.5
-0.52268022 0.75931239 0.59072673 20.571428
-0.51409698 -2.0986776 2.370471 28.333334
-0.55969745 -1.9341272 2.3807113 29.333334
-0.42909625 -2.0920849 2.4147925 29
-0.0099338489 -2.9218473 -0.18545681 1
-0.10319402 -2.1045737 -0.13926004 1
-0.35592136 -1.3001362 -0.052557636 2
-0.24208441 -0.99790347 -0.043154556 1.875
-0.22537196 -0.65552628 -0.03244007 1.8
-0.16976023 0.66814262 -0.021374414 2.3
-0.22135125 0.8392933 -0.069156252 1
-0.39035571 1.4837365 -0.15592384 0
-0.27527091 1.7852769 -0.14093849 1
-0.37925521 -1.2094344 0.1330381 6.3333335
-0.16337545 -0.94606102 0.16365173 8.4516125
-0.28990939 -0.50941765 0.24231149 14.8
-0.22949462 0.71318442 0.12764999 8
-0.20967856 0.83197856 0.15385517 8.636364
-0.071915627 -0.89865255 0.53431594 19.166666
-0.16464788 -0.57523739 0.5719955 26
-0.28325704 0.59087098 0.48802093 23
-0.12970445 -0.9014883 0.82592648 25.5
-0.23394597 -2.1276886 2.3594611 28.200001
-0.34994867 -2.0843735 2.4137809 29
0.33985913 -1.7286667 -0.031220691 3
0.2365444 -1.3747027 -0.086302064 1
0.10799687 -1.007099 -0.028039206 2.5
0.21332976 -0.71255553 -0.017845485 2.5
0.17431311 0.76254934 -0.031399403 2
0.20264493 0.84867448 -0.035147976 2
0.24581306 1.4900391 -0.1259103 0.33333334
0.046132442 -0.90727991 0.21698977 10.222222
0.2148412 -0.71230447 0.17506167 10.115385
0.20312932 0.65600806 0.23135185 13.368421
0.18982941 0.84534073 0.061762895 5.5
0.29582304 1.5524201 0.031428233 4
0.054162648 -0.91674811 0.50836277 18.5
0.23420037 -0.71434253 0.56484461 22.5
0.27581987 0.58037895 0.57332325 25.047619
0.19291103 -2.161232 2.3563206 28
0.72228718 -1.7601745 -0.13424537 1
0.6591264 -1.3407894 -0.11148855 1
0.62927794 -0.92537254 -0.020762833 2.75
0.52686465 -0.68003112 -0.030277552 2
0.75853336 -0.33522052 -0.033003327 2
0.5259524 0.5746038 -0.032599021 2
0.60993719 0.9846009 -0.088918298 1.5
0.65537149 1.282239 -0.10398748 1
0.47907433 -1.2486463 0.036870498 4
0.73141301 -0.86849058 0.052180771 4.5
0.56448656 -0.63796604 0.2103516 10.25
0.70594519 -0.35608023 0.18112887 9.8000002
0.50792587 0.58433354 0.16503313 9.3214283
0.51205456 0.85934567 0.038737271 4
0.56049186 1.2953404 0.091371156 5.25
0.59087384 -0.55184484 0.51308376 19.9
0.73436874 -0.34604147 0.55813003 21.200001
0.58695805 0.52979308 0.5792616 22.200001
0.78290778 -0.81415993 0.99693847 25
0.77093273 -0.79913706 1.011941 26
0.52382088 -2.2075815 2.3588319 27.333334
0.5704906 -2.0530288 2.5377803 29.666666
1.0334567 -1.3297735 -0.13607635 0.5
0.85946161 -0.66775566 -0.040902264 2
1.0920898 -0.33474091 -0.058338545 2
1.0904546 0.64025897 -0.043269172 2.2222223
0.93605232 0.89815193 -0.089648858 1
1.0481335 1.2548774 -0.12884948 0.5
1.1687706 -2.4681087 0.091597058 4
0.84442723 -0.77634299 0.06674327 5
0.94539744 -0.05610586 0.19699967 10
0.82741904 0.046239588 0.12724303 7.5
1.1164808 0.59411609 0.049936604 4.5
0.95417857 0.8756327 0.048860762 4
1.1181159 0.60263026 0.57754666 16
0.80788237 -0.8281678 0.94293565 24
0.91590244 -0.32203734 0.98224562 27.25
1.1322534 -1.6990936 2.3780146 29.333334
1.0010575 -1.8288288 2.479435 29.5
1.1126347 -1.5464785 2.4057963 30
1.2910836 -2.7353647 -0.19546163 1
1.2869595 -1.3755119 -0.17195979 0.5
1.4601443 -1.0286291 -0.02859767 2.5
1.3776101 -0.58670712 -0.16852053 0
1.4996934 -0.1895154 -0.077626623 1.75
1.4848549 0.22031175 -0.1049076 1.2857143
1.384251 0.50957686 -0.090710558 1.5714285
1.2978432 1.0167887 -0.15680449 0
1.3582686 -1.2266132 0.043863799 4
1.5917963 -0.58859879 0.17672339 6.5
1.3797539 -0.067250177 0.010012964 3
1.536275 0.33572903 0.13784629 5.7142859
1.4242848 0.48575121 0.11908594 5.4000001
1.569348 0.21469174 0.55952042 13.333333
1.4980422 0.49063393 0.55795902 13.5
1.5864046 -0.078818634 0.86101824 18
1.2891376 -1.4908552 2.3594346 29.5
1.4633259 -1.4584211 2.5364027 29.666666
1.6986858 -1.0417649 -0.060345389 2.5
1.6600014 -0.47758543 -0.095776506 1.5
1.7218904 -0.30984455 -0.10876317 1
1.7682999 0.18015945 -0.091596805 2
1.8197533 0.5506528 -0.16364662 1
1.6936939 -1.0413598 0.10790458 5
1.6573374 -0.56718129 0.09199135 4.8571429
1.6495016 -0.088402316 0.76376963 16.5
1.6072141 0.20683901 0.42802235 11
1.6048089 -0.13032237 0.87101644 18
1.8315557 -0.97532332 2.5528958 29.857143
1.8852373 -0.76382899 2.5521216 30
2.1397946 -1.0196855 -0.056080587 3
2.0310185 -0.61261141 -0.14202082 1
2.1367619 -0.09693227 -0.052967008 2
2.0080147 -0.80927426 2.5579507 29
2.0225351 -0.75108695 2.5554597 29
2.488003 -0.56517756 -0.1570037 1
2.4699581 -0.36859664 -0.17598109 1
2.7949615 -0.41354015 0.022022806 3
2.8849604 -0.4164983 -0.13297504 2
2.9689016 -0.30010197 -0.16996033 2
3.0221543 -0.22013682 1.093049 13.666667
3.0043294 -0.23585723 1.315547 15.5
4.1009312 2.766988 -0.11698107 2.5
