# .PCD v0.7 - Point Cloud Data file format
VERSION 0.7
FIELDS x y z intensity
SIZE 4 4 4 4
TYPE F F F F
COUNT 1 1 1 1
WIDTH 502
HEIGHT 1
VIEWPOINT 0 0 0 1 0 0 0
POINTS 502
DATA ascii
-23.604641 -16.989424 14.918773 17
-23.609247 -17.106297 15.329702 18
-23.779621 -16.625895 15.426104 18
-23.451178 -17.364555 14.371952 17
-23.486259 -17.20927 15.455564 18
-22.810421 -18.472939 14.499449 17
-22.987165 -18.171127 15.021713 17
-22.944796 -18.33613 15.5161 18
-23.147749 -17.883379 15.919971 18
-19.030386 -30.461943 12.089909 13
-18.093403 -2.5163124 3.3886492 9
-18.159922 -2.351254 3.7524107 9
-17.88876 -2.879777 3.2705297 9
-17.978998 -2.7373979 3.8082802 9.5
-17.908939 -2.8885896 4.2345381 10
-16.444159 -5.7060027 2.7732263 8
-16.648306 -5.3398242 2.7747564 8
-16.597809 -5.4442153 2.9986103 8
-16.404484 -5.8146205 3.2480893 9
-16.542404 -5.5122633 3.2834976 9
-16.586809 -5.4490843 3.6950979 9.5
-16.274052 -6.0764236 2.7777336 8
-16.215586 -6.1897354 2.9925804 8
-16.389677 -5.8143559 2.9910769 8
-16.15444 -6.273252 3.3821211 9
-16.345079 -5.9357934 3.3169248 9
-14.215371 12.175274 -0.42112225 3
-12.537847 5.4658022 -0.27434704 3
-12.656241 2.7017117 0.96329111 6
-12.651091 3.208123 1.1943672 6
-12.643459 2.6731129 1.5983825 7
-12.6843 2.9880979 1.5701864 7
-12.695845 3.3823366 1.6079289 7
-12.28131 -0.66841465 0.087298512 3
-10.665664 -4.6171284 2.2716196 9
-10.63394 -4.6117797 2.5560999 10
-10.086577 -29.059383 15.550831 17
-9.7510042 9.9830236 2.7148788 9
-9.7983122 -29.072573 15.802874 17.5
-9.692112 -29.020439 16.746895 18
-9.5330296 10.118096 3.9312699 12
-9.5735197 -29.052204 17.52491 19
-8.8349257 -28.536215 16.369059 18
-8.5749626 -28.572992 15.145774 17
-8.2347593 -10.012127 -0.2337476 3
-8.1329012 -8.2031622 -0.22116373 3
-8.1812515 -7.5179987 -0.21885628 3
-8.0374956 -4.8965459 -0.0055008424 3
-8.1586494 -0.87978572 -0.096645191 3
-8.3109779 -8.5954809 0.26175976 4
-8.2801628 -8.3608541 0.3398374 4
-8.2318106 -7.6013198 0.32413122 4
-8.2041054 -7.4010811 0.17170721 4
-8.1663103 -6.6827145 0.22353221 4
-8.2977238 -1.2651758 0.064017147 3
-8.2361307 -8.3547668 0.6918211 5
-8.1978455 -7.462276 0.65717721 5
-8.2083912 -6.8571439 0.53446698 5
-8.136714 -6.5925112 0.72256196 5
-8.2355013 -8.4486303 0.87078458 5.5
-8.1890574 -7.7090807 0.93456429 6
-8.1768856 -7.3418779 0.87622076 6
-8.2466269 -7.2456765 1.2233001 7
-8.2435579 -7.151042 1.5413431 7
-8.1038942 -4.6536083 1.535712 8
-8.2958107 -7.929462 1.6400199 8
-8.3192482 -7.1217051 1.8603959 8
-8.1578302 -4.6612244 1.766911 8.666667
-8.1777277 -7.7898407 2.1472747 9
-8.2124529 -7.0000362 2.1713996 9
-8.1804914 -4.6416793 2.0540242 10
-8.1144915 -7.0778818 2.4513123 10
-8.1362972 -28.628164 15.132195 17
-8.1639805 -28.606411 16.319189 18
-7.9444184 -2.2502003 1.5501393 9
-7.9254618 -2.2609534 1.8048635 9.5
-7.7659945 -29.177137 15.85426 18
-7.399467 -4.9862847 -0.010969555 3
-7.33886 -4.9494538 0.17901564 4
-7.3063803 -4.9560838 0.53749162 5
-7.4733562 -28.712515 15.076344 17
-7.5010514 -28.668745 16.27434 18
-7.4591579 -28.681726 16.970346 19
-7.1069403 -7.869348 -0.19745073 3
-6.8043976 -3.7335799 -0.00053154008 3
-6.8373814 -3.2414479 -0.12013617 3
-7.1444707 3.9472117 -0.089967571 3
-6.8428397 6.4061742 -0.23323098 3
-7.1588426 -28.776747 14.866421 17
-6.5005012 -9.714345 -0.089116707 3
-6.7164578 -2.6130373 -0.062699638 3
-6.7695704 -9.2752619 0.010040035 3
-6.7351141 -3.7036753 0.18044236 4
-6.6557946 -3.5056262 0.37553054 5
-6.4129634 -1.959651 0.013660047 3
-6.5834694 -3.6995897 0.5428406 5
-6.6325998 -3.5862763 0.51445526 5
-6.2603898 8.6345377 -0.0092736147 3
-6.3390784 -1.6235393 0.015935022 3
-6.2882099 -1.3075277 0.018225662 3
-6.272542 3.0648422 0.040936187 3
-5.6315346 2.9985411 0.23880154 4.5
-5.7163987 2.9864099 0.50534225 5.5
-5.9407172 -16.075247 2.784122 8
-5.7803926 -16.080805 2.9451425 8
-5.8111615 -15.781096 3.1561556 9
-5.7593579 -15.871438 3.409657 9.5
-5.2833996 6.0244088 -0.0042967065 3
-5.3258224 4.1843843 0.25646368 4.3333335
-5.2693224 4.4181237 0.23939638 4
-5.3017521 4.0673184 0.5303933 5.5
-5.4218898 -15.837944 3.1562068 9
-5.3531566 -15.86328 3.3892167 9.5
-5.565444 -29.332342 14.546889 17
-5.2329974 -29.376787 14.871004 17
-5.2618213 -29.383867 15.336993 18
-4.9850798 2.1803133 -0.1830076 2
-5.1266518 6.4177608 -0.0055132867 3
-5.0706964 7.0511684 0.20059742 4
-5.0903978 -15.901504 3.0907609 9
-5.0465245 -15.961931 3.5582657 10
-4.8578115 -29.352139 14.436137 17
-4.9821048 -29.310442 15.757092 18
-4.4439836 2.1833339 -0.17454457 2
-4.7879043 2.6267252 -0.2032558 2
-4.5482497 -29.345684 14.771252 17
-4.6039634 -29.365799 15.288231 18
-4.0837121 -7.7614555 -0.20407404 3
-4.0404353 -5.4890947 -0.20969835 2
-4.2533054 -2.8502393 -0.22162339 2
-4.3283753 -2.6084757 -0.2274304 2
-4.0482702 1.474243 0.61905694 7.8333335
-4.0519447 1.5425198 0.8181721 9
-4.1521378 1.7234267 1.2730749 12
-4.2715755 -29.442286 15.081356 17
-4.2914171 -29.326372 15.747351 18
-3.796648 -10.587487 -0.19428262 3
-3.6429045 -8.8450403 -0.18416089 3
-3.9713655 -8.4923944 -0.19915269 3
-3.7417257 -1.791229 -0.20026574 2
-3.7729406 -1.3962585 -0.19793473 2
-3.6715512 -1.1455886 -0.20179468 2
-3.6380613 -0.28805289 -0.19343273 2
-3.6995218 0.99654913 -0.208362 2
-3.9963191 1.5611185 0.52378696 7
-3.5692453 -5.336123 -0.20975555 2
-3.3117545 -3.045059 -0.20620805 2
-3.4862452 -0.90734518 -0.19472288 2
-3.4384925 -0.63319874 -0.19448775 2
-3.4562039 1.1061535 -0.19891812 2
-3.3642604 1.2517081 -0.19794442 2
-3.348567 1.9311422 -0.12012941 2
-3.3032072 1.9364371 0.17285222 4.5999999
-3.2391777 1.8786223 0.5948962 8
-3.3560197 1.8137679 1.0887306 12
-3.1096964 -10.132881 -0.162138 3
-2.9590306 -3.2845659 -0.20742048 2
-3.1503131 -3.1908057 -0.20932552 2
-3.1128006 1.1658779 -0.20910914 1
-2.9855459 1.2768664 -0.20697381 1
-3.1107178 2.1115479 -0.079800472 3
-3.0961833 2.0904176 0.26367745 5.1999998
-3.1327989 1.9806844 0.57237113 8
-3.1147354 2.1079865 0.52669793 7.3333335
-2.7063568 -13.449168 -0.18707132 3
-2.73891 -3.3353179 -0.20449644 2
-2.5377681 2.131537 -0.18728544 2
-2.2435417 -8.9163179 -0.17889121 3
-2.0045712 -3.8113096 -0.19265807 2
-2.2007074 -1.905009 -0.19774467 1
-2.1375132 -1.0333953 -0.18834701 1
-2.1619999 -0.73971075 -0.1806256 1
-2.2517228 -0.17478353 -0.18352668 1
-2.2143085 2.4997497 -0.18904746 2
-2.2761588 9.517992 -0.020140873 3
-2.2419984 -26.13707 12.960206 17
-2.0330114 -26.209887 13.299304 17
-2.1648483 -26.124477 28.694242 28
-1.863873 -1.2533598 -0.17713529 1
-1.8966804 -1.1509075 -0.17806765 1
-1.833027 1.3372502 -0.19537534 1
-1.8139527 1.9404937 -0.19051559 1
-1.633137 2.1406837 -0.18638462 1
-1.8639472 2.6796787 -0.18292008 2
-1.7328378 2.9810934 -0.096339941 2.5
-1.9543427 5.7207599 -0.01083634 3
-1.8084985 6.2302008 -0.012333252 3
-1.8092115 2.8526528 0.088096514 4
-1.7693316 9.4862156 0.045187101 3
-1.8887216 -26.206274 13.550375 18
-1.4048666 -3.4131682 -0.18556955 2
-1.2507234 -2.6445501 -0.18152006 1
-1.2135092 -2.2737741 -0.17049816 1
-1.2449819 -1.4586543 -0.17291887 1
-1.2568477 0.89813793 -0.18967883 0
-1.5442116 2.3557086 -0.18802217 1
-1.402343 2.5129607 -0.18442479 1
-1.4002243 3.2513273 -0.18219134 2
-1.2460051 9.4558868 -0.18247214 3
-1.0366297 -5.1369066 -0.18247092 2
-1.1875929 -4.7362928 -0.18353041 2
-1.1722041 -3.859561 -0.18452461 2
-1.1668445 -1.6618816 -0.17345202 1
-1.1110117 -1.3465348 -0.16424873 0
-1.1523488 1.0508034 -0.18702868 0
-1.0312805 1.2508247 -0.18775301 0
-0.91732168 2.1037514 -0.18348117 1
-1.037755 3.2162392 -0.17821421 2
-0.96106339 2.9630542 0.084915854 4
-0.9875111 9.4662619 3.9331541 15
-1.0576859 9.471736 4.1769767 16
-0.43242881 -2.9713092 -0.16922703 2
-0.48105004 -2.1840408 -0.16577777 1
-0.60198408 1.9292601 -0.1811568 1
-0.40275678 2.0122716 -0.1805871 1
-0.45495898 3.194016 -0.17576678 2
-0.70882702 3.2459345 -0.17795993 2
-0.67399567 -3.390645 0.073660418 4
-0.43336889 -2.1640496 0.22834641 6.4000001
-0.55086082 2.3161173 0.24782312 6.5714288
-0.57609618 2.9958842 0.084290497 4
-0.42591029 -2.1683204 0.45258409 9.5
-0.52626556 9.4191933 3.769002 14.666667
-0.42926222 9.4245052 4.1835561 16
-0.15292493 -3.0255678 -0.1680482 2
-0.25250334 -2.4711392 -0.16713353 1
-0.35168728 -2.3642743 -0.16719915 1
-0.24793537 1.9310957 -0.17676647 0.66666669
-0.099377066 2.041707 -0.17896692 1
-0.22988549 2.9423223 -0.087480702 2.5
-0.0014523206 -2.6339812 0.10204826 4
-0.19813426 -2.1433253 0.23668909 6.6363635
-0.37426314 2.3848097 0.24682857 6.5
-0.25135025 2.4852378 0.26918194 6.5
-0.24666744 2.8238602 0.086854525 4
-0.19562992 -2.1594045 0.50978804 10.2
-0.19368249 2.5450516 0.5716725 10
-0.21486439 9.3976154 3.4130998 14
-0.19592081 9.3957624 3.830548 14.8
-0.21697833 9.3028574 4.1287613 16
0.0073808874 -3.7139814 -0.010930514 3
0.0054896753 -2.7369838 -0.16694504 1
0.24269119 -2.1457384 -0.074382685 2.2
0.28965011 1.9724206 -0.17406301 1
0.15446517 2.0331855 -0.17642817 1
0.14098981 4.0735893 -0.16544345 2
0.04890969 6.3341713 -0.097032689 3
0.19613501 -2.1579487 0.21013658 6.2142859
0.22370864 9.3410654 0.095357336 4
0.12184323 -2.1405911 0.44292513 9.333333
0.33482513 9.3487692 0.62043208 5
0.24146265 9.354394 1.029879 6.6666665
0.35667691 9.3615541 1.861464 9
0.2086629 9.3554459 2.0836401 10
0.28838497 9.3089237 2.5729027 11.5
0.074345417 -26.184544 29.029415 28
0.53020251 -2.1712201 -0.10177233 1.75
0.77182788 -1.6342398 -0.15112141 1
0.68811452 2.0931339 -0.1700397 1
0.70349008 3.2395592 -0.0053700646 3
0.45056677 4.3155003 -0.16269255 2
0.68023348 4.4795823 -0.15949318 2
0.51926613 9.3260365 -0.1311177 3
0.61713064 -2.1940138 0.19532306 5.7777777
0.69525898 3.0273871 0.25771272 6
0.67654645 3.2439265 0.020070544 3.5
0.594289 9.3221664 0.24430721 4
0.66773659 -2.1860726 0.47746032 9.5
0.72856277 2.9174328 0.40970907 7
0.6624428 9.3284216 0.63819885 5
0.60358316 9.3307467 0.96306443 6.5
0.68813741 9.3286371 1.87826 9
0.60265779 9.3216887 2.1887834 10.2
0.61025631 9.1822042 2.5113413 11
0.43803996 9.265934 2.4558134 11
0.63446879 8.892128 3.4290204 14.25
0.55139107 8.8624592 4.0137653 16
0.40958562 -26.225405 28.793615 28
1.0015109 -2.8243325 -0.14802833 2
1.1077491 -2.7186902 -0.14590384 2
0.87872374 -2.1402912 -0.14508048 1
0.86031097 -1.4394454 -0.14568248 0.33333334
1.1716912 1.0865989 -0.15783891 0
1.000007 1.4512373 -0.16337195 0.5
0.9028241 1.9053881 -0.16290382 1
0.83800656 2.0050201 -0.16415466 1
1.0944347 2.6259956 -0.16468117 2
1.0891165 3.469768 -0.16302352 2
0.9138301 5.7069101 -0.012084235 3
1.1661098 -2.4659922 0.019194366 3
0.93398327 -2.2326958 0.25886881 6.5
0.98484176 2.7436132 0.22129279 5.625
0.87394124 2.8022308 0.39966184 7
0.91569281 9.2972527 0.24460787 4.4000001
0.98357946 -2.2276838 0.59973288 10.6
1.1255201 2.7084641 0.40024534 7
1.0182965 9.2989483 0.89828026 6.25
0.865008 9.3000345 1.4156975 8
1.0198535 9.3148146 1.9000114 9
1.0522636 9.2938137 2.2035339 10.333333
0.8226136 9.1843939 2.5158064 11
0.97621053 9.2876863 2.6969655 12
1.001472 8.8390646 3.4515381 14.5
0.84963483 8.8461409 3.8109486 15.5
1.1663706 7.324688 4.2847195 19
1.0339534 8.7890549 4.0134459 16
0.99248093 -26.366234 28.927967 28
1.251996 -1.757058 -0.14306411 1
1.4737276 -1.3735957 -0.14493383 1
1.4846408 -0.87510735 -0.14724705 1
1.4254608 -0.54292703 -0.1345679 0
1.47189 -0.23523733 -0.13536707 0
1.5091068 0.1623365 -0.14008188 0
1.5708275 0.59511238 -0.14928766 1
1.2214711 1.2890431 -0.16117044 1
1.486706 1.7969383 -0.15793793 1
1.2668635 2.6741636 -0.16247143 2
1.2595258 3.4458804 -0.16067918 2
1.4255644 -2.4909418 0.021483401 3.3333333
1.3794923 -2.2664971 0.34572217 7.25
1.5419095 2.6337843 0.31551844 6.5
1.2367603 9.27108 0.090546422 4
1.2966496 -2.2465951 0.5595718 9.5
1.2266693 9.2829332 0.53600627 5
1.374891 9.2817917 0.98382491 6.6666665
1.3958546 9.2682552 1.4338939 8
1.4668489 9.270462 2.2416437 10.4
1.2420312 9.1649618 2.5227468 11
1.4330621 9.262722 2.6354868 11.5
1.4394603 9.2955532 3.5079472 14
1.2112805 8.8375731 3.900244 16
1.4299507 9.2865524 3.7464445 15
1.4445525 9.280077 4.1854877 16
1.3299382 7.3151135 7.0985851 26
1.9677583 -4.1646457 -0.14816444 2
1.8205774 -2.5880921 -0.14458437 2
1.6787866 -2.0466816 -0.14112835 2
1.7993258 -1.8230487 -0.13926098 2
1.6698413 -0.47062376 -0.13966219 1
1.675882 -0.30576965 -0.1396181 1
1.8510917 1.5194206 -0.15919843 1
1.7910068 1.6186844 -0.16036707 1
1.7752277 2.3074059 -0.15620486 2
1.818042 -2.3163166 0.24780411 5.8333335
1.6010691 2.6753058 0.17504805 5
1.7528845 -2.2876797 0.57523495 9.166667
1.6456058 9.2573442 2.1904409 10
1.6836355 9.2414637 2.5595484 11
1.9913986 9.2661943 3.5111437 14
1.7826452 9.2669992 3.7370877 14.75
1.6728979 7.2946129 4.2258058 19
1.8612531 9.2408924 4.2054219 16
1.7065936 7.282383 7.0979037 26
1.931463 -26.382053 12.875563 17
1.7702025 -26.428932 13.952457 18
1.7800931 -26.45488 15.073464 19
2.0332723 -3.8371499 -0.1450548 2
2.1147382 -3.5797222 -0.14393008 2
2.3597822 -1.6054957 -0.13122271 2
2.2284734 -0.65297478 -0.13238424 1.5
2.3018925 -0.21962056 -0.1312568 1.5
2.1637285 0.26217508 -0.14016259 1
2.1594286 0.41760534 -0.14220189 1
2.0454838 1.0123342 -0.1485828 1
2.2032948 1.2943149 -0.1516306 1
2.0232549 2.2276061 -0.15277693 2
2.2576995 6.1000423 -0.12112211 3
2.2045803 -2.3412409 0.24816141 5.5
2.1565032 -2.3104181 0.54436386 8
2.216413 9.2455177 3.5366333 14
2.2459621 9.2495518 3.7836864 15
2.1780198 9.2210779 4.2303486 16
2.3991055 -26.475224 14.055873 18
2.0139601 -26.433987 14.767614 19
2.3572407 -26.49613 15.110846 19
2.7069168 -3.3477194 -0.02223506 3
2.4774818 -2.0450804 -0.1402038 2
2.6370132 -1.7852399 -0.14246078 2
2.6687007 0.21761134 -0.13545096 2
2.487792 2.4802527 -0.14549322 2
2.6502454 -2.363075 0.26058045 5.5
2.6987975 -2.356348 0.48697013 7.3333335
2.955884 -2.394001 -0.012750803 3
2.8006692 -1.535496 -0.1427203 2
2.9431942 -0.89763135 -0.14144804 2
3.0154393 1.7782137 -0.14419815 2
2.9443097 2.6497564 -0.085628904 2.5
2.9901266 3.0097036 -0.037988055 3
3.0250864 -2.4260881 0.15265183 4.1666665
2.8504219 -2.3851123 0.23563333 5
2.9513872 2.6773286 0.16484913 4.5
3.008297 3.0946269 0.14710061 4.3333335
3.0841763 3.3837852 0.012177508 3
3.0710733 -2.4243724 0.47057018 6.8000002
2.9206512 -2.3874905 0.63621163 8
2.9904191 3.1451049 0.47435042 6.5
3.0459189 -26.608643 14.218316 18
2.941354 -26.514496 15.145244 19
3.2564526 -2.4596081 0.050067086 3.5
3.2805371 3.952152 0.015714975 3
3.3722548 -26.572845 15.070045 19
3.7997177 1.6486027 -0.13381216 2
3.858 2.2563651 -0.0067214617 3
3.7130914 1.9595046 0.13837388 4
3.9077597 -26.520451 13.953931 18
3.6798165 -26.615191 14.318766 18
3.8101215 -26.560261 14.98186 19
4.2092638 -10.190271 -0.10746932 3
4.069047 -4.0666862 -0.11387011 3
4.07374 -1.4651392 -0.13138522 2
4.3016787 -0.13245508 -0.123654 2
4.3296051 0.82095802 -0.13537294 2
4.2797132 1.5166458 -0.14376383 2
4.2908702 -26.455845 14.334213 18
4.1096458 -26.502554 15.201079 19
4.5515571 -4.1562309 -0.11536139 3
4.6647248 -0.95109689 -0.098768875 3
4.6988559 2.4675524 -0.003025058 3
4.5015535 6.0092134 -0.06132219 3
5.0518408 -1.8194005 -0.11644408 3
5.0445967 -1.5473742 -0.1204273 3
4.8094001 -0.75288755 -0.10563218 3
5.00985 3.2776725 -0.1224113 3
5.0168695 -3.374866 0.2292853 4
5.050715 -2.6926007 0.31643769 5
5.0168705 -2.8342724 0.59487969 6
5.1024027 -2.7027097 0.64390671 6.5
5.3753176 -3.0712426 -0.091285534 3
5.3660436 -0.56147307 -0.087119922 3
5.4954033 -0.17546384 -0.092048198 3
5.5194936 2.2217772 0.26373014 4.5
5.5047803 2.5823574 0.0017051123 3
5.2205729 -2.5928316 0.65029597 6.5
5.5201726 2.2549934 0.57895809 6
5.6415153 -1.4328449 -0.082839012 3
5.6297193 0.49831137 -0.099075496 3
5.95784 0.81872553 -0.10588057 3
5.8843617 1.4487001 -0.12021731 3
5.677712 2.0721824 0.25598311 4.5
5.6525979 2.1078734 0.55051965 5.6666665
6.0912271 0.24318165 -0.10458484 3
6.0750504 1.1346327 -0.10889655 3
7.0676937 2.4816287 0.0083155604 3
7.0831051 2.8671219 0.0090712383 3
7.3551135 -2.6215851 0.39977482 5
7.2839894 -2.6259329 0.63570458 6
7.2855062 -2.6844387 1.0677013 7
7.4244418 8.8927002 2.9654665 10.5
7.4429359 8.8477316 3.4350541 12
7.426631 -30.041882 17.099621 18
7.3897457 -30.118746 17.512592 19
7.7938905 -30.120514 17.433918 19
8.0945435 -29.835217 17.119177 18
8.0795546 -30.069063 17.569157 19
8.7620735 -2.6820247 0.17314923 4
8.6195698 8.7668171 3.0172732 10.5
8.5443697 8.8527975 3.0265634 10.333333
8.4604254 8.7649918 3.2845635 11
8.5493221 8.7242785 3.6317332 12
8.9753571 8.7175503 3.0788038 10.5
8.8315697 8.7490215 3.3490767 11
8.9062853 8.5162706 3.6634617 12
9.0047226 6.7810097 4.1775813 14
9.0785866 6.7249975 4.527729 15
9.1529608 6.8500395 4.4706826 14
8.8860788 6.7634697 4.9974613 15.5
10.283354 0.90895432 0.38605389 4
10.236415 1.4748889 0.33080035 4
10.203966 1.9481908 0.33456475 4
10.260895 2.4458141 0.34237286 4
12.768792 -3.2629819 0.23300242 4
13.499166 0.57829869 0.5251072 4
16.965153 -11.483515 0.0855342 3
18.2078 -3.7621152 0.3101806 4
23.79431 -27.514668 16.642481 16
24.051567 -27.524029 19.001743 18
25.351807 -0.068151794 1.0261576 4
25.966843 -28.008959 14.65666 14
26.275526 -27.713284 11.983014 12
26.235233 -27.653923 17.363981 16
26.212299 -27.567953 19.741968 18
26.562359 -27.630524 13.108323 13
26.443827 -27.895828 14.398167 14
34.678268 -30.873627 10.190292 10
34.765469 -30.362003 10.865447 10
34.613522 -30.399069 17.181286 14
34.70385 -29.858624 17.62245 14
35.152206 -29.34074 10.811978 10
34.896469 -31.221287 11.914471 11
34.853256 -30.965033 13.18746 12
34.940102 -29.632772 12.924723 11
34.946667 -29.469601 14.175751 12
34.886806 -30.778053 14.46052 12
34.868507 -30.544882 15.74853 13
35.106331 -29.106033 19.090963 15
34.964638 -29.255148 20.5418 16
34.829803 -29.647976 23.606606 18
35.589867 -29.241213 17.745445 14
35.748116 -28.770857 10.504667 10
35.89262 -29.146194 11.685766 11
35.953396 -28.977701 14.284852 12
47.998314 -5.127223 1.4320618 4
