# .PCD v0.7 - Point Cloud Data file format
VERSION 0.7
FIELDS x y z intensity
SIZE 4 4 4 4
TYPE F F F F
COUNT 1 1 1 1
WIDTH 204
HEIGHT 1
VIEWPOINT 0 0 0 1 0 0 0
POINTS 204
DATA ascii
-3.5964932 -1.5451263 0.17867945 5
-3.407161 -1.8149525 0.255707 5
-3.5814316 -1.4991541 0.39167902 6
-3.4400887 -1.7769433 0.4877021 7
-3.5592809 -1.6494832 0.69318634 8.5
-3.5311425 -1.321311 0.79667825 10
-3.3184135 -0.95188314 -0.063309707 3
-3.2777634 -0.59928852 -0.063299656 3
-3.3216519 -1.0627397 0.17768985 5
-3.3384306 -0.95885587 0.047688942 4
-3.3069475 -0.69214982 0.17769557 5
-3.2867239 -0.57430452 0.029700723 4
-3.3771615 -1.7989651 0.38670862 6
-3.3246832 -1.0737164 0.2796897 6
-3.3078825 -0.6531859 0.26069668 6
-3.2947457 -0.57027406 0.39570037 7
-3.3195906 -1.0142579 0.51468998 7.5
-3.3126347 -1.0297326 0.63469046 9
-3.2866023 -0.4283295 1.7797072 18
-3.3314412 -0.87427437 1.8846904 18.5
-3.2796042 -0.42332855 1.9077077 19
-3.2743752 -0.81983745 2.1436944 20
-3.0647211 -0.45636746 2.1397195 21
-2.088093 -0.14136104 0.29479784 7
-2.1071551 -0.90720594 2.1627703 26
-2.1668775 -0.42280367 2.1357741 26
-2.1100042 -0.84426248 2.3257692 27
-2.0906971 -0.72241974 2.34377 28
-1.950575 0.67355174 1.518914 22
-1.9904453 0.20122081 1.828841 26
-1.9355338 0.70251507 1.9094201 25.5
-1.9385411 0.70052254 2.051919 27
-1.9712763 -0.90323609 2.3647788 28
-1.9519025 -0.76141548 2.3857784 29
-1.7265502 -0.11509146 -0.04717828 2.5
-1.7305628 -0.11707871 0.064821295 4.5
-1.7878753 -1.3997695 2.356823 27
-1.7299807 -1.0631306 2.3768024 29
-1.7366393 -0.95025766 2.3737969 30
-1.7039862 -0.71955234 2.3897943 31
-1.5040776 0.82639885 0.11665208 5
-1.5895716 0.54745579 0.33192539 9
-1.4428824 0.60179132 0.23444964 7.5
-1.5575695 0.54044777 0.45692721 11
-1.548762 1.1297685 1.7750376 26
-1.5728861 1.0258927 1.8370156 27
-1.4972874 -2.1113946 2.3539581 25
-1.5466816 1.2086803 2.3880525 30
-1.4384081 -1.3908827 2.5518594 31
-1.4713998 1.5543259 2.5471256 29
-1.413324 1.6402293 2.5821483 30
-1.3572009 0.67115128 0.38097203 10.5
-1.3847903 -1.8385813 2.5549304 28
-1.0049309 0.62695712 0.35600534 12
-1.0617216 0.52213866 0.71597582 19.5
-1.0129462 0.62396657 0.65500367 18
-1.1332208 0.55714583 0.92197472 22
-1.0942413 -1.7907766 2.5569694 30
-0.942132 0.7520228 -0.06395898 1.5
-0.88846159 -0.87791616 0.1178607 6
-0.834521 -0.72908813 0.040852573 4.5
-0.97888756 0.74660182 0.11043461 6
-0.85106516 -0.27566248 0.34985209 14.5
-0.90155637 0.75806403 0.32304838 11.333333
-0.8082301 -0.29361939 0.55985242 21
-0.87385589 0.75404519 0.47005144 15
-0.8691954 0.70615965 0.66304177 19.200001
-0.91446316 0.82765442 0.96806091 23
-0.98017353 -2.0547664 2.4270418 28
-0.81825465 -1.9339108 2.5560501 30
-0.62301666 0.81849182 -0.071894437 1
-0.71629494 -0.48671499 0.15851592 9
-0.62034255 0.81381947 0.098438397 6.3333335
-0.64121187 -0.42846459 0.20785215 11
-0.70167345 -0.30089936 0.33560538 15.75
-0.68916804 0.78854918 0.24008806 10
-0.69742423 -0.49231949 0.56685019 21
-0.68991083 -0.29265365 0.43785626 19.5
-0.64506507 0.79450166 0.51109678 17
-0.61239547 -0.8988992 0.6598925 20
-0.65652084 -0.79063427 0.69154018 21
-0.71631289 -0.47733045 0.63084912 22
-0.78634578 0.77461845 0.72906935 21
-0.6177268 -1.9391187 2.3840954 29
-0.43078294 -0.6002872 0.077871867 6
-0.44372696 -0.40150675 0.14485779 10
-0.43474385 -0.39750928 0.15785792 11
-0.53489244 0.76147193 0.028109126 4
-0.5937326 -0.50135159 0.30185506 14
-0.59734595 -0.8689158 0.7168898 21
-0.22914994 -0.70678985 -0.019589838 2.5
-0.21802893 0.79927951 -0.054825321 1
-0.26105422 -0.71857822 0.10340792 7.5
-0.34776336 -0.509363 0.14936776 10.5
-0.39188036 0.52205676 0.18958361 11.5
-0.22810468 0.63932711 0.16014494 10
-0.21100047 0.81226629 0.023178009 4
-0.24813819 -0.71822906 0.20290966 11
-0.21955158 -0.51031286 0.36187625 21
-0.34924302 0.51164407 0.29259065 16.375
-0.32188767 0.68536341 0.22113436 11.5
-0.35288212 0.46014369 0.48993388 24.285715
-0.33245108 0.63937873 0.56162292 23.5
-0.30339056 0.59937209 0.71312088 28
-0.34719875 0.61340576 0.64944762 26
-0.10774519 -0.68836612 -0.043074641 1
-0.092206962 0.68565696 0.137978 9
-0.17237863 0.82424206 0.11718651 7.5
-0.12974806 -0.69824857 0.39592385 19
-0.030721677 0.53096932 0.29579481 18.375
-0.022403326 0.81620759 0.22920859 11
-0.089514062 -0.67006332 0.48492548 22.200001
-0.17611778 -0.57273263 0.57989126 26.5
-0.049293514 0.50096929 0.43616155 24.75
-0.14072943 0.65223658 0.4916653 22.5
-0.11988092 -0.70870149 0.61192793 24.5
-0.10607307 0.63420731 0.6336695 26.5
0.0027307933 0.72624093 -0.040799081 1.5
0.0042238017 0.74923062 0.043203969 5
0.075490572 1.1482414 0.17725892 8
0.17413478 1.5663272 0.092313386 5
0.085332297 -0.66343129 0.34045792 17.5
0.047760595 0.49716744 0.37818199 22.5
0.081155077 0.66119295 0.30320451 16
0.042280529 -0.66733551 0.54294938 24
0.050979104 0.48182088 0.46551412 26
0.11482846 0.65217662 0.46770692 21.5
0.077564627 -0.65835023 0.60945487 25.5
0.18573228 0.61414838 0.65421152 27
0.20243254 -0.7076335 0.18300012 11
0.20227936 0.80629456 0.015230793 4
0.36911249 1.1114388 0.17426752 8
0.2929658 -0.69475836 0.27402312 13.5
0.36810538 1.1174326 0.21226819 9
0.37400422 -0.64781481 0.50703341 21.5
0.37064767 -0.44403028 0.59663206 27
0.35051298 0.43866175 0.52770144 25.5
0.30387586 0.64723724 0.54742056 23
0.25502172 -0.70356601 0.6890139 26
0.32563397 -0.52714521 0.60947984 26.5
0.27131316 0.53966349 0.62471116 27.5
0.31121582 0.61621612 0.63421834 26
0.26856008 -2.1162837 2.3553956 28
0.43892762 -0.66822785 0.10006091 7
0.52142811 -0.060525749 0.18735436 13.5
0.47978243 0.0011162341 0.1128048 10
0.54172188 -0.42421922 0.22401549 13
0.53565264 -0.25411987 0.29119828 16.5
0.52192235 -0.062017772 0.21185531 15
0.4369393 0.075887769 0.25974268 18.5
0.46895567 0.57830918 0.34168693 16
0.42532033 -0.68396246 0.40206125 17
0.51885778 -0.58175731 0.56406099 22
0.59664184 -0.27414736 0.68247849 27.5
0.50609994 2.077302 2.3903773 29
0.78825086 -0.51601845 -0.059861794 1
0.78071737 -0.56267565 0.13490069 7.5
0.68504232 -0.28681231 0.082849883 6.6666665
0.71141738 -0.089715436 0.053944726 5.5
0.60666639 1.0407262 0.034252852 4
0.63651943 1.2834307 0.12527983 6
0.63386953 -0.093351737 0.31391528 17
0.61937118 0.23681851 0.35840321 18
0.66884178 -0.50997907 0.49359125 19
0.61731148 0.25687826 0.45272395 21
0.6204024 0.53700536 0.58405674 21.5
0.67516983 -0.40542024 0.6480574 24
0.62080014 -0.29856825 0.65232992 26
0.71002042 0.23095699 0.67878437 25
0.60732567 0.51807857 0.62556088 23
0.77098006 -0.81160855 0.99722427 25
0.803195 -0.48805031 -0.027865443 2
0.88571411 0.79459572 -0.035447381 2
0.81911236 -0.51653242 0.14415027 7.5
0.88561279 0.79470134 0.16455257 7
0.8816368 0.80872297 0.17554201 8
0.95433879 -1.7626445 2.4375565 30
1.1509833 0.17568614 -0.054987624 2
1.00989 0.77904719 -0.13737001 0
1.1817523 -0.068290256 0.079130664 5
1.1201296 0.37706405 0.091652036 5.5
1.0981294 0.41892824 0.17987056 8
1.114058 0.37740588 0.23739907 9.5
1.1021037 0.44497916 0.32585916 11.5
1.0326909 0.78119719 0.32764116 11
1.0207688 0.80921757 0.28111866 9.5
1.0897946 0.50507784 0.45482191 14
1.026817 0.69390213 0.46908724 14
1.0826014 0.54268539 0.62979865 17.5
1.0431478 0.62839895 0.77373242 20
1.0679843 0.58141357 0.98577064 24
1.0536944 0.66790181 0.86771601 21.5
1.1664032 0.0941891 1.1330559 26
1.1832998 0.0056985947 1.2511011 27.5
1.0415267 0.69867349 1.3126929 27.5
1.1942182 -1.4002714 2.3635564 31
1.2092896 -0.081913188 1.1601477 26
1.2141999 -0.15785925 1.2901797 27.5
1.2739642 -1.5044825 2.3596165 29
1.2531092 -1.3924299 2.3655784 30
1.4702315 0.42574164 0.53503966 13
2.9557843 -0.78651631 0.9941172 13
2.9767578 -0.77154595 1.1151215 14
2.9676757 -0.79445869 1.2211246 15
