# .PCD v0.7 - Point Cloud Data file format
VERSION 0.7
FIELDS x y z intensity
SIZE 4 4 4 4
TYPE F F F F
COUNT 1 1 1 1
WIDTH 1040
HEIGHT 1
VIEWPOINT 0 0 0 1 0 0 0
POINTS 1040
DATA ascii
0.69915539 -2.0191414 -0.10121066 0
0.66957766 -1.9335707 -0.10660533 0
0.63999999 -1.848 -0.112 0
1.0319999 -1.803 -0.177 0
-0.954 -1.7309999 -0.103 0
0.98767161 -1.7248396 -0.16519161 0
1.089 -1.7079999 -0.177 0
1.3528076 -1.7505726 -0.18939035 0
0.34799999 -1.6799999 -0.103 0
0.94334328 -1.6466793 -0.1533832 0
1.0415835 -1.632496 -0.16522138 0
1.105 -1.647 -0.176 0
1.29 -1.656 -0.193 0
1.3485 -1.6240001 -0.18799999 0
-0.223 -1.582 -0.114 0
0.89901489 -1.5685189 -0.1415748 0
0.99416697 -1.5569921 -0.15344277 0
1.0605474 -1.5408373 -0.16234192 0
1.1295 -1.5664999 -0.17399999 0
1.272553 -1.552283 -0.17610881 0
1.3359414 -1.5615443 -0.18835889 0
-1.108 -1.457 -0.177 0
-0.50800002 -1.415 -0.11 0
-0.41799998 -1.4219999 -0.103 0
-0.210325 -1.493275 -0.10479082 0
0.85479289 -1.4361802 -0.12586997 0
0.95223749 -1.4535518 -0.13983384 0
1.0375584 -1.4567114 -0.15102297 0
1.1670736 -1.424755 -0.16151141 0
1.2285542 -1.4731746 -0.16024619 0
1.334 -1.405 -0.17200001 0
-1.1799999 -1.342 -0.17900001 0
-1.0539631 -1.3870698 -0.16614877 0
-0.99992615 -1.3171396 -0.15529753 0
-0.4783237 -1.3326186 -0.10002876 0
0.76602983 -1.3340379 -0.10614961 0
0.85191751 -1.3304801 -0.1181069 0
0.95274562 -1.3515754 -0.13070343 0
1.0954586 -1.3545741 -0.15775652 0
1.1473565 -1.3470112 -0.15489297 0
1.2277879 -1.3424686 -0.13226713 0
1.4606822 -1.3160313 -0.15491764 0
1.5441345 -1.3730112 -0.14112706 0
-1.212 -1.252 -0.178 0
-1.1215075 -1.2763522 -0.16775581 0
-1.063015 -1.2107042 -0.15651163 0
-0.94588917 -1.2472095 -0.1444463 0
0.83410585 -1.2388954 -0.10743868 0
0.95652568 -1.2478092 -0.12074953 0
1.056945 -1.2703172 -0.13977887 0
1.1537402 -1.2490251 -0.12908643 0
1.2244471 -1.2666119 -0.16271514 0
1.3655615 -1.2257651 -0.13726254 0
1.4307305 -1.2637519 -0.14443788 0
1.543 -1.248 -0.13699999 0
-1.225 -1.15 -0.176 0
-1.1508183 -1.1897408 -0.16662574 0
-1.0470797 -1.1362691 -0.15025945 0
-0.86483377 -1.1423142 -0.12816945 0
0.8814072 -1.1978271 -0.10187358 0
0.94165879 -1.1253181 -0.13236929 0
1.066425 -1.1720732 -0.12304636 0
1.1410742 -1.1416104 -0.15190458 0
1.2656119 -1.1455756 -0.1407287 0
1.3399191 -1.156528 -0.15019892 0
1.4329222 -1.1686529 -0.13964164 0
-1.2406667 -1.052 -0.17733334 0
-1.1680179 -1.0423251 -0.16387896 0
-1.0639392 -1.048636 -0.14583027 0
-0.95665181 -1.0411859 -0.13326308 0
-0.8875376 -1.0137606 -0.12277907 0
-0.78377831 -1.037419 -0.1118926 0
0.83722454 -1.04247 -0.11585762 0
0.95254523 -1.0292519 -0.12006208 0
1.0552565 -1.0479703 -0.1267577 0
1.1597809 -1.0395051 -0.13144679 0
1.2446618 -1.0522299 -0.1433579 0
1.338951 -1.04344 -0.14613435 0
1.439 -1.0829999 -0.17200001 0
-1.354 -0.91799998 -0.134 0
-1.2355766 -0.94618249 -0.17253318 0
-1.1511943 -0.95366573 -0.1578773 0
-1.0485991 -0.94773102 -0.14260106 0
-0.93897945 -0.91926765 -0.12523179 0
-0.86302257 -0.92655635 -0.11726744 0
-0.72974133 -0.96748877 -0.10104137 0
0.75114655 -0.93843538 -0.10189132 0
0.85408056 -0.93428665 -0.11607853 0
0.95468748 -0.95517272 -0.1156862 0
1.0548558 -0.93088686 -0.11123648 0
1.1398603 -0.95391834 -0.12627147 0
1.2586473 -0.95733309 -0.14547449 0
1.329 -0.93949997 -0.16949999 0
-1.311 -0.80900002 -0.142 0
-1.2475487 -0.84635401 -0.11547789 0
-1.1223235 -0.88234198 -0.14958183 0
-1.0545994 -0.8527692 -0.13670141 0
-0.95214176 -0.84864259 -0.12081305 0
-0.85589188 -0.85822934 -0.11542942 0
-0.78467792 -0.84159994 -0.10088784 0
0.78452641 -0.8987298 -0.10785066 0
0.80416155 -0.83627236 -0.10599923 0
0.93307763 -0.8536725 -0.10574495 0
1.0617419 -0.85626614 -0.10788277 0
1.1614099 -0.846843 -0.13083112 0
1.2467338 -0.87164092 -0.14975369 0
-1.88 -0.708 -0.17399999 0
-1.7375 -0.73399997 -0.18149999 0
-1.6386508 -0.70998925 -0.17015161 0
-1.5037752 -0.78147072 -0.1042762 0
-1.4305168 -0.74264717 -0.11018413 0
-1.3572584 -0.70382357 -0.11609206 0
-1.2395923 -0.76448613 -0.13380821 0
-1.1681845 -0.71997225 -0.12561642 0
-0.94579142 -0.75684291 -0.11356686 0
-0.84598517 -0.7586441 -0.10954551 0
-0.75059092 -0.72412658 -0.10287418 0
0.833 -0.74599999 -0.102 0
1.052267 -0.73449486 -0.11070504 0
1.1219398 -0.78309131 -0.12477822 0
-3.277 -0.60900003 -0.178 0
-1.915 -0.6645 -0.177 0
-1.8431435 -0.64873451 -0.17541347 0
-1.7449318 -0.63627088 -0.1766239 0
-1.6814569 -0.64633262 -0.17373598 0
-1.5496236 -0.64976841 -0.15688767 0
-1.4639719 -0.65504497 -0.1265063 0
-1.3431364 -0.62051046 -0.12844922 0
-1.2606623 -0.64047587 -0.12351152 0
-1.1615083 -0.67951763 -0.12303601 0
-1.0600597 -0.64249116 -0.11060051 0
1.2448169 -0.61019003 -0.14435881 0
1.314585 -0.62058961 -0.14417633 0
1.4415425 -0.65554482 -0.15908816 0
-3.240963 -0.55609041 -0.17223255 0
-3.1432648 -0.55768281 -0.14330387 0
-3.0535164 -0.541592 -0.15894875 0
-2.9638121 -0.5582307 -0.13857266 0
-2.8603785 -0.53261203 -0.14949296 0
-2.760252 -0.54163331 -0.14277641 0
-2.6397371 -0.51491147 -0.16581611 0
-2.5313344 -0.50743103 -0.14943263 0
-1.9206798 -0.5485568 -0.17595895 0
-1.8479832 -0.55416763 -0.17291194 0
-1.7557917 -0.54892105 -0.17543985 0
-1.6587025 -0.55122149 -0.17375943 0
-1.5793252 -0.52676022 -0.177 0
-1.4216554 -0.58566129 -0.13988784 0
-1.3239117 -0.56063646 -0.12805891 0
-1.239924 -0.55060387 -0.11874577 0
-1.1551758 -0.56051952 -0.11164286 0
-1.0516058 -0.54736346 -0.11164816 0
-0.95037973 -0.55334198 -0.1038826 0
1.0517642 -0.51592869 -0.1116612 0
1.1493087 -0.55370885 -0.12682752 0
1.2452608 -0.53498906 -0.14327268 0
1.35575 -0.55650002 -0.164 0
1.4424204 -0.52273995 -0.15909804 0
-2.9430995 -0.48940998 -0.17579858 0
-2.814914 -0.4708057 -0.17845632 0
-2.7267056 -0.4717311 -0.17624888 0
-2.6430001 -0.458 -0.183 0
-2.4435563 -0.49162069 -0.15928842 0
-2.355778 -0.47581035 -0.16914421 0
-2.2679999 -0.46000001 -0.17900001 0
-1.8304096 -0.48585796 -0.17592663 0
-1.7438202 -0.47953933 -0.17608179 0
-1.6663563 -0.47502679 -0.17523283 0
-1.5419877 -0.48061275 -0.17539388 0
-1.4603533 -0.44711214 -0.17660116 0
-1.1584764 -0.49129105 -0.10668248 0
-1.0849279 -0.49827754 -0.1053796 0
0.98276955 -0.42843291 -0.10376383 0
1.0632367 -0.44565025 -0.11327054 0
1.1402185 -0.45389667 -0.12598559 0
1.2401241 -0.45112547 -0.14124259 0
1.3529239 -0.44316977 -0.15385576 0
1.4214864 -0.42681491 -0.16198798 0
1.516 -0.42899999 -0.168 0
1.7426734 -0.41638035 -0.16544566 0
1.8255646 -0.43584043 -0.16559421 0
1.9412205 -0.43181723 -0.1631109 0
2.0326869 -0.44361764 -0.16480002 0
2.145 -0.46599999 -0.164 0
0.98991084 -0.37546468 -0.10605685 0
1.0655318 -0.34718421 -0.10849161 0
1.1522794 -0.35406363 -0.12179236 0
1.2461942 -0.37140283 -0.1341887 0
1.3303819 -0.38335001 -0.14362007 0
1.4776918 -0.3343299 -0.14037724 0
1.563206 -0.35359782 -0.14399689 0
1.6521795 -0.35119742 -0.1563392 0
1.7475321 -0.36151052 -0.15812218 0
1.8417845 -0.37945735 -0.15910804 0
1.9425807 -0.36748037 -0.1622351 0
2.003 -0.37900001 -0.162 0
1.1216282 -0.20396009 -0.12215878 0
1.2384938 -0.21921156 -0.13707358 0
1.3609633 -0.24716865 -0.15376548 0
1.484 -0.26199999 -0.16350001 0
1.5714692 -0.29672369 -0.16367911 0
1.040484 -0.14818558 -0.1056605 0
1.1269374 -0.14575104 -0.11759339 0
1.2362156 -0.14023595 -0.13659129 0
1.3622946 -0.14991838 -0.15148513 0
1.4698124 -0.15847357 -0.14272062 0
1.5307184 -0.16521035 -0.10958091 0
1.62 -0.175 -0.118 0
0.98710024 -0.028278599 -0.1015834 0
1.0522439 -0.062735565 -0.1094045 0
1.1501055 -0.060046494 -0.12440095 0
1.2512851 -0.059557427 -0.13998882 0
1.3480948 -0.060607843 -0.15745997 0
1.459663 -0.07713946 -0.12531044 0
1.5880001 -0.079000004 -0.121 0
0.97341645 0.052180365 -0.10126454 0
1.0489761 0.045740381 -0.11250786 0
1.154624 0.039142214 -0.12974021 0
1.2521342 0.051354825 -0.14627136 0
1.3456668 0.038666666 -0.161 0
1.4925113 0.018686958 -0.10751573 0
1.582 0.02 -0.116 0
0.95422345 0.1363526 -0.102272 0
1.0389175 0.14813945 -0.11645401 0
1.1236117 0.15992631 -0.13063601 0
1.2375373 0.16947544 -0.14921202 0
1.3150001 0.104 -0.15899999 0
1.29 0.20200001 -0.16 0
1.288 0.35600001 -0.161 0
1.3688196 0.37645435 -0.16033481 0
1.4453905 0.39452678 -0.13207024 0
1.5274076 0.41561085 -0.13830379 0
1.6504333 0.44723696 -0.14765412 0
1.7736392 0.47890869 -0.15700297 0
-1.4123409 0.59139395 -0.12788793 0
-1.3411744 0.56158519 -0.12208391 0
-1.2672796 0.55825454 -0.12337272 0
-1.191 0.55000001 -0.14 0
1.8269134 0.50677282 -0.10228159 0
1.9142776 0.53099442 -0.10644179 0
2.0492139 0.56840533 -0.11286733 0
-1.7234288 0.69962353 -0.1669133 0
-1.6332382 0.67560387 -0.16581888 0
-1.5527827 0.64700764 -0.13366398 0
-1.4835075 0.62120271 -0.13369195 0
-1.299 0.60100001 -0.126 0
-1.1950001 0.67400002 -0.15700001 0
-0.94865519 0.68609452 -0.11699329 0
-0.884 0.639 -0.114 0
-1.775 0.71899998 -0.169 0
-1.3583244 0.7682718 -0.13418263 0
-1.2545365 0.74746096 -0.1491771 0
-1.184 0.745 -0.15899999 0
-1.0456381 0.7567364 -0.12148324 0
-0.96436083 0.77296793 -0.10686047 0
0.82104129 0.76323414 -0.100357 0
-1.55 0.84399998 -0.108 0
-1.4570038 0.85633117 -0.12887523 0
-1.3639159 0.85050994 -0.15717708 0
-1.2181786 0.87083977 -0.13691907 0
-1.1447512 0.84877992 -0.13926858 0
-1.0521774 0.84494871 -0.12077674 0
-0.83714366 0.88381577 -0.11397898 0
-0.77933431 0.82011843 -0.10380881 0
-0.639 0.88150001 -0.107 0
0.87802756 0.81548941 -0.11390466 0
0.92025697 0.87014794 -0.11578868 0
-1.5381969 0.9601509 -0.1631463 0
-1.45184 0.95245147 -0.13586049 0
-1.3575746 0.94172299 -0.14078522 0
-1.1790887 0.94897437 -0.14088838 0
-0.89495313 0.94751316 -0.12414916 0
-0.70200002 0.991 -0.104 0
-0.65965426 0.96686554 -0.10528518 0
-0.5376932 0.94331652 -0.11172591 0
-0.45702475 0.95441127 -0.10315102 0
0.898 0.926 -0.141 0
0.94477576 0.9548279 -0.11898396 0
-1.4709758 1.0396006 -0.16140197 0
-1.306 1.053 -0.161 0
-1.2425443 1.0009872 -0.15094419 0
-1.0105718 1.0749079 -0.1444895 0
-0.95276248 1.0112106 -0.13431934 0
-0.65695834 1.0511308 -0.12028547 0
-0.53168464 1.0467172 -0.12199631 0
-0.45531449 1.0476487 -0.10991778 0
-0.35410169 1.0825038 -0.10332068 0
0.85068089 1.0644668 -0.10272255 0
0.98846221 1.0357797 -0.11835536 0
1.0508866 1.0963395 -0.11656606 0
-1.0683813 1.1386054 -0.15465966 0
-0.75080723 1.1421781 -0.12903152 0
-0.64219809 1.129519 -0.14406455 0
-0.53378975 1.1426281 -0.12614134 0
-0.44583154 1.13864 -0.11767895 0
-0.35912985 1.1615986 -0.11390565 0
-0.25690278 1.1481731 -0.10673459 0
0.17956682 1.1971611 -0.1013246 0
0.21234921 1.1772405 -0.10273602 0
0.36887795 1.1563821 -0.10436523 0
0.44387075 1.1758487 -0.10558246 0
0.95300001 1.108 -0.114 0
1.0095743 1.1625675 -0.10118517 0
1.1119496 1.164373 -0.10680714 0
-1.1550953 1.2341514 -0.16991492 0
-0.82892269 1.2711958 -0.14356001 0
-0.77590281 1.2142119 -0.12975274 0
-0.63799995 1.2403333 -0.15566666 0
-0.54398453 1.2404 -0.13502629 0
-0.45372352 1.2515775 -0.13463263 0
-0.35386482 1.2449726 -0.12414119 0
-0.25953341 1.2422959 -0.11744153 0
-0.166851 1.2618457 -0.10739311 0
0.15958469 1.2453533 -0.10917524 0
0.2287619 1.2639303 -0.11430201 0
0.36201152 1.2432117 -0.11433537 0
0.42867362 1.2491386 -0.11712149 0
0.52503383 1.2661538 -0.10726087 0
1.066 1.228 -0.109 0
-0.87681711 1.345202 -0.15312546 0
-0.61715013 1.3970878 -0.13661253 0
-0.55885857 1.3381644 -0.1432873 0
-0.45369902 1.3524978 -0.14749219 0
-0.34099448 1.3499409 -0.13626109 0
-0.24709252 1.3481014 -0.12725714 0
-0.13980415 1.3566723 -0.11723996 0
0.15675242 1.3593824 -0.12153049 0
0.24973674 1.3673377 -0.11886712 0
0.36937574 1.3507919 -0.12250904 0
0.44888783 1.3431809 -0.12961158 0
0.53380734 1.3484353 -0.12482005 0
-0.921 1.441 -0.156 0
-0.63471484 1.4691534 -0.14596072 0
-0.442 1.4295 -0.15525001 0
-0.3592355 1.4614975 -0.15105669 0
-0.26550025 1.444787 -0.14014497 0
-0.15873061 1.4591678 -0.13144638 0
0.17542632 1.4796596 -0.13614018 0
0.23877966 1.4516586 -0.12520623 0
0.31512612 1.4654061 -0.11778552 0
0.46401337 1.4467903 -0.14268567 0
0.57319546 1.4350871 -0.13601936 0
-0.66999996 1.5515001 -0.155 0
-0.33199999 1.5044999 -0.15349999 0
-0.25202456 1.5458877 -0.15021726 0
-0.15149882 1.5589023 -0.14303565 0
0.17500001 1.573 -0.146 0
0.24225 1.54325 -0.13824999 0
0.333 1.552 -0.127 0
0.56053638 1.5098965 -0.13941285 0
0.602 1.5140001 -0.142 0
-0.214 1.609 -0.155 0
-0.16 1.6465 -0.15450001 0
0.55199999 1.601 -0.148 0
0.94688845 -2.7358532 -0.056026638 0
0.90619922 -2.6181359 -0.063447945 0
0.87662148 -2.5325654 -0.06884262 0
0.84704381 -2.4469948 -0.074237287 0
0.81746614 -2.361424 -0.079631969 0
0.78788841 -2.2758534 -0.085026637 0
0.74352193 -2.1474972 -0.093118653 0
-1.008 -1.67 -0.083999999 0
-0.93789011 -1.6584293 -0.083188623 0
-0.93748355 -1.5540334 -0.072293162 0
-0.87567055 -1.5597878 -0.073565885 0
0.33973047 -1.5513241 -0.086756937 0
0.412 -1.52 -0.035999998 0
-0.84332627 -1.4673101 -0.062761329 0
-0.78063178 -1.4189372 -0.059053179 0
-0.55000001 -1.401 -0.090999998 0
-0.47799999 -1.411 -0.086999997 0
-0.19765002 -1.4045501 -0.095581643 0
0.28296095 -1.4101484 -0.089513868 0
0.35566601 -1.4576494 -0.059653986 0
0.46444842 -1.4596108 -0.055336297 0
-0.81995606 -1.3607558 -0.052781768 0
-0.76013452 -1.3472177 -0.046013266 0
-0.62584126 -1.3829648 -0.055977575 0
-0.57078964 -1.3293656 -0.054855455 0
-0.42913237 -1.3315659 -0.08731249 0
-0.37744042 -1.3403255 -0.093135998 0
-0.18497501 -1.315825 -0.086372465 0
0.26596588 -1.3241824 -0.080185443 0
0.32948405 -1.3550097 -0.052265286 0
0.43540013 -1.3551126 -0.048477493 0
-0.73431832 -1.2411332 -0.038155135 0
-0.69394767 -1.2629058 -0.037079774 0
-0.5539242 -1.2397839 -0.041937955 0
-0.46104038 -1.2350305 -0.060185187 0
-0.36819962 -1.2535658 -0.084647141 0
-0.17230001 -1.2271 -0.077163287 0
0.26806396 -1.2379768 -0.06288638 0
0.36544663 -1.2525442 -0.031273052 0
0.41427398 -1.2549002 -0.040843055 0
0.7217015 -1.2558775 -0.094341211 0
1.0865777 -1.2314639 -0.099186003 0
-0.64897025 -1.144178 -0.023608916 0
-0.52130967 -1.1495786 -0.034995999 0
-0.45516801 -1.1543103 -0.043228328 0
-0.35970521 -1.1667904 -0.072427645 0
-0.15962501 -1.138375 -0.067954108 0
0.24554476 -1.1389811 -0.053166986 0
0.35120976 -1.1540084 -0.028714567 0
0.67737317 -1.1777172 -0.082532808 0
0.74270326 -1.137959 -0.088220775 0
0.82010406 -1.1364051 -0.092772216 0
0.94213146 -1.1470022 -0.09040045 0
1.0299455 -1.1481881 -0.09089154 0
-1.649 -1.018 -0.041999999 0
-1.5549999 -1.003 -0.0089999996 0
-1.09 -1.028 -0.077 0
-0.92157221 -1.0961562 -0.00053055212 0
-0.86300069 -1.0267618 -0.0047142357 0
-0.62300658 -1.0649699 -0.018492138 0
-0.56651771 -1.0147952 -0.005546499 0
-0.46107799 -1.0576422 -0.021309953 0
-0.34911796 -1.0482848 -0.061754428 0
-0.28320211 -1.0016273 -0.05768 0
-0.14695001 -1.0496501 -0.05874493 0
0.24099934 -1.0602791 -0.036866467 0
0.33963725 -1.0584815 -0.032865267 0
0.54067379 -1.0314851 -0.046416573 0
0.63243216 -1.0496737 -0.077905618 0
0.73970854 -1.0467111 -0.076484866 0
0.85691428 -1.0437528 -0.069750562 0
0.94237012 -1.0506603 -0.07715515 0
1.0165129 -1.0327158 -0.033456847 0
1.1541861 -1.0273763 -0.08701168 0
1.2429221 -1.0549625 -0.097871482 0
-1.6155577 -0.99727583 -0.042083398 0
-1.5282288 -0.96435273 -0.026550382 0
-1.443984 -0.9249503 -0.019821117 0
-1.3253031 -0.96971095 -0.061936907 0
-1.2476177 -0.92476463 -0.074662797 0
-1.0748657 -0.94407517 -0.076457754 0
-0.91714764 -0.95066488 -0.022213744 0
-0.86045504 -0.94148856 -0.01497709 0
-0.58490109 -0.97420067 -0.013758972 0
-0.43288693 -0.96069741 -0.051716361 0
-0.34400243 -0.94270581 -0.041745298 0
-0.26859888 -0.91669738 -0.04794142 0
-0.13427502 -0.9609251 -0.049535751 0
0.18068719 -0.93766499 -0.044002101 0
0.23021522 -0.94546932 -0.031664468 0
0.3123647 -0.97367769 -0.028338321 0
0.47469655 -0.95648032 -0.046663236 0
0.54447091 -0.94588411 -0.039722417 0
0.64580697 -0.95113504 -0.054360259 0
0.73904961 -0.94260883 -0.068232805 0
0.86770082 -0.93932682 -0.054931451 0
0.92596334 -0.94689876 -0.041764706 0
1.0527327 -0.93747044 -0.073264591 0
1.1594058 -0.93809068 -0.085529037 0
1.2652497 -0.93096197 -0.0089305267 0
1.3351246 -0.98245561 -0.0035856143 0
-1.7180001 -0.89499998 -0.086999997 0
-1.6526531 -0.83896691 -0.090718508 0
-1.5743268 -0.82053173 -0.082798257 0
-1.4576706 -0.86827022 -0.0094395597 0
-1.3428886 -0.84145379 -0.022136776 0
-1.2769997 -0.84492284 -0.057822704 0
-1.1577606 -0.85528505 -0.06329482 0
-1.0547404 -0.84341449 -0.072836213 0
-0.9439196 -0.83340865 -0.067648746 0
-0.83700895 -0.8529979 -0.033684969 0
-0.74743563 -0.84051067 -0.026403129 0
-0.64541447 -0.83094054 -0.058926534 0
-0.54067302 -0.85636896 -0.034392137 0
-0.45686996 -0.85319507 -0.010127967 0
-0.33639207 -0.83990997 -0.030290958 0
-0.24323407 -0.84704971 -0.044081718 0
-0.16709185 -0.85391825 -0.049214244 0
-0.016799701 -0.83550459 -0.0036295112 0
0.17088577 -0.85595721 -0.029952127 0
0.2502346 -0.85431939 -0.02133251 0
0.45498475 -0.8453874 -0.033051938 0
0.5575335 -0.85369533 -0.045427229 0
0.65636426 -0.87444824 -0.052421972 0
0.75276238 -0.84385043 -0.052247304 0
0.8538233 -0.85932904 -0.061956257 0
0.95468694 -0.84798127 -0.085150123 0
1.0360773 -0.84849274 -0.084958583 0
1.1604373 -0.8537215 -0.016947895 0
-1.6355373 -0.72839689 -0.078268386 0
-1.5529927 -0.74778545 -0.073123798 0
-1.4532964 -0.74331462 -0.062806219 0
-1.3512487 -0.7540493 -0.028995229 0
-1.2485402 -0.75332028 -0.035573736 0
-1.1491516 -0.74890316 -0.046812415 0
-1.0524657 -0.74462605 -0.053803954 0
-0.94830084 -0.72544187 -0.036383759 0
-0.85069495 -0.76955098 -0.051123925 0
-0.73922098 -0.74254876 -0.05450524 0
-0.65104884 -0.75012267 -0.051512808 0
-0.57229733 -0.74789369 -0.074472286 0
-0.44636726 -0.74725562 -0.02337431 0
-0.324 -0.72000003 -0.050999999 0
-0.23789014 -0.73351496 -0.028473997 0
-0.15454403 -0.7672357 -0.028145296 0
-0.01426607 -0.75334251 -0.011592356 0
0.15050533 -0.75114739 -0.019263905 0
0.24065691 -0.74300462 -0.016004244 0
0.3820897 -0.74291492 -0.027851028 0
0.45055991 -0.74632472 -0.024923414 0
0.52466732 -0.76346177 -0.037496228 0
0.66690439 -0.7392832 -0.074788392 0
0.75667965 -0.7423321 -0.055710115 0
0.8405056 -0.75211877 -0.056197405 0
0.95172322 -0.75415069 -0.071860425 0
1.0375705 -0.77182531 -0.060916919 0
1.2727757 -0.71739829 -0.021182075 0
1.3328198 -0.73625869 -0.041084189 0
-3.1229999 -0.61400002 -0.082999997 0
-3.0580034 -0.60229301 -0.090297848 0
-1.6395563 -0.6879012 -0.093529731 0
-1.5380538 -0.66192579 -0.087949798 0
-1.455699 -0.63964528 -0.076064862 0
-1.3383776 -0.64220357 -0.050960504 0
-1.2502605 -0.66023815 -0.048495378 0
-1.1415402 -0.64750749 -0.050320078 0
-1.0547414 -0.64838022 -0.043612219 0
-0.95269698 -0.64739847 -0.0345679 0
-0.84371954 -0.64352483 -0.0409275 0
-0.75665724 -0.65543401 -0.05982811 0
-0.65334886 -0.65437078 -0.055638332 0
-0.5619359 -0.64962626 -0.041953877 0
-0.46865964 -0.6406005 -0.030255616 0
-0.38409722 -0.64496499 -0.031367969 0
-0.16188367 -0.69556969 -0.026098534 0
-0.053345766 -0.66998035 -0.021551099 0
0.014870969 -0.6497097 -0.018161289 0
0.118 -0.67699999 -0.019000001 0
0.2235 -0.69700003 -0.013499999 0
0.36784685 -0.67801648 -0.018231045 0
0.44619113 -0.67251325 -0.018014796 0
0.56253403 -0.66242182 -0.068184704 0
0.6555723 -0.6509589 -0.051405117 0
0.75085384 -0.64878923 -0.042731103 0
0.85043585 -0.6490159 -0.051644892 0
0.94895589 -0.66555816 -0.070204817 0
1.0628786 -0.60974121 -0.034861084 0
1.1646423 -0.63924253 -0.037530728 0
1.252959 -0.65538871 -0.043556847 0
1.3282218 -0.64027995 -0.057599735 0
-1.3540903 -0.57036394 -0.084836304 0
-1.2488152 -0.54462767 -0.074826345 0
-1.1502817 -0.55354345 -0.065702394 0
-1.04143 -0.54616308 -0.05939265 0
-0.94143307 -0.55795825 -0.060076389 0
-0.84386575 -0.55081099 -0.047688011 0
-0.73289925 -0.5805791 -0.053388409 0
-0.65017271 -0.55211753 -0.065488294 0
-0.53716576 -0.5624792 -0.048232328 0
-0.45532852 -0.53865278 -0.038729463 0
-0.34752169 -0.56471211 -0.038537752 0
0.011 -0.58700001 -0.028999999 0
0.55968273 -0.52906185 -0.027520565 0
0.63280606 -0.54142928 -0.02986408 0
0.74069273 -0.5561983 -0.043264113 0
0.84561098 -0.56680655 -0.066486828 0
0.96241045 -0.54406381 -0.050463535 0
1.0654693 -0.55431694 -0.042254493 0
1.1484804 -0.55972594 -0.046315584 0
1.2374198 -0.58119357 -0.042021994 0
-1.1320992 -0.481565 -0.077355504 0
-1.037091 -0.45891535 -0.081215709 0
-0.94906467 -0.45307711 -0.075706229 0
-0.86241776 -0.44903558 -0.071216024 0
-0.60900003 -0.5 -0.068000004 0
-0.54184204 -0.48682541 -0.063348919 0
-0.46585718 -0.46514291 -0.053571429 0
0.45482701 -0.43334952 -0.015324683 0
0.541812 -0.44797987 -0.019235052 0
0.65742832 -0.4494032 -0.05263273 0
0.76454723 -0.42168525 -0.040377028 0
0.85699332 -0.44839817 -0.043511763 0
0.950629 -0.45269644 -0.060849883 0
1.0356754 -0.46350801 -0.034094878 0
1.1592971 -0.43752068 -0.017277913 0
1.2672962 -0.44892898 -0.019301299 0
-0.94175732 -0.38783669 -0.075114265 0
-0.88081354 -0.38298661 -0.073314503 0
0.39700001 -0.37400001 -0.016000001 0
0.42765272 -0.35972801 -0.010125446 0
0.50607067 -0.37500808 -0.02308182 0
0.69080007 -0.32780001 -0.050399996 0
0.75765532 -0.34612817 -0.044429094 0
0.85147691 -0.34943491 -0.052225247 0
0.94795656 -0.35068345 -0.058988143 0
1.0349262 -0.35291833 -0.021829393 0
1.1391582 -0.35551763 -0.020381726 0
1.2466747 -0.34024414 -0.036254484 0
1.3767191 -0.3554216 -0.09651006 0
0.68685716 -0.27571428 -0.049285714 0
0.74380928 -0.23879568 -0.0429902 0
0.85524321 -0.25630456 -0.045520723 0
0.95681638 -0.25615507 -0.03766346 0
1.0446734 -0.25712019 -0.036281005 0
1.144528 -0.26380143 -0.032744922 0
1.2386572 -0.2741527 -0.026523938 0
1.3498653 -0.27888042 -0.090456888 0
0.66243643 -0.13854301 -0.026855351 0
0.74731755 -0.14770433 -0.037165526 0
0.85495687 -0.13771874 -0.045244619 0
0.95470542 -0.13675553 -0.060230132 0
1.0553292 -0.13783729 -0.051010698 0
1.1413628 -0.14102027 -0.043336883 0
1.2239375 -0.13403624 -0.02450791 0
1.3521554 -0.14563107 -0.092742726 0
0.69017416 -0.0359159 -0.042028524 0
0.74718595 -0.056957271 -0.040091857 0
0.85937721 -0.050305236 -0.046068184 0
0.94385135 -0.056951653 -0.04687323 0
1.0399293 -0.051710352 -0.024990493 0
1.1457498 -0.054553222 -0.022722008 0
1.2129432 -0.054886043 -0.024557637 0
1.3199893 -0.065418378 -0.092931308 0
0.66819996 0.044866666 -0.04773334 0
0.74784803 0.041692838 -0.04733891 0
0.85179675 0.046109602 -0.047007494 0
0.94617748 0.052192144 -0.043572273 0
1.0502646 0.053668119 -0.032461397 0
1.1511304 0.04944618 -0.038811591 0
1.2062922 0.016678263 -0.034151848 0
1.3135335 0.016060878 -0.090547204 0
1.4030224 0.017373918 -0.099031463 0
0.66998893 0.10909613 -0.057316769 0
0.75307411 0.11578816 -0.061923057 0
0.84112006 0.11992834 -0.067749441 0
0.94915271 0.14367256 -0.041160893 0
1.0623102 0.14563511 -0.032760974 0
1.1642251 0.13675638 -0.045075886 0
0.9683333 0.21600001 -0.013333333 0
1.0614722 0.23389219 -0.015835026 0
1.1438951 0.25292316 -0.026199644 0
1.252133 0.26506948 -0.043378241 0
1.3608022 0.2705971 -0.047400575 0
1.4468079 0.270661 -0.081316382 0
1.527 0.285 -0.093000002 0
1.1499246 0.32176581 -0.045697574 0
1.250383 0.35728839 -0.037162848 0
1.3580174 0.34679037 -0.067927226 0
1.4448553 0.31847504 -0.038537305 0
1.528761 0.33711305 -0.032711774 0
1.096 0.45300001 -0.07 0
1.1645525 0.48076555 -0.034816246 0
1.3716302 0.42000681 -0.032607544 0
1.4621484 0.42744774 -0.055058762 0
1.5437864 0.4451921 -0.037853193 0
1.6585611 0.46402326 -0.068402171 0
1.7430495 0.48666236 -0.077597953 0
-1.4009612 0.58946282 -0.081042871 0
-1.3236046 0.57512414 -0.089916989 0
-1.2520001 0.55274999 -0.098749995 0
0.773 0.57499999 -0.068666667 0
1.2537212 0.51999646 -0.033168677 0
1.3427258 0.55979174 -0.040540207 0
1.8281623 0.51183015 -0.071305886 0
1.9505811 0.54341507 -0.092652947 0
-1.5233049 0.6690225 -0.064750075 0
-1.4515367 0.66098535 -0.060342267 0
-1.3507986 0.65058422 -0.064908072 0
-1.2531081 0.66070729 -0.060485385 0
-1.1913186 0.66969889 -0.058951389 0
-0.87400001 0.667 -0.078000002 0
-0.42695779 0.66207725 -0.070458278 0
-0.37353218 0.66663611 -0.062870979 0
-0.13174999 0.66900003 -0.048999995 0
0.056000002 0.69199997 -0.059 0
0.25999999 0.69550002 -0.037 0
0.45962501 0.666125 -0.036250003 0
0.51108301 0.67538083 -0.044899542 0
0.68120003 0.68560004 -0.044399999 0
0.74063206 0.64725566 -0.060898066 0
0.84310627 0.63932824 -0.060725193 0
0.94494784 0.67147291 -0.049581572 0
-1.5172819 0.73693258 -0.035303801 0
-1.4522578 0.75501806 -0.044466715 0
-1.346855 0.75576854 -0.050999686 0
-1.2545102 0.75142908 -0.046818491 0
-1.1769243 0.75226605 -0.050660271 0
-0.95509571 0.72914809 -0.067389347 0
-0.75199997 0.79000002 -0.098999999 0
-0.53266728 0.76382065 -0.066867664 0
-0.44751877 0.75783348 -0.053895902 0
-0.35230428 0.74734145 -0.050706033 0
-0.25239998 0.77490002 -0.044399999 0
-0.15996173 0.74777019 -0.045159195 0
-0.059632212 0.74920869 -0.038143191 0
0.061225556 0.74435991 -0.05112388 0
0.14068994 0.761603 -0.040862493 0
0.25052077 0.75436449 -0.035913669 0
0.3107343 0.78830737 -0.042521734 0
0.46227095 0.74407411 -0.033490848 0
0.55419999 0.7558462 -0.035397355 0
0.6511302 0.74249399 -0.041888475 0
0.75665891 0.74790549 -0.054041572 0
0.84348226 0.74735606 -0.059053838 0
0.94727999 0.75694227 -0.042539358 0
1.03 0.73299998 -0.037999999 0
-1.518 0.82800001 -0.035999998 0
-1.4642504 0.83634013 -0.033537399 0
-1.3473421 0.84933364 -0.038888585 0
-1.2519357 0.8401171 -0.045550741 0
-1.169 0.81300002 -0.029999999 0
-0.60233545 0.82737231 -0.096036814 0
-0.54580951 0.85401124 -0.053320564 0
-0.45047313 0.85104114 -0.043391112 0
-0.35306254 0.85306472 -0.074289054 0
-0.24637666 0.84932148 -0.060683805 0
-0.15558115 0.83945686 -0.047314152 0
-0.074596517 0.85174155 -0.040431749 0
0.057438787 0.85959673 -0.049097508 0
0.14225659 0.85735685 -0.042950414 0
0.25821793 0.84501159 -0.035388954 0
0.35065171 0.86265379 -0.045726229 0
0.45562878 0.8574546 -0.042808447 0
0.54258978 0.84193087 -0.038557246 0
0.65082735 0.84482408 -0.044937622 0
0.75720215 0.84423965 -0.04905726 0
0.8571499 0.83980137 -0.054350626 0
0.93753499 0.86544943 -0.071813323 0
-1.5004969 0.99713874 -0.019056734 0
-1.4529535 0.93895757 -0.037369799 0
-1.351446 0.92380601 -0.031188389 0
-0.54699761 0.95108092 -0.041489348 0
-0.46352488 0.9451412 -0.050201643 0
-0.35992756 0.93828392 -0.083506525 0
-0.25099033 0.962681 -0.081996284 0
-0.14906169 0.9464823 -0.070469283 0
-0.089303665 0.94489932 -0.036458023 0
0.061093546 0.93864703 -0.046385679 0
0.14846721 0.95234519 -0.04223749 0
0.25762379 0.93744957 -0.049680594 0
0.35066533 0.94634074 -0.049294736 0
0.44883206 0.94189566 -0.046551555 0
0.54772466 0.95395732 -0.050055966 0
0.63800466 0.96042967 -0.07152538 0
0.75670397 0.94725609 -0.064479269 0
0.85290259 0.94032747 -0.070667244 0
0.94359952 0.9285537 -0.042561077 0
-1.5671988 1.0475888 -0.018756026 0
-1.4992272 1.0197504 -0.043845899 0
-0.62705427 1.0615079 -0.040615674 0
-0.55271983 1.0460033 -0.045272212 0
-0.43621689 1.0453346 -0.097587429 0
-0.33590516 1.0201321 -0.093251765 0
-0.25975028 1.0574489 -0.094836183 0
-0.16073672 1.0492857 -0.083240174 0
-0.091815494 1.0577333 -0.042306174 0
0.048802558 1.0536624 -0.046273988 0
0.14771751 1.0527346 -0.054928586 0
0.25357419 1.0341421 -0.055652816 0
0.35870567 1.0482736 -0.059863515 0
0.45191628 1.0432155 -0.045900669 0
0.55266321 1.054001 -0.046187215 0
0.64247715 1.0496868 -0.08083038 0
0.76721191 1.034513 -0.085878067 0
0.86745191 1.0494347 -0.08651641 0
0.97586942 1.0709832 -0.092115603 0
-0.70383871 1.181497 -0.05800971 0
-0.65203482 1.1479626 -0.050927125 0
-0.58615792 1.1470144 -0.040248532 0
-0.2064753 1.136503 -0.097856477 0
-0.14657092 1.157712 -0.092868805 0
-0.096893378 1.1356504 -0.086676732 0
0.039143935 1.1569278 -0.026842449 0
0.14661396 1.1490098 -0.056613848 0
0.25582486 1.1407036 -0.062469564 0
0.34921297 1.1508573 -0.051980551 0
0.4435913 1.1458541 -0.044272624 0
0.54773408 1.1484109 -0.0454388 0
0.64344782 1.1561176 -0.082761206 0
0.71779525 1.1778113 -0.084050626 0
1.057795 1.1074158 -0.098430425 0
-0.72945148 1.2550442 -0.05378402 0
-0.64443129 1.2346548 -0.050832961 0
-0.10441115 1.2235421 -0.098063946 0
0.085834756 1.272356 -0.035616424 0
0.14395061 1.2512329 -0.027740076 0
0.26577249 1.2587557 -0.068510458 0
0.34506235 1.2558287 -0.065753207 0
0.46726966 1.2408153 -0.040646542 0
0.54932457 1.2531981 -0.041561719 0
0.63673955 1.2544612 -0.067423634 0
0.75999999 1.249 -0.090999998 0
-0.74400008 1.3357999 -0.055 0
-0.67591029 1.3251773 -0.049205173 0
0.091293439 1.359695 -0.031770531 0
0.14554946 1.3371891 -0.027337227 0
0.25269419 1.3644303 -0.073618121 0
0.33613187 1.3533551 -0.061647058 0
0.44325 1.3329999 -0.021499999 0
0.52899998 1.308 -0.025 0
-0.72416335 1.4424887 -0.057 0
0.096752129 1.447034 -0.027924636 0
0.15820865 1.4401934 -0.021334756 0
0.25528833 1.4456649 -0.044171087 0
0.35868192 1.4828441 -0.089035362 0
0.15072004 1.5402224 -0.029905031 0
0.29899999 1.545 -0.093999997 0
0.38 1.569 -0.094999999 0
0.10783476 1.624356 -0.020116424 0
0.11570844 2.0128827 -0.0011306405 0
0.12209591 2.1452179 -0.018491447 0
0.12848337 2.2775531 -0.035852253 0
0.13274169 2.3657765 -0.047426127 0
0.13699999 2.454 -0.059 0
-0.991 -1.742 0.061000001 0
1.7359999 -1.704 0.017999999 0
-0.9414404 -1.6550882 0.054948516 0
1.6762202 -1.6442202 0.025415711 0
-0.87426561 -1.5372849 0.04674612 0
1.5566608 -1.5246608 0.040247135 0
1.6164405 -1.5844406 0.032831423 0
-0.82948244 -1.4587492 0.041277856 0
-0.53799999 -1.402 0.056999996 0
1.4669912 -1.4349914 0.051370703 0
-1.0946666 -1.3093333 0.022333333 0
-0.76230764 -1.3409457 0.033075459 0
-0.56595814 -1.3723059 0.02723676 0
1.3591608 -1.3271608 0.06474714 0
-1.0380797 -1.2467923 0.023971792 0
-0.69513279 -1.2231424 0.024873063 0
-0.52701038 -1.2579241 0.021648468 0
-0.48086649 -1.253755 0.039633434 0
1.2336189 -1.2315955 0.059012625 0
-0.95324314 -1.1445359 0.018390466 0
-0.65034962 -1.1446068 0.019404799 0
-0.46906531 -1.1472522 0.020085676 0
1.1627753 -1.1605923 0.045450214 0
-1.826 -1.049 0.02 0
-1.7393081 -1.030261 0.023916136 0
-1.603 -1.011 0.029000001 0
-0.86691833 -1.0457019 0.019871455 0
-0.77200001 -1.0089999 0.037999999 0
-0.60556638 -1.0660712 0.013936531 0
-0.43354034 -1.0490601 0.011638356 0
0.27371454 -1.0031821 0.00096108392 0
0.56999999 -1.017 0.048 0
1.0418501 -1.0393949 0.022300147 0
1.1023127 -1.0999936 0.033875182 0
1.382 -1.017 -2.7059879e-14 0
1.4640024 -1.014617 0.047202282 0
-1.7147678 -0.98500657 0.016742153 0
-1.6386989 -0.9656288 0.01394516 0
-1.5461715 -0.95706892 0.0089151068 0
-1.4429657 -0.96537793 0.036515437 0
-1.3414127 -0.9444344 0.030447086 0
-1.2613316 -0.95123756 0.027915934 0
-0.84714335 -0.96897078 0.010339043 0
-0.77273631 -0.95028561 0.019094741 0
-0.52414465 -0.93463135 0.0042819534 0
-0.42340001 -0.97419995 0.0074000009 0
-0.37276962 -0.97327453 0.0067757946 0
0.25066698 -0.91704577 0.0071212649 0
0.55755609 -0.9595241 0.039795361 0
0.66190755 -0.9375053 0.031775557 0
0.98138762 -0.97879612 0.010725111 0
1.2990986 -0.90927935 0.043558687 0
1.3790599 -0.95520794 0.040248502 0
-1.4580303 -0.83730197 0.0092226462 0
-1.245237 -0.85331315 0.021043388 0
-1.1686504 -0.85253382 0.018953849 0
-1.0830243 -0.81456739 0.0093584135 0
-0.70889884 -0.8873508 0.023089381 0
-0.64867246 -0.82301044 0.022453498 0
-0.49002466 -0.8440361 0.00056230463 0
-0.19271642 -0.85102242 0.012597026 0
0.22761942 -0.83090943 0.013281442 0
0.46138138 -0.83090359 0.011913538 0
0.53644031 -0.85928577 0.012020923 0
0.60762757 -0.86944848 0.011890212 0
1.1539276 -0.80748522 0.02568478 0
1.23317 -0.85315597 0.02793638 0
1.3131313 -0.89908445 0.024626194 0
-1.348 -0.77399999 0.0060000001 0
-1.1191783 -0.78157789 0.014659975 0
-1.0344375 -0.74398029 0.0047545126 0
-0.60293955 -0.76935089 0.014002299 0
-0.54818273 -0.74918008 0.01199107 0
-0.016437247 -0.74970865 0.013319804 0
0.19499999 -0.70899999 0.022 0
0.20457184 -0.74477315 0.019441623 0
0.39027891 -0.74349445 0.018435422 0
0.44148764 -0.74730301 0.0091130519 0
0.53234762 -0.75889158 0.012838201 0
0.77937174 -0.72262383 0.022899741 0
0.83871371 -0.76623946 0.031142902 0
1.0611056 -0.73596638 0.01301979 0
1.1665225 -0.79677463 0.017875854 0
1.2883053 -0.70456928 0.034965247 0
1.339 -0.73199999 0.039999999 0
-3.2681999 -0.651317 0.027248919 0
-3.1426001 -0.6159085 0.007874459 0
-0.9759391 -0.68412989 0.00028365292 0
-0.52275276 -0.66897506 0.0077937935 0
-0.016000001 -0.67799997 0.026000001 0
0.35571003 -0.68337393 0.025815783 0
0.4390679 -0.67885637 0.026660807 0
0.65391451 -0.60608262 0.013266496 0
0.7392543 -0.66624564 0.022194946 0
0.94660896 -0.64330989 0.0077503412 0
1.0199134 -0.6944648 0.011125511 0
1.1191609 -0.61717355 0.011758631 0
1.2121187 -0.6633451 0.027398784 0
1.327 -0.62800002 0.0010000002 0
-0.44999999 -0.58099997 0.0049999999 0
0.59388518 -0.53945041 0.0096762087 0
0.66124564 -0.58321083 0.017020954 0
0.83665228 -0.56657743 0.0026875853 0
0.96810424 -0.53469139 0.0080871489 0
1.0595701 -0.55598563 0.0091658877 0
1.1699634 -0.55339456 0.0054345895 0
1.2341605 -0.53356576 0.003072432 0
0.4707588 -0.41857332 0.0037991921 0
0.53329813 -0.48095223 0.0058305548 0
0.84722298 -0.44754532 0.01622455 0
0.96459973 -0.42675167 0.011769738 0
1.0499496 -0.44434097 0.011262324 0
1.1609693 -0.4735612 0.016460543 0
1.2699085 -0.49673113 0.013409164 0
0.41033331 -0.34666666 4.7999158e-14 0
0.74382567 -0.34331918 0.012404512 0
0.83998507 -0.35002828 0.017088337 0
0.91738808 -0.38102263 0.014270671 0
1.2537197 -0.36639574 0.0032476175 0
0.85299999 -0.177 0.015999999 0
0.94197434 -0.16363184 0.0062727258 0
1.0420374 -0.14569852 0.01582605 0
1.127367 -0.13194695 0.013584945 0
1.2202042 -0.14266315 0.023264734 0
-1.753 0.025 0.0099999998 0
-1.6607407 0.023409322 0.017953392 0
0.85536343 0.046225112 0.018616388 0
0.96076113 0.047060624 0.011037004 0
1.0376049 0.055623181 0.014749585 0
1.1565759 0.057126302 0.0080541419 0
0.87973249 0.16195735 0.0058370801 0
0.96784353 0.1779612 0.01062624 0
1.0531871 0.19442239 0.015252478 0
1.1291399 0.22178832 0.013032342 0
1.2383544 0.25570869 0.019297166 0
1.34429 0.25577188 0.028502988 0
1.4536948 0.27350211 0.042696238 0
1.543 0.289 0.041500002 0
1.2299234 0.30477583 0.0074380636 0
1.3462418 0.33880034 0.016808862 0
1.44911 0.35784483 0.023521705 0
1.5275 0.34625 0.046500005 0
1.114 0.456 -2.0502831e-14 0
1.4424998 0.41752067 0.008409312 0
1.5230416 0.4290503 0.015587213 0
-0.42799997 0.77366668 0.0036666666 0
-0.26300001 0.79050004 0.0024999999 0
0.010079983 0.76267624 0.017560305 0
0.167 0.79400003 -2.2771503e-14 0
-1.3998818 0.87246227 0.00035414472 0
-0.64452183 0.89936948 0.0023519443 0
-0.43530002 0.83653831 0.0035567179 0
-0.31097534 0.86154664 0.011741696 0
-0.26877445 0.86540854 0.0068465662 0
0.010527972 0.86168194 0.0094964895 0
0.17744508 0.84821337 0.0072069997 0
0.52013052 0.86163485 0.037956506 0
0.64074242 0.8974269 0.0049874559 0
0.71892685 0.89181578 0.0022089593 0
-1.6059999 0.99900001 0.030999999 0
-1.5404698 0.95877045 0.021256905 0
-1.4687169 0.93898475 0.010517779 0
-1.3838766 0.93778348 0.0053879227 0
-0.6952827 0.96955419 0.011027918 0
-0.54923129 0.9700489 0.0081865052 0
-0.47990972 0.93172944 0.010313541 0
-0.32224423 0.93205059 0.0098744314 0
-0.29254889 0.94131702 0.016193133 0
0.01089598 0.94301152 0.0028723665 0
0.17855303 0.95233148 0.0065442198 0
0.25137946 0.93846065 0.012838873 0
0.30235529 0.96715921 0.0035435322 0
0.57546091 0.93920153 0.015557263 0
0.65289813 0.96307135 0.018059675 0
0.76714027 0.95022362 0.013563438 0
0.84493947 0.93859005 0.0056505594 0
-1.604 1.05 0.029999999 0
-1.5204608 1.0306392 0.028979871 0
-1.4370798 1.0060695 0.024137756 0
-0.74604362 1.0397389 0.019703887 0
-0.62369955 1.065558 0.015126145 0
-0.54966754 1.0489289 0.01619366 0
-0.34444395 1.0504466 0.024496617 0
0.19008422 1.0395216 0.0092812609 0
0.20552082 1.0350242 0.0014930526 0
0.33612964 1.0541222 0.014988399 0
0.58027256 1.0883723 0.010581754 0
0.64124334 1.0443249 0.016302451 0
0.76008964 1.0114603 0.02682152 0
0.85621423 1.0123444 0.019581815 0
0.90100002 1.003 0.014 0
-1.5755599 1.1058022 0.052103315 0
-0.84756541 1.1801083 0.037055831 0
-0.79680455 1.1099236 0.028379858 0
-0.63167858 1.1492267 0.025409784 0
-0.58628488 1.1710324 0.024400387 0
-0.41543841 1.1653666 0.038854241 0
-0.37084809 1.1658508 0.035188224 0
0.16948393 1.1451359 0.00020739902 0
0.21158999 1.1237334 0.012751835 0
0.36877015 1.1258144 0.021540342 0
0.61869669 1.1584965 0.022109006 0
-0.8983264 1.250293 0.045731802 0
-0.72943687 1.2667443 0.037953623 0
-0.6521374 1.2334726 0.031964552 0
0.18131191 1.2311811 0.0052765319 0
0.23613037 1.2523 0.0218518 0
0.43532801 1.254158 0.010372044 0
0.57915264 1.2420677 0.0070560761 0
0.63770664 1.2507671 0.018043762 0
-0.935 1.301 0.052000001 0
-0.73099995 1.329 0.042750001 0
-0.68297917 1.3137063 0.038461234 0
0.19313988 1.3172264 0.010345665 0
0.26067078 1.3808664 0.030951768 0
0.44953379 1.325559 0.017710127 0
0.50608999 1.3404528 0.004899194 0
-0.71422791 1.420826 0.04382031 0
0.24867144 1.4481947 0.028604615 0
0.17299999 1.541 0.0009999983 0
0.24628523 1.541189 0.018931035 0
0.30500001 1.549 0.032000005 0
0.098337591 1.6529944 0.046082426 0
0.28902167 1.6728278 0.024349226 0
0.1029335 1.7482121 0.03359098 0
0.30351806 1.7583566 0.020791022 0
0.10719182 1.8364357 0.022017106 0
0.31801444 1.8438852 0.017232817 0
0.11145013 1.9246591 0.010443233 0
0.33251083 1.929414 0.013674613 0
0.34700722 2.0149426 0.010116409 0
0.36875179 2.1432357 0.0047791023 0
