# .PCD v0.7 - Point Cloud Data file format
VERSION 0.7
FIELDS x y z intensity
SIZE 4 4 4 4
TYPE F F F F
COUNT 1 1 1 1
WIDTH 523
HEIGHT 1
VIEWPOINT 0 0 0 1 0 0 0
POINTS 523
DATA ascii
-32.458294 -13.965523 11.822858 13
-28.417204 -13.573646 11.679214 14
-28.359928 -13.548799 10.262174 13
-28.179089 -13.859796 11.17352 13
-28.047701 -14.173762 11.631936 14
-28.225775 -13.918922 12.131501 14
-27.909283 -14.407465 10.544451 13
-27.792517 -14.488742 11.179201 14
-27.681328 -14.771995 11.591696 14
-27.881227 -14.558345 15.810727 17
-27.498188 -15.088491 12.006068 14
-27.461622 -15.281164 15.876786 17
-27.539135 -15.110435 15.754094 17
-27.178244 -15.50236 10.284163 13
-27.149548 -15.661714 10.543931 13
-26.814243 -16.138432 11.05396 13
-26.941027 -15.96565 11.523316 14
-26.88916 -16.244938 16.631927 18
-26.900126 -16.148682 16.915054 18
-26.773077 -16.141348 10.299907 13
-26.584034 -16.566206 11.503188 14
-26.654764 -16.354382 11.224519 14
-26.425192 -16.862051 11.864666 14
-26.71352 -16.517622 15.8964 17
-26.732138 -16.49321 17.294453 18
-26.364084 -16.775433 10.320696 13
-25.977123 -17.432722 10.358523 13
-25.693775 -17.961037 11.055641 13
-25.883692 -17.691408 11.385639 14
-25.696888 -18.032463 11.795569 14
-25.711689 -17.949181 13.228676 15
-24.955715 -19.19462 11.094602 13
-24.992804 -19.092186 13.316744 15
-24.914566 -19.495531 17.279274 18
-24.764391 -19.365963 10.494241 13
-24.567465 -19.797449 11.113631 13
-24.73838 -19.474186 11.433111 14
-24.580868 -19.805044 11.720637 14
-24.774807 -19.60947 16.085018 17
-24.658993 -19.88364 16.739645 18
-24.591738 -19.882515 17.246582 18
-24.493046 -20.165161 17.74622 19
-24.380999 -20.032709 10.560228 13
-24.207188 -20.428534 11.1527 13
-24.249542 -20.436327 11.731733 14
-24.043545 -20.819109 16.211203 17
-24.163412 -20.70635 17.325415 18
-23.968857 -20.6824 10.625246 13
-23.829102 -21.049618 11.192796 13
-23.954983 -20.735888 11.56319 14
-23.845652 -21.024242 11.709834 14
-23.928154 -20.790262 12.503117 15
-23.932579 -20.955843 16.284977 17
-23.882036 -21.089451 16.830814 18
-18.579906 -7.3670597 2.3043602 7
-18.342962 -7.0112734 1.1185794 5
-16.702496 7.3456225 -0.47686642 3
-16.6255 -0.4883301 -0.39187518 3
-15.713833 -0.23591046 -0.39620829 3
-15.632118 -12.298951 4.3438921 10
-15.863145 -11.923079 4.3594894 10
-15.99161 -11.588119 4.1909599 10
-15.729071 -12.023895 4.640254 10
-15.954218 -11.638012 4.6148701 10
-15.003159 -1.1380985 -0.34583315 3
-10.965953 -1.3444167 -0.2460172 3
-10.290578 -7.4373846 -0.55277842 2
-10.262786 -8.523139 -0.1828316 3
-10.318345 -8.0120649 -0.2383099 3
-10.305737 -7.6900787 -0.1160129 3
-10.287306 -7.3958197 -0.18273966 3
-10.291846 -8.1000156 0.26658192 4
-10.305126 -7.9280767 0.17575715 3.5
-10.298074 -7.5019088 0.21083251 3.6666667
-10.329594 -6.8723388 0.28285074 4
-10.314877 -6.7217565 0.29999766 4
-10.283993 -5.6758056 0.28817239 4
-10.21099 -7.9521303 0.61864161 5
-10.201591 -7.556293 0.59801304 5
-10.237619 -6.8479238 0.56477755 5
-10.314353 -6.7600484 0.76895595 5
-10.297853 -5.8007698 0.61803693 5
-10.29713 -8.1086855 1.0320814 6
-10.308618 -7.8524089 0.8348335 5
-10.268237 -7.466886 0.89817041 5.5
-10.245377 -6.760633 0.93888003 6
-10.371951 -5.7603517 0.92467529 6
-10.217091 -8.0704861 1.4155375 6
-10.275234 -5.7266335 1.410601 6.5
-10.353955 -5.4540319 1.5745332 7
-10.28661 -7.989635 1.8106819 7
-9.7008438 -4.0669742 -0.44942921 2
-9.9290667 -2.0870895 -0.17495911 3
-9.8016663 7.0762219 5.9728694 17
-9.8464451 7.0725636 6.2858744 18
-9.3869257 -3.3964059 -0.16185735 3
-9.1005907 -4.5093427 -0.14278641 3
-9.0203171 -2.7799273 -0.14439319 3
-8.845335 -2.2517526 -0.16376737 3
-9.1164837 -4.4359856 0.069329232 3
-9.0652151 -4.1556764 0.071638912 3
-9.0638094 7.1336474 5.4570899 17
-9.0981407 7.1316476 5.8529639 18
-8.8475847 7.034781 6.0191579 18
-8.579505 2.739475 -0.058668576 3
-8.652935 9.0920115 4.117723 13
-8.722497 8.9889212 4.5021906 14
-8.3693008 5.7117958 -0.25801405 3
-7.5818639 7.1213069 9.463397 26
-7.3135843 7.0589757 9.6380768 26
-6.9025402 -30.087019 15.619691 17
-6.8299117 -29.966948 16.078733 18
-6.8636117 -30.447317 33.799633 28
-6.5802979 -5.4880934 -0.37659615 2
-6.6502738 7.2359576 9.0612345 26
-6.5336432 -30.206818 15.933773 18
-6.2768183 -4.7538729 -0.38022754 2
-6.0674944 7.1670747 4.6282635 17.333334
-6.1810403 -30.112553 15.501892 17
-6.1847835 -30.190718 16.11388 18
-6.2102847 -30.188108 17.161871 19
-5.7490201 -1.2010419 -0.30131134 2
-5.6302738 -0.41202846 -0.29387745 2
-5.6285481 -0.14630578 -0.29969501 2
-5.5847826 -2.04194 -0.30186427 2
-5.5003638 -1.7285379 -0.29550919 2
-5.5247588 -1.4619092 -0.29605702 2
-5.2275529 -0.65235287 -0.28359276 2
-5.2004066 9.1668158 3.326324 13
-5.132812 -4.6852694 -0.33220771 2
-4.843112 -0.097841069 -0.27389947 2
-5.1079502 2.8053203 -0.22866589 2
-4.9289317 9.1756744 3.273329 13
-4.9248137 9.1590977 3.8193886 14
-4.7586493 1.0121732 -0.27779046 2
-4.4094234 9.176156 3.2152796 13
-4.1075902 -6.2751989 -0.35374111 2
-4.0884438 1.123327 -0.10724648 2.5
-4.2253404 1.4515448 -0.23995608 2
-4.0425687 1.6987923 -0.25490379 2
-4.2210889 1.1096088 0.27613136 5.5
-4.1074247 1.2009097 0.22914588 5
-4.0839744 1.6284568 0.18212326 5
-4.0601845 2.0685036 0.18486084 4.5
-4.276999 1.0680836 0.42086783 6
-4.0164137 1.600814 0.42845038 6
-4.0492368 2.0519261 0.45319581 6
-4.1604295 9.172904 3.0812149 12
-4.3526011 9.1577902 3.4905369 13
-4.2633438 9.1616812 3.7313628 14
-3.8071759 1.519539 -0.25806108 1
-3.8072557 1.7506373 -0.11364637 2.5
-3.8958807 1.748316 0.25752941 5.1666665
-3.9288876 1.6540709 0.578646 7.5
-3.3890605 -1.6347835 -0.27507368 1
-3.2241359 6.1242652 -0.13822669 3
-3.3248396 2.212718 0.20916753 5
-3.2921553 -26.669477 13.741518 17
-3.3734944 -26.677795 14.258475 18
-2.8619525 -0.21269077 -0.24809623 1
-2.8472319 0.73795265 -0.23790275 1
-3.1161532 1.6696962 -0.23534223 1
-2.9061012 2.6593018 -0.2129434 2
-3.087765 2.3642457 0.22207551 5.25
-3.0094302 2.4687269 0.18187208 5
-3.0666931 2.4682002 0.642111 8.3999996
-2.9345477 -26.721533 13.354676 17
-2.8081017 -26.803442 14.307729 18
-3.0654881 -26.778996 14.068607 18
-2.825238 -27.010817 30.13369 28
-2.4761448 -2.32867 -0.045095406 3
-2.6653593 -1.0187392 -0.24343592 1
-2.7229521 -0.58205974 -0.24348851 1
-2.7873926 -0.077998295 -0.24225323 1
-2.507869 0.64501971 -0.21737777 1
-2.5368655 2.5336063 -0.19525206 2
-2.5274885 5.3702965 -0.11288145 3
-2.492965 6.0362477 -0.11832108 3
-2.5875463 -2.3394811 0.18211249 5
-2.6544554 -2.3743076 0.50050634 7
-2.6939716 -26.814068 13.752789 17
-2.4673636 -26.846634 14.061897 18
-2.5006082 -26.975904 29.898855 28
-2.0679123 -5.8133407 -0.30187964 2
-2.1625292 -3.8976583 -0.18641832 2
-2.1448653 -3.2327487 -0.27520645 1
-2.1964645 -2.317482 -0.11126987 2.1666667
-2.1512983 0.76482522 -0.21239474 0
-2.2506225 2.5709493 -0.18876785 2
-2.1671045 2.8922324 -0.18171784 2
-2.1785192 -2.3332539 0.15366817 4.75
-2.2534733 -2.3025179 0.45627031 7
-2.2443583 9.1822662 2.7911534 12
-2.1688073 9.179678 2.9884269 13
-2.1186855 9.1657772 3.4796405 14
-2.0616262 9.1701231 3.8223336 15
-2.3086071 -26.780157 13.30199 17
-2.2308497 -26.861193 14.327022 18
-2.2457142 -26.672396 15.178038 19
-2.2166066 -26.983187 29.93601 28
-1.8394518 -2.3241131 -0.055244945 2.6666667
-1.7829608 -0.73702455 -0.21501277 0
-1.7719918 1.5800222 -0.19409677 1
-1.6759329 1.6388499 -0.19088832 1
-1.9529973 2.8648903 -0.17785992 2
-1.9247341 3.5977161 -0.15249327 2
-1.8713592 -2.330049 0.15572053 4.8571429
-1.7590739 9.2308855 0.04271172 3
-1.6389087 -26.684025 14.224374 18
-1.6128836 -26.699156 15.220387 19
-1.3615922 -5.0691123 -0.29608825 2
-1.3564315 -2.3495367 -0.016585933 3
-1.4101708 1.7293521 -0.17981024 1
-1.5029004 2.4412868 -0.17420287 1
-1.3846027 2.8867123 -0.16384739 2
-1.369565 -2.3253703 0.18847084 5.4615383
-1.3675367 -2.3350413 0.5760026 9.5
-1.2253861 2.7504835 0.48054993 8
-1.3299704 9.177043 2.9156706 12.666667
-1.4701513 -26.680609 13.579474 17
-1.0135846 -5.1801138 -0.29047027 2
-0.86793375 -4.4068527 -0.26930138 1
-0.86569363 -2.686147 -0.23008156 1
-0.9341765 -2.3469286 -0.0056208698 3
-1.0823358 1.1556262 -0.1837862 0
-0.8719551 1.3420751 -0.1771135 0
-1.0851833 2.2037139 -0.16781014 1
-0.9949894 2.487118 -0.15751666 2
-0.96986169 -2.3291886 0.21576244 6
-1.0590942 2.7055833 0.21749641 5.5
-0.93472952 2.8277268 0.14186981 5
-0.83838648 5.6362572 0.026445987 3
-0.88021213 9.2052765 0.042761646 3
-0.94195163 -2.3244741 0.54361421 9.8000002
-1.193662 2.7743995 0.55310476 9
-1.0288452 2.8845937 0.53341258 8.333333
-0.90644133 9.2093897 1.0138385 6.6666665
-0.85873729 9.2077255 1.4058384 8
-0.80976152 9.2098351 1.779999 9
-0.91672546 9.194438 2.1361828 10
-0.99736983 9.184783 2.9604394 12.5
-1.0112196 9.1813974 3.4690742 14
-0.90472406 9.1761665 3.7567792 15
-1.0607692 -26.971575 30.117682 29
-0.77698004 -5.2325888 -0.28735733 2
-0.48008344 -5.0590911 -0.28115711 2
-0.67309213 -4.4964261 -0.2672089 1
-0.73547572 -2.9626985 -0.23606125 1
-0.62838036 -2.3490911 -0.0073534539 3
-0.75295484 1.4394213 -0.17412126 0
-0.6545459 1.9060981 -0.16395114 1
-0.74274176 2.5086157 -0.15371045 2
-0.6715734 3.7365077 -0.12744032 2
-0.58894104 -2.3303578 0.1786771 5.5714288
-0.71471167 3.3502743 0.10234991 4
-0.49835548 9.2085924 0.21001571 4
-0.57514369 -2.3306947 0.52329063 9.7142859
-0.59607023 9.2191658 0.53192168 5
-0.63024962 9.1985521 0.99161339 7
-0.58728069 9.2140703 0.93504971 6.3333335
-0.5337047 9.2149811 1.3918935 7.5
-0.67039615 9.1931314 2.2155037 10
-0.7367413 9.201829 2.0602624 10
-0.6893025 9.2034683 2.6444197 12
-0.61793447 9.1844826 2.9222028 12.5
-0.62533408 9.1801167 3.4471915 14
-0.69795746 9.1827765 3.7539489 15
-0.40359268 -26.923201 29.465101 28
-0.61896664 -26.927689 30.043964 29
-0.01261915 -4.3306532 -0.26071721 1
-0.23121767 -2.3333411 -0.0076618404 3
-0.27348769 1.785033 -0.15870456 1
-0.19418709 2.5217097 -0.14049304 2
-0.17824483 -2.3224151 0.18437053 5.5384617
-0.35041788 9.2161674 0.16347909 4
-0.20607363 -2.3289688 0.50854009 9.7142859
-0.22638236 9.2169085 0.58254755 5
-0.25057739 9.2111177 1.0064451 6.75
-0.1825261 9.2166405 1.4627795 8
-0.16201589 9.2101164 1.8006144 9
-0.17092057 9.2070799 2.1475949 10
-0.27286565 9.1899424 2.6888127 12
-0.18433037 9.1903172 3.0110996 13
-0.083224967 9.186326 3.4714365 14
-0.20704526 9.1862555 3.6820407 15
-0.18503256 -26.933905 30.100248 29
0.046001829 -10.383618 -0.28645253 2
0.22443622 -4.1476355 -0.24547842 1
0.13003165 -2.8136804 -0.088380277 2
0.37865508 -2.3289847 -0.013508295 3
0.35096106 1.5897173 -0.14531828 1
0.12684405 1.6692425 -0.14811119 0.66666669
0.062195659 2.3304195 -0.13478008 2
0.19813186 2.5465353 -0.1359074 2
0.2110749 -2.3193874 0.19476789 5.7692308
0.27538538 2.2690718 0.18861909 5.6666665
0.27897716 2.5688279 0.036764562 4
0.045741152 -2.3238635 0.48072466 9.5
0.13668151 2.4675081 0.57536107 10
0.0881382 9.2127295 1.5669037 8
0.026894797 9.209959 1.6937174 9
0.34997842 9.1872597 3.4988015 14
0.023954948 9.1898136 3.7472713 15
0.20307018 -26.909163 29.345524 28
0.24036703 -26.865698 30.075052 29
0.43226308 -4.3237147 -0.24429969 2
0.60460055 -2.3293679 -0.092502721 2
0.68850881 1.6514409 -0.13620539 1
0.53384984 3.0145953 -0.11933301 2
0.69739038 6.9108863 -0.038751513 3
0.59962094 -2.3426476 0.20164342 5.75
0.59557414 2.1620319 0.17169525 5.6363635
0.64077818 2.4327135 0.014514713 3
0.672409 -2.349581 0.41738236 8
0.40297997 9.2103662 2.5899048 12
0.43263161 9.1969471 3.0330319 13
0.4198761 9.1876669 3.6970191 15
0.55941951 6.9352932 6.7408257 26
0.59640867 7.0240498 6.8727274 27
0.43350714 -26.924868 29.840677 28
0.6738261 -26.906551 30.113855 29
0.87571448 -2.2572882 -0.11449876 1.75
1.1873652 -0.99637353 -0.16109353 0
1.1238341 0.57649744 -0.13734768 0
1.0511138 0.97983122 -0.13483244 0.5
0.95248604 1.3752116 -0.13221788 1
0.98528498 1.920619 -0.12263992 2
1.0250025 2.225831 -0.11866912 2
1.0436089 7.020124 -0.028992945 3
1.0057741 -2.3417401 0.19130951 5.5
0.97010577 2.0764549 0.28402266 7
1.1130586 -2.4039562 0.56600994 10
1.0237223 -2.3576913 0.4758929 8.8000002
1.0212529 -26.858046 29.74412 28
0.95875448 -26.860172 30.225069 29
1.547931 -2.1037567 -0.1751795 1
1.4412526 -1.391119 -0.16244578 1
1.4335363 -1.0421764 -0.15372095 1
1.3294847 -0.60197866 -0.14879768 0.33333334
1.5531248 -0.33304331 -0.13707843 1
1.3979201 0.22806972 -0.13243721 0.66666669
1.4301292 0.99704963 -0.12422781 1
1.5716426 2.940537 0.011553377 3
1.3631387 8.6918669 3.4105275 14.5
1.2111373 8.6759501 3.6186223 15
1.3673134 8.6722097 4.2660933 17
1.4134918 -26.924532 29.196404 28
1.2516556 -26.863798 30.116293 29
1.6834168 -3.5949581 -0.21058455 2
1.7423046 -2.9670784 -0.19826858 1
1.8491585 -2.6492012 -0.17897035 2
1.8929892 -2.2423904 -0.16620672 2
1.6023726 -1.8916042 -0.1694798 1
1.6009288 -0.87539351 -0.14434569 1
1.6003716 -0.73162776 -0.14325048 1
1.8286023 -0.011027565 -0.12362736 1
1.8963821 0.63440228 -0.11598574 1.3333334
1.7481813 1.7207409 -0.11094837 2
1.6071436 2.6925313 0.0071166395 3
1.9184998 7.159337 7.2701683 27
1.6100835 -26.862366 29.741568 28
1.8315667 -26.875179 30.190739 29
2.321286 -3.9002545 -0.20278375 2
2.3980486 -0.51124382 -0.12206072 2
2.3766127 -0.018942153 -0.11598203 2
2.1976016 0.19458765 -0.11719263 2
2.0139778 0.6120193 -0.11450337 2
2.1379807 1.6747977 -0.10730208 2
2.120095 3.1945653 -0.079824068 3
2.0950341 8.0173321 4.2006574 17
2.0853763 7.173933 7.1685786 26
2.1669972 7.1673627 7.3948078 27
2.0946662 -26.823952 30.44496 29
2.754003 -2.2916274 -0.15541852 2
2.6745753 -1.0538694 -0.13291264 2
2.4779692 -0.71620113 -0.12453123 2
2.4210768 -0.13061029 -0.11694051 2
2.706758 1.263775 -0.10210975 2
2.7092445 -2.7447343 0.15728945 4
2.7423947 -2.2125397 0.34760466 6
2.7763133 2.3410969 0.28474817 5.5
2.6280692 2.455008 0.31507167 5.6666665
2.606612 2.8491039 0.032689735 3
2.7410967 -2.2236369 0.53122205 8
2.7325087 2.3561869 0.45415974 7
2.5894053 2.4769473 0.49978811 7.3333335
3.1135545 -3.8523088 -0.026611816 3
3.0772159 -3.1100745 -0.15833558 2
2.9922805 -2.723732 -0.1752782 2
2.8267963 -2.1406584 -0.15323375 2
2.8028927 0.69795221 -0.099629514 2
3.1817672 1.6734287 -0.10187977 2
2.8527148 -3.9196985 0.16197905 4
2.8615596 -2.2073405 0.35578394 6
3.0706348 2.2483537 0.14631206 4
2.8246865 -2.1990516 0.48073357 7
2.8255045 2.3296981 0.56096429 7.5
3.4371891 -3.8222423 -0.10012566 3
3.3470144 -0.34313416 -0.1108511 2
3.5395327 3.1672146 -0.053264853 3
3.5060108 -2.2217357 0.22771083 4.6666665
3.4240844 -2.1910813 0.54760844 7
3.6360569 -1.7350261 -0.13689202 2
3.7287045 0.3293511 -0.087436788 2
3.9193306 3.1940508 -0.049704976 3
3.6035299 -2.1975842 0.11586023 4
3.8759665 7.2464752 4.8927774 19
4.2485533 -0.014495423 -0.088776834 3
4.1817446 0.17592771 -0.092879139 3
4.211791 0.70882076 -0.075491682 3
4.0784507 0.97436076 -0.082265951 3
4.3888702 2.3057857 -0.055929452 3
4.0316677 2.9898651 -0.042249963 3
4.0844092 6.0930009 0.082546562 4
4.203876 -2.1966972 0.58619648 7
4.5659995 2.143199 -0.044534788 3
4.4826016 4.4726377 -0.017760513 3
4.987123 -0.2853336 -0.064886443 3
4.9954987 -2.1863301 0.60251915 6.75
4.9294591 -2.1764567 0.85368484 8
5.0363593 7.1994519 8.373373 26
4.9474974 7.2022767 8.3301859 26
4.8888164 7.1752529 8.5091181 27
5.5723462 -5.6708779 -0.15282789 3
5.5838733 -1.7270836 -0.081329107 3
5.2936893 -0.54216444 -0.066518597 3
5.3371754 2.1853774 -0.014584512 3
5.5422311 -8.9488506 0.19094194 4
5.3522916 -2.2276313 0.35422793 5
5.3122125 -2.1973441 0.53018504 6
5.2430902 -2.1751902 0.85560095 7.5
5.4679585 7.4014869 9.2818565 27
5.9342823 -2.1455493 -0.071988098 3
5.6118255 -1.4616349 -0.085235178 3
5.7787509 -8.9132881 0.28460747 4
5.7707648 -8.9398003 0.49825433 5
5.6692019 -8.9601307 1.0611103 6
5.7659478 -29.77055 12.808815 15
6.1498799 -3.7480042 -0.095244624 3
6.1695104 -29.726015 9.7272186 13
6.3266439 -29.853119 10.969353 14
6.0630684 -29.726822 12.503114 15
6.592731 -9.8383303 -0.057926923 3
6.548625 0.57773668 -0.027208176 3
6.6502934 7.4046712 4.2430968 15
6.433465 7.2705631 4.4079356 16
7.2054944 -1.1498071 -0.048234861 3
7.3049049 1.8063221 0.30011386 4
7.4257593 3.0344582 0.2103274 4
7.4673314 3.4702268 0.21696508 4
7.4952583 3.9211168 0.22352818 4
7.3286166 3.338342 0.56541389 5.5
7.3839979 3.7161825 0.47459966 5
7.3456087 3.3197989 0.91128814 6.3333335
7.3633237 3.7611687 0.93385726 6.3333335
7.4459891 7.2723689 6.0897508 19
7.5952492 7.0713935 11.277351 28
7.453249 -29.808044 18.355509 19
7.762548 -10.518813 -0.06756264 3
7.879889 7.22966 10.791578 27
7.7733164 6.9753947 11.356555 28
8.1428127 7.2082214 10.70205 27
8.1208 7.2265725 10.821986 27
8.1906538 -29.782028 18.525288 19
8.5763302 -2.6787243 0.24725515 4
8.6860209 6.9767742 11.441793 27
8.57372 6.9316249 11.903183 28
8.7528181 -29.471949 18.906958 20
9.0423794 7.2662926 10.73243 26
9.0901489 7.0185571 11.356375 27
9.0819263 7.2189651 11.273567 26
8.9826946 6.9205923 11.881849 28
9.454628 -2.4740589 0.25838816 4
9.5912781 9.2962675 4.1611114 12
9.3703051 7.258472 11.013965 26
9.8249512 9.3592978 3.4199104 10.5
9.9841261 7.3214483 5.9658217 17
9.9687567 7.2574077 6.360889 18
10.360581 9.348259 3.4403462 10
10.078807 9.2931404 3.6309559 11
10.043848 9.3064861 4.262877 12
10.086011 7.3051424 5.3325 15.5
11.56944 2.2072928 0.20099699 4
11.486644 7.2992964 6.5431137 17
11.808311 7.3408828 5.7655292 15
11.781397 7.3173141 6.1740212 16
12.792122 1.8234371 0.23064713 4
12.507668 -29.64765 15.667223 17
12.998881 -29.111902 13.269944 15
12.862696 -29.245331 13.618745 15
12.802349 -29.148691 16.307695 17
13.073158 -29.321705 34.336987 28
13.209236 -29.205828 11.528176 14
13.253428 -29.091635 13.523259 15
13.577653 -29.092604 13.695656 15
13.743455 -29.272753 33.084816 27
14.244171 -29.148668 13.805464 15
14.566356 -28.978937 13.618909 15
15.101845 -29.545849 11.105431 13
14.910597 -29.529013 11.893195 14
15.801862 -2.4022126 0.42011285 4
17.141777 7.4357214 6.2717843 13
17.54425 7.4443612 4.6783037 10
17.642502 7.4674373 5.3104115 11
19.330555 -2.020643 0.50830752 4
19.526228 -26.333307 14.078114 15
19.922617 -26.362167 13.96263 15
19.956665 -26.210938 15.666725 17
20.057814 -26.255859 14.326848 16
22.727007 -26.183189 14.60746 15
22.645998 -26.098692 15.186379 16
22.921978 -26.157005 15.185733 16
23.299618 -26.153032 15.084244 15
23.745079 -26.131531 14.859854 15
23.760187 -26.047998 15.493402 16
34.270607 -27.378172 18.33267 15
34.272804 -28.037804 19.148447 15
34.236916 -27.979763 19.147421 16
34.391232 -26.85911 18.885002 15
34.297859 -27.31485 19.482723 16
34.166847 -27.241968 21.730576 17
34.930367 -26.634438 18.337797 15
38.669472 -0.42339358 1.0018412 4
