# .PCD v0.7 - Point Cloud Data file format
VERSION 0.7
FIELDS x y z intensity
SIZE 4 4 4 4
TYPE F F F F
COUNT 1 1 1 1
WIDTH 548
HEIGHT 1
VIEWPOINT 0 0 0 1 0 0 0
POINTS 548
DATA ascii
-30.445608 -13.091084 8.3576441 11
-30.136988 -13.757174 8.3416739 11
-30.192509 -13.663048 8.7932091 11
-29.840755 -14.435051 8.3327322 11
-29.68737 -14.80777 12.144432 14
-29.894587 -14.409554 12.439515 14
-29.682127 -14.965168 13.092951 15
-29.96451 -14.259752 13.072828 15
-29.76561 -14.716708 13.648906 15
-29.808376 -14.648145 14.869565 16
-29.233862 -15.799206 8.3180199 11
-29.285997 -15.654491 8.6963911 11
-29.346796 -15.457023 9.3075724 12
-29.39492 -15.455529 12.190438 14
-29.25802 -15.814693 12.502034 14
-29.57123 -15.112699 12.463774 14
-29.344147 -15.636781 13.097188 15
-29.455469 -15.385856 13.641028 15
-28.981873 -16.168987 9.3420534 12
-28.932608 -16.362999 10.303848 12
-28.811584 -16.759142 12.297556 14
-29.130018 -16.121761 12.253436 14
-28.835915 -16.738222 13.647419 15
-29.051598 -16.343151 14.112429 15
-28.871651 -41.55822 16.593077 13
-29.140734 -41.119907 17.876617 13
-28.877571 -41.749393 19.439939 14
-28.974649 -41.517609 19.64319 14
-29.086826 -41.517845 20.148279 15
-28.709398 -17.014248 13.147734 15
-28.797991 -16.82987 15.044858 16
-28.742361 -42.16737 20.098524 15
-21.679878 -4.4542928 2.7780085 7
-21.746639 -4.2419386 2.4742334 7
-21.89089 -3.9516447 2.7830186 7
-21.557472 -4.5522709 2.0596485 6
-17.36953 3.0600758 0.46649498 4
-17.432274 3.2199361 0.61296546 4
-17.427744 3.6811795 1.0175251 5
-17.427107 3.7088408 1.2929717 6
-14.840326 -28.805277 12.467462 14
-15.171868 -28.744684 12.77168 15
-14.57171 -28.833282 10.776304 13
-14.573462 -28.773649 12.495341 14
-13.199827 -0.41347823 -0.19080256 3
-13.110375 -4.1706724 0.63536936 5
-13.129897 -4.2452135 1.2085259 6
-13.160153 -3.9278789 1.2075233 6
-12.510322 -4.1418509 -0.20779556 3
-11.747375 -2.6923306 -0.18143639 3
-11.6436 -2.1203732 -0.1916469 3
-11.68451 -1.4885168 0.022580927 3
-11.560412 -3.2125199 -0.16440359 3
-11.214423 -29.036087 17.937759 19
-11.135096 -0.84114009 -0.16033758 3
-10.4016 -29.195702 16.891422 18
-10.746652 -29.076763 17.737585 19
-10.119959 3.8677413 0.027565099 3
-10.125439 4.1658082 0.22597732 3.6666667
-10.123095 4.1528597 0.70551229 5
-10.006063 -29.177956 17.526323 19
-10.22705 -29.099339 17.715424 19
-9.0557041 8.0714045 10.831388 25
-8.482399 -25.77606 10.461629 14
-8.2488394 9.9606581 3.6116316 12
-8.0559578 10.014086 3.8541582 12
-8.2526274 -25.837635 8.5815458 12
-8.1744957 -25.864632 9.2335157 13
-8.1073236 -25.89467 9.8594875 14
-8.2326536 -25.826561 10.188547 14
-8.2318268 8.0262423 10.196116 25
-8.1874447 -25.80859 15.327548 19
-7.6841187 9.9798002 2.7754049 10
-7.6582189 9.958189 3.1025269 11
-7.9039989 9.9499359 3.4812565 11.5
-7.6331511 -26.015453 8.6153374 13
-7.6253123 -25.960375 10.126362 14
-7.8818016 -25.913046 10.699433 15
-7.8179121 -25.921705 15.489417 19
-7.4806905 9.9202423 3.432164 11
-7.5611453 -25.987494 9.2393379 13
-7.5178571 -26.029644 9.8593111 14
-7.2787199 -26.012779 10.363279 14
-7.5347533 -26.113361 14.192275 18
-7.5949807 -26.003386 15.281335 19
-7.2078395 -25.996502 15.404275 19
-6.951211 -26.02906 15.143225 19
-6.6931562 7.8731756 10.572333 27
-6.4750719 7.6610761 10.993406 28
-6.7770867 -26.137945 14.78015 18
-6.5908942 -26.043386 15.310172 19
-6.1614823 2.6502724 0.15839253 4
-6.1661906 -26.141985 14.718086 18
-6.1380539 -26.108202 15.306103 19
-5.840086 3.1866355 0.032385778 3
-5.8249497 9.8050947 2.5566282 10
-5.6767101 9.7760611 3.07265 11
-5.6654463 9.7775888 3.3871844 12
-5.6872897 -26.155294 8.619051 13
-5.7155252 -26.108618 9.8225718 14
-5.7044258 -26.139963 14.933058 19
-5.978992 -26.074409 15.216104 19
-5.3295927 7.8714876 9.3621769 27
-5.4218173 -26.097008 10.149066 14
-5.4802175 -26.118505 10.591058 15
-5.3789759 -26.136604 15.149048 19
-4.8521357 1.2691779 -0.14273877 2
-4.8763537 2.9563916 -0.22613475 2
-4.8780055 3.3025239 -0.17378075 2
-4.8818517 -1.8325877 0.27658093 4.5
-5.0728397 2.7480574 0.22530496 4.3333335
-4.8815556 2.9050128 0.27094823 4.5
-4.8668718 -1.827296 0.52761626 6
-5.0998216 2.7648129 0.5505234 6
-4.9013095 2.8745604 0.54094428 6
-5.0998211 7.8244972 9.3824863 27
-4.8423376 -26.274487 10.146978 14
-4.892004 -26.196953 10.585013 15
-5.0182772 -26.224392 14.071001 18
-4.5849833 -1.8325765 -0.064947531 3
-4.433939 -1.23994 -0.23523678 2
-4.5351758 -1.0021702 -0.24624072 2
-4.4662905 -0.65925252 -0.24846472 2
-4.4652128 2.1822648 -0.099369183 3
-4.6588545 -1.8426375 0.15704288 4
-4.7275252 1.2671126 0.23932242 4.5
-4.4571028 2.185545 0.062651031 3.5
-4.5638185 -1.825619 0.49860623 6
-4.7187996 1.3380989 0.54936957 6.6666665
-4.4095039 -26.218906 8.6410122 13
-4.4499516 -26.228374 9.2160053 13
-4.500217 -26.300867 9.7819719 14
-4.4053636 -26.25877 14.061994 18
-4.4558258 -26.208347 14.733015 18
-4.5953946 -26.204649 15.119514 19
-4.4913993 -26.183783 15.259023 19
-4.2632999 -1.6154408 -0.22655973 2
-4.1805725 -1.372746 -0.22102568 2
-4.2068973 -0.22002009 -0.24130563 2
-4.2883143 1.3697814 -0.25319603 2
-4.3183308 1.9852902 -0.15652558 2
-4.3232479 2.0085988 -0.041585788 3
-4.1233954 -1.887653 0.225511 4.5
-4.3060451 1.9352869 0.22836339 4.5
-4.3796563 2.160495 0.22644369 4.5
-4.14252 -1.8813123 0.46167931 6
-4.31984 2.1716628 0.59544563 7
-4.366106 2.0984292 1.3821143 11.75
-4.2324538 -26.277948 10.086994 14
-4.2989678 -26.223478 10.564013 15
-4.172143 -26.216309 15.012024 19
-3.7763915 -3.8112323 -0.24882789 2
-3.7239668 -3.4227033 -0.23552126 2
-3.8223617 -3.0584199 -0.22954723 2
-3.9576075 1.5728683 -0.24207985 2
-3.9461353 1.8979907 -0.25118947 2
-3.7466989 2.0201986 -0.24580193 2
-3.7043061 -1.9547358 0.18739524 4.5
-3.6704943 -1.9519083 0.48675457 6.5
-3.8954849 -26.2404 9.6740284 14
-3.7942243 -26.239773 10.171038 14
-3.7148848 -26.254154 10.555036 15
-3.7904928 -26.290255 14.062015 18
-3.8466551 -26.269033 15.13202 19
-3.5584395 -1.9976946 -0.027964208 3
-3.4950793 1.3806642 -0.23874991 1
-3.2708566 1.9683193 -0.23921102 1
-3.5513988 -1.9670024 0.24246059 4.75
-3.5772903 -1.9771359 0.65290993 8
-3.5020192 9.1045303 4.1761003 16
-3.2785616 -26.285021 9.6150637 14
-3.3253796 -26.262007 15.194068 19
-2.9816799 -2.1175013 -0.019505745 3
-3.1588013 1.602131 -0.23214704 1
-2.9968114 2.0006387 -0.2244152 1
-2.9064746 -2.1024139 0.15936697 4.5
-3.0556462 -2.0791414 0.5606246 7.5
-2.8678188 9.5132599 4.2357516 15.5
-2.9327831 9.254302 4.5085382 16
-3.1535943 -26.326097 8.6990604 13
-3.0156658 -26.307232 9.9800844 14
-3.1308641 -26.268938 10.541086 15
-3.18262 -26.317881 14.067061 18
-2.9782395 -26.320532 14.917084 19
-2.6191051 -2.2947156 -0.064085029 3
-2.4745147 -0.96737677 -0.21616651 1
-2.6678989 -0.52657312 -0.21964119 1
-2.5806031 -0.26368052 -0.21310593 1
-2.6180346 2.5140886 -0.20519447 2
-2.452852 -2.1453671 0.22504972 5.4000001
-2.605484 3.110219 0.13360566 4.1428571
-2.5159523 3.3012302 0.16705245 4.5
-2.6057975 -2.0978675 0.64009356 9
-2.5178967 3.3205335 0.46263808 6.5
-2.4668069 -2.0584929 0.81047964 11
-2.7528956 9.5106363 3.949594 15
-2.6294048 9.4905653 4.2249966 15.5
-2.4791131 -26.329756 4.6361518 8
-2.7361238 9.3376398 4.5179653 16
-2.7222831 7.5264368 5.0603466 20
-2.6228805 -26.300781 5.7551422 10
-2.4387856 7.4871907 6.3482704 24
-2.5306695 -26.366898 8.7301273 13
-2.4186716 -26.348093 9.9471512 14
-2.5825512 -26.40567 14.109103 18
-2.7423656 -26.311779 15.174117 19
-2.1314394 -2.1931 -0.0089628948 3
-2.3769495 -0.65348661 -0.20532867 1
-2.3361719 0.63249838 -0.20132938 1
-2.2131138 2.5515318 -0.19450524 2
-2.0699821 2.8038502 -0.20003198 2
-2.1232326 -2.1754272 0.22416942 5.5
-2.182915 -26.459141 5.4071493 9
-2.2435756 -26.310696 6.1421986 10
-2.2978518 7.4012303 6.5638471 24.5
-2.0557251 -26.362658 9.5182104 14
-2.1212156 -26.384987 9.7551889 14
-2.3881242 -26.423357 14.911125 19
-2.1624084 -26.333675 15.149201 19
-1.6498444 -4.694912 -0.22363223 2
-1.7508093 -3.8010871 -0.1651794 2
-1.7080516 -2.2208023 -0.11799622 2
-1.7220958 1.5596796 -0.19562057 1
-1.9549904 2.9249146 -0.20090437 2
-1.7860647 -2.2193356 0.14834583 4.8000002
-1.8679279 -26.428795 4.6812191 9
-1.8232478 7.4317994 4.6726632 20
-1.9520605 -26.379591 5.8122239 10
-1.764884 -26.360157 6.1612687 10
-1.9107003 -26.425829 8.7702103 13
-1.8216869 -26.384077 9.9202471 14
-1.9862978 -26.47193 10.597178 15
-1.9254341 -26.379974 15.421227 19
-1.4205863 -10.12181 -0.074957535 3
-1.5144186 -5.0470719 -0.22180697 2
-1.5473925 -3.7949462 -0.11922973 2
-1.5892677 -3.0777991 -0.090862237 2
-1.2659174 -2.4424331 -0.038647939 3
-1.4379044 -2.2577767 -0.071280219 2.3333333
-1.3967375 1.7768161 -0.18794823 1
-1.4030695 2.6160381 -0.190668 1
-1.5075668 2.9663115 -0.15963417 2
-1.3816917 3.3122208 -0.18191031 2
-1.3705823 -2.2791352 0.11458923 4.5
-1.389506 8.1679964 3.5350187 15
-1.3323958 8.1529274 3.6082072 16
-1.395023 -26.437595 5.2413163 9
-1.2888401 -26.445877 8.8053379 13
-1.4303986 -26.415577 9.3898163 13.5
-1.4044192 -26.434029 10.576315 15
-1.1990976 -12.772893 -0.071018539 3
-0.87340742 -3.6475124 -0.2182119 2
-0.94272745 -2.311893 -0.082653925 2.3333333
-1.1237161 1.1503597 -0.18751927 0
-0.9636333 1.3664476 -0.18732384 0
-1.1181887 2.5553772 -0.12497085 2
-1.0090653 2.9897768 -0.18223207 2
-0.83852136 -2.4608636 0.14894216 5
-0.97787601 -2.3350811 0.15326825 5
-1.0328764 -2.3294141 0.40134847 8
-0.90220737 7.3495412 4.5604072 20
-0.94757289 -26.305305 5.2864776 9
-0.85947621 -26.398111 14.598458 18
-0.99864525 -26.340761 15.097448 19
-0.6135565 -13.625024 -0.25323415 3
-0.62068886 -3.6934419 -0.21519107 2
-0.61629623 -2.55001 -0.20140523 1
-0.79541785 1.5921227 -0.18295985 0
-0.64064699 2.1069381 -0.17928408 1
-0.59328949 3.0523908 -0.17595676 2
-0.77696908 -2.5406363 0.10224495 4.5
-0.59640074 2.1847198 0.2141957 6.2222223
-0.58794385 7.3214288 4.3928094 20
-0.42433628 7.3075953 4.4432702 20
-0.78763247 -26.341238 15.396502 19
-0.21296775 -3.7375014 -0.21358497 1.5
-0.24390981 1.9714676 -0.17425801 1
-0.23013945 2.0095201 -0.17429121 1
-0.10036367 2.7197168 -0.08281371 2
-0.30115589 3.0033679 -0.16734806 2
-0.085317031 9.2868567 2.3114426 11
-0.15514632 7.2782645 4.3235292 19
-0.24442956 7.2932863 4.5582695 20.333334
-0.28590101 7.2981634 5.8761611 24
-0.20402807 7.0940604 6.0682569 25
0.013419235 -7.9593573 -0.25971818 2
0.18952292 -3.4729917 -0.20277299 1.5
0.16805427 1.81201 -0.16702574 0.5
0.17411132 2.1040633 -0.16853873 1
0.13234684 3.2365787 -0.16172139 2
0.38616779 3.8700264 -0.15029919 2
0.31411856 5.8219957 -0.069085382 3
0.077370569 -9.7303305 0.040578078 3
0.19152126 -2.658237 0.59557176 10
0.39634049 9.2479115 0.80574149 6
0.22071062 9.2382097 2.27507 10.5
0.23650183 9.2399454 2.635859 12
0.2768313 7.2563663 4.2811708 19
0.23436153 7.2492523 4.4184942 20
0.37907189 -29.861481 11.957401 15
0.76871181 -3.8720527 -0.19756763 2
0.72049218 -3.1167006 -0.19223736 1
0.42811981 1.8246024 -0.16652858 1
0.73160684 3.0338469 -0.10003638 2
0.59172833 4.0070157 -0.14708248 2
0.7635386 -2.9642625 0.080875501 4
0.74350637 -2.4423718 0.020135457 3
0.64848185 -2.3386233 0.24908182 6.25
0.55810237 9.2179308 0.087199509 4
0.59153378 -2.3077986 0.5313381 10
0.55724943 9.2399645 0.65515894 5
0.76216179 3.6923478 0.98669589 11
0.61222714 9.1968393 0.90037715 6
0.65452009 9.2061214 1.019798 6.6666665
0.60845792 9.2107449 1.3833442 8
0.71070123 9.196269 2.264128 10.5
0.57267398 9.2078285 2.3342648 11
0.58215666 9.2137661 2.6292782 12
0.44736221 7.2204714 4.2536612 19
0.47605014 7.2285166 4.4487181 20
0.45318821 -29.898241 10.589412 13.5
0.65037036 -29.885445 11.098481 14
0.88104713 -3.413044 -0.19225407 2
1.0168067 -2.3271656 -0.083254062 2.2
0.89676839 -1.9045929 -0.17637765 1
1.0966281 1.1112217 -0.15591562 0
1.1431841 1.4893928 -0.15543853 1
0.95425177 1.7962147 -0.1574448 1
0.8076399 2.0123425 -0.1641666 1
0.80575514 4.0950003 -0.14277035 2
0.9127928 6.1260629 -0.055223092 3
0.95414823 9.1646004 -0.097728819 3
0.97797573 -9.8104954 0.042940542 3
0.89933681 -3.5220621 0.023705928 3
0.98366618 -2.3490238 0.19224276 5.5
1.0181652 2.2029715 0.24317177 6.2666669
0.86783814 2.4610717 0.073208183 4
1.0907661 5.4535842 0.040403951 3
0.97510487 -2.3432372 0.49330074 9
1.0218853 9.1745644 0.93741971 6.4000001
0.85739821 9.1870785 1.3145005 7.5
1.0024748 9.1659632 2.3528941 11
0.98880428 9.1516085 2.6428905 12
1.1368098 -29.931089 10.654634 14
0.94101381 -29.936731 11.109562 14
1.0238204 -29.881868 11.985612 15
1.2658337 -2.3389845 -0.055429447 2.5
1.5434864 -1.8012913 -0.16505165 1
1.4767133 -1.2750578 -0.15618628 1
1.4841626 -1.107953 -0.15402763 1
1.2568611 1.0002286 -0.15500818 0.5
1.2450531 1.2674482 -0.15591401 1
1.3287241 2.3857605 -0.1534045 2
1.204042 2.5570388 -0.15236466 2
1.2701416 3.0652695 -0.14706561 2
1.5661417 -2.4489737 0.19498792 5
1.3720279 -2.3657649 0.18137625 5.25
1.392529 2.0476038 0.23526151 6
1.2771969 9.148262 0.17740849 4.3333335
1.4053627 -2.3540177 0.54096264 9.166667
1.4409231 2.1478987 0.6630975 10.75
1.2051766 9.1615238 0.69188303 6
1.2697452 9.1642189 0.87703204 6
1.3207922 9.1463652 1.2431872 7
1.384002 9.1358862 2.2766919 10.666667
1.4153252 9.106535 2.6329873 11.666667
1.9800861 -3.2917576 -0.17814295 2
1.8496766 -2.6118047 -0.17131943 2
1.9355071 -2.2589986 -0.16246842 2
1.63553 -0.59861678 -0.15190688 1
1.6329507 -0.33981547 -0.15020134 1
1.6950816 0.12623653 -0.14638743 1
1.7560465 1.1876211 -0.14402716 1
1.7190037 1.2855672 -0.14513129 1
1.9204626 2.1138527 -0.14273326 2
1.9093357 4.5386624 -0.10633571 3
1.8948095 -2.434598 0.33660546 6.5
1.9725002 -2.395843 0.11446945 4
1.6178048 1.9949006 0.28853586 7
1.7053312 2.0446503 0.17058335 5
1.8878548 -2.4079351 0.62486774 9.333333
1.6944021 -2.3771448 0.59214526 9.3999996
1.7842488 -2.4493299 0.96422499 13
1.7162153 -2.3897696 1.1504438 14.5
1.7157081 9.1064835 2.3381817 11
1.6913143 9.1003151 2.5421381 11.5
1.7396097 7.1268063 4.6773291 20.5
1.8937721 7.1184139 5.8976793 24
1.9719138 6.9125085 6.0817118 24
1.8422697 -29.957476 10.614891 13.5
1.6117032 -29.977182 11.147795 14
1.6766422 -29.943363 12.030832 15
2.1559868 0.00079292629 -0.13959067 1
2.1300218 0.69288808 -0.1400262 1
2.2623484 0.96167904 -0.13974781 1.5
2.1322095 2.0418079 -0.14090779 2
2.3073537 2.8255217 -0.10611661 2
2.1737106 4.2803564 -0.11394779 3
2.1942356 -2.4590106 0.26591304 5.5
2.0623517 2.0734246 0.091480345 4
2.2476056 2.6443262 0.020700119 3.3333333
2.3180196 3.1002285 0.007535147 3
2.1563141 -2.4321766 0.57064229 8
2.061096 -29.992872 10.236965 13
2.0255883 -29.984257 11.095954 14
2.339433 -30.011957 12.082071 15
2.7418621 -2.2523177 -0.15859936 2
2.5853152 -0.53894103 -0.14151403 2
2.7820134 -0.0067688446 -0.13711794 2
2.7106357 0.11804771 -0.13613698 2
2.7405593 2.1469259 -0.12635691 2
2.6999438 3.8312273 -0.12843204 2
2.5395067 -2.4571917 0.23953329 5
2.6441925 -2.4642594 0.51980567 7.6666665
2.6164227 -2.4573019 0.84711498 10
2.6294887 7.0492458 4.6341367 19.666666
2.6475224 7.049191 4.8705068 20.666666
2.6267054 -29.570242 10.262878 13
2.5100415 -29.99815 10.770149 14
2.9771571 -2.9874585 -0.16889663 2
3.0228889 -2.7650492 -0.16968805 2
2.8377106 -2.1219482 -0.15840173 2
2.8834195 -1.002237 -0.15554389 2
2.8387692 -0.73226452 -0.15441199 2
3.102921 1.452631 -0.12702595 2
2.8957746 4.5636663 -0.097698949 3
3.1097088 -2.8341172 0.077351242 4
2.9724605 -2.5352979 0.31592858 5.5
2.9366655 -2.4969792 0.51891977 7
3.0444686 7.011261 4.7771654 20
3.063035 7.0120249 4.9623246 20.75
3.0424285 7.0197453 6.3706536 24
3.0012565 7.0119371 6.5953383 25
2.9559116 -29.983442 11.214352 14
2.9561608 -29.575687 11.934525 15
3.514812 -4.3175187 -0.054267578 3
3.4346974 1.0395864 -0.1156083 2
3.5759361 1.8931478 -0.11486642 2
3.2249 8.8484325 -0.075132556 3
3.3034155 6.9952211 4.9334221 20.5
3.2508452 6.994833 6.5325818 24.5
3.8098423 -4.1954746 -0.11488956 3
3.7435496 -2.6351843 -0.037365545 3
3.8189652 -2.5840023 0.22124568 4.5
3.8337657 -2.5685163 0.48927107 6.5
3.8511033 6.9535084 5.0237064 20
3.8137879 6.9505777 5.2201471 21
3.7384272 6.886879 6.7021222 24.5
3.643347 6.8377881 6.8140368 25
4.3151507 -0.21827781 -0.13300616 2
4.3102069 -2.6068079 0.61408079 6.75
4.3942842 -2.5858407 0.84979999 8
4.2098217 6.9346189 8.2318478 27
4.1659899 6.9024944 8.599824 28
4.7866163 -2.2716241 -0.11162893 3
4.7183228 -1.7092705 -0.11834949 3
4.784162 0.43818343 -0.12954263 2
4.7098937 6.8666353 5.0632401 19.5
4.6275425 6.8766255 5.3770981 20.5
5.0294023 -5.0592203 -0.14325939 3
4.8133845 -2.570771 -0.10779589 3
4.9257545 -2.0558882 -0.11937047 3
5.0256233 4.5034804 -0.05473084 3
5.1118388 5.0818148 -0.065295406 3
5.0720053 6.8305483 7.40485 24.5
5.3521471 -1.6350673 -0.09876354 3
5.273809 -1.3537951 -0.10068841 3
5.4347467 1.7640526 -0.0012557221 3
5.2907591 2.6446323 -0.075812273 3
5.438622 4.0374689 -0.077783093 3
5.4454389 4.4633937 -0.076202221 3
5.4165268 1.4137708 0.26446247 4.5
5.4482555 1.7712259 0.27000323 4.5
5.5188117 2.2457678 0.25827703 4.6666665
5.4586439 1.387683 0.55126536 6
5.4617925 1.7739712 0.60066324 6.1999998
5.507515 2.2191749 0.62561297 6.1999998
5.541678 2.5791237 0.60155177 6
5.5905085 3.0295415 0.50637418 5.3333335
5.5634274 2.6006393 0.80879223 7
5.6998911 -0.17264861 -0.080936231 3
5.8098431 0.83062536 0.1792274 4
5.6059809 2.7067721 0.16343315 4
5.6347947 3.0850475 0.23670919 4
5.7058606 3.4500973 0.19325334 4
5.7378078 3.7930489 0.24775138 4
5.7727842 4.0207067 0.19208533 4
5.6058688 3.016413 0.72523105 7
5.6459656 3.4208117 0.5081349 5.3333335
5.707346 3.9200659 0.43260857 5
5.7855101 4.0986795 0.68269432 6
5.6336193 3.0856988 0.83420771 7
5.8199992 3.9494846 0.8996985 7
6.2427435 -3.361598 0.15502007 4
6.614593 -3.1835754 0.1674656 4
7.2032375 -10.86934 -0.0528115 3
7.2420883 -9.7678919 -0.11511791 3
7.5147109 6.80199 0.31365463 4
7.5297084 6.816349 9.4786682 26
7.4802842 6.6551471 9.6777945 26
7.8323765 3.1603184 -0.0018869219 3
7.6887364 -3.2036796 0.19440347 4
7.9918656 6.8652153 4.2291598 15
7.7992983 6.6144886 4.62396 15.75
7.6418343 6.6546669 10.020988 27
8.3589907 6.7376719 0.18672098 4
8.1452675 6.56639 4.5116625 15
8.5598059 -14.330776 -0.04158999 3
8.7115593 8.5743437 2.9470463 10
8.5658426 8.5517931 3.4193869 11.5
8.9580441 -3.2515364 0.21146984 4
9.4375238 6.2904415 0.055336848 3
9.4982805 -30.065731 31.630114 27
9.7047911 1.4299082 0.02413661 3
10.386654 6.3916063 7.0962253 19
10.176555 -29.955395 31.73464 27
10.492433 -3.2626541 0.23075262 4
10.775784 6.0339842 11.961902 26
10.427582 -30.076233 31.574762 27
11.417631 6.3223925 7.5812945 19
11.693838 -30.712645 17.724382 18
11.790656 -30.767742 18.45743 19
12.294616 -11.129144 0.050785027 3
12.012625 -30.777737 18.218588 18
12.087462 -30.830774 18.52562 19
12.290413 -30.781826 18.490795 19
13.379596 6.1659684 5.8412299 15
13.460388 6.6909246 14.614957 26.333334
13.368514 7.0208364 14.608136 26
13.855864 -3.5442698 0.21438485 4
13.769704 6.2434044 4.3165326 12
14.013266 -0.099374518 0.59839696 4
15.516161 5.9733176 7.0832262 15
15.730598 5.9709611 6.6554103 15
16.016748 5.9556403 4.4956632 11
16.136293 5.9685783 5.0087585 12
16.173225 5.9492879 7.8788004 16
16.621754 5.8726854 6.9642191 15
16.496574 5.9315176 7.4570842 15
17.061232 5.9105067 4.7435703 11
17.066654 5.8990083 5.247581 12
18.277504 -15.062128 0.068918325 3
55.311447 1.963542 18.567781 13
55.67469 1.9190247 12.966062 10
55.686565 2.4100475 14.311064 11
55.66597 1.7506931 15.611053 11
55.714233 2.425189 16.057085 12
55.7164 2.2299473 17.402086 12
