# .PCD v0.7 - Point Cloud Data file format
VERSION 0.7
FIELDS x y z intensity
SIZE 4 4 4 4
TYPE F F F F
COUNT 1 1 1 1
WIDTH 1396
HEIGHT 1
VIEWPOINT 0 0 0 1 0 0 0
POINTS 1396
DATA ascii
-0.66242832 -4.8769631 -0.26927581 0
-0.43053067 -4.8530836 -0.26559785 0
-0.65182519 -4.7867451 -0.26735628 0
-0.42471433 -4.764698 -0.26377311 0
-0.63592041 -4.6514177 -0.26447695 0
-0.41889799 -4.6763124 -0.26194838 0
-0.088215411 -4.6768279 -0.25585639 0
0.017999999 -4.6059999 -0.25299999 0
-0.62001574 -4.5160909 -0.26159766 0
-0.41308168 -4.5879273 -0.26012364 0
-0.09100157 -4.5452595 -0.25399897 0
0.016633937 -4.5628781 -0.25204375 0
0.124 -4.5430002 -0.25099999 0
-0.60941255 -4.4258728 -0.25967816 0
-0.40435717 -4.455349 -0.25738657 0
-0.093572326 -4.4238625 -0.25228512 0
0.013770543 -4.4724903 -0.25003937 0
0.12642799 -4.4711318 -0.25002879 0
-0.59880942 -4.3356543 -0.25775862 0
-0.39563265 -4.3227706 -0.25464946 0
-0.095286168 -4.3429313 -0.25114256 0
0.010907149 -4.3821025 -0.248035 0
0.13021401 -4.359066 -0.24851438 0
0.30199999 -4.3390002 -0.24600001 0
0.41340807 -4.364615 -0.24576385 0
1.128 -4.348 -0.236 0
-0.58820629 -4.2454362 -0.25583908 0
-0.38981634 -4.2343855 -0.25282472 0
-0.097000003 -4.2620001 -0.24999999 0
0.052445401 -4.2640285 -0.24582669 0
0.134 -4.2470002 -0.24699999 0
0.28954214 -4.2372017 -0.24457625 0
0.3850942 -4.2412648 -0.24373992 0
0.41638047 -4.2699409 -0.24392195 0
0.60690582 -4.2217283 -0.24167058 0
1.0975304 -4.213098 -0.23403421 0
1.1162364 -4.295918 -0.23524106 0
1.414 -4.2280002 -0.228 0
-0.5776031 -4.1552181 -0.25391954 0
-0.384 -4.1459999 -0.25099999 0
0.047974102 -4.1464167 -0.24311507 0
0.27601686 -4.1266809 -0.2430305 0
0.36899999 -4.1360002 -0.242 0
0.41031703 -4.1839509 -0.24226829 0
0.59421015 -4.1170249 -0.2396735 0
0.69176948 -4.1267757 -0.23864105 0
1.0788243 -4.1302786 -0.23282738 0
1.3943566 -4.1629562 -0.22749889 0
-1.345938 -4.0425735 -0.2043115 0
-1.119 -4.0050001 -0.21799999 0
-0.56699997 -4.0650001 -0.252 0
-0.00054642558 -4.0205512 -0.24001749 0
0.087741867 -4.0556259 -0.24114576 0
0.26699999 -4.053 -0.242 0
0.39819023 -4.0119705 -0.23896097 0
0.40425363 -4.0979605 -0.24061464 0
0.58360869 -4.0295925 -0.23800586 0
0.67584664 -4.0172319 -0.23687184 0
1.0601182 -4.0474591 -0.23162054 0
1.3691628 -4.0795341 -0.2268562 0
-1.3202301 -3.9596224 -0.21185251 0
-1.1097709 -3.9581306 -0.2243337 0
-0.0034098187 -3.9301634 -0.23801312 0
0.081852496 -3.9293575 -0.23808329 0
0.39212683 -3.9259803 -0.23730731 0
0.57300723 -3.9421606 -0.23633821 0
0.66315424 -3.9299133 -0.23546158 0
0.85514468 -3.9666128 -0.2329393 0
1.0414121 -3.9646392 -0.23041369 0
1.331372 -3.9544005 -0.22589216 0
-1.2832611 -3.8403356 -0.22269675 0
-1.0888854 -3.8520653 -0.23866685 0
-0.0062732128 -3.8397756 -0.23600875 0
0.077926248 -3.8451786 -0.23604165 0
0.3860634 -3.8399901 -0.23565365 0
0.56240577 -3.8547285 -0.23467056 0
0.65046191 -3.8425944 -0.23405132 0
0.83725721 -3.8748674 -0.23166986 0
1.022706 -3.8818197 -0.22920685 0
1.2485312 -3.8602581 -0.22491477 0
-1.246292 -3.7210491 -0.233541 0
-1.068 -3.7460001 -0.25299999 0
-0.009136606 -3.7493877 -0.23400436 0
0.074000001 -3.7609999 -0.234 0
0.38 -3.7539999 -0.234 0
0.5518043 -3.7672963 -0.23300293 0
0.63776952 -3.7552755 -0.23264106 0
0.81170899 -3.74383 -0.22985676 0
1.0039999 -3.799 -0.228 0
1.1825061 -3.7492533 -0.22440812 0
1.2683877 -3.7458446 -0.22428541 0
-1.2216461 -3.6415246 -0.2407705 0
-0.012 -3.6589999 -0.23199999 0
0.5412029 -3.6798644 -0.23133528 0
0.62507713 -3.6679566 -0.2312308 0
0.78616071 -3.6127923 -0.22804366 0
1.147 -3.6459999 -0.22400001 0
1.2431939 -3.6624224 -0.22364271 0
1.4268552 -3.6126742 -0.21996427 0
-1.197 -3.562 -0.248 0
0.52530074 -3.5487161 -0.22883382 0
0.61238474 -3.5806377 -0.22982052 0
0.76912856 -3.5254338 -0.22683494 0
1.2180001 -3.579 -0.223 0
1.3964736 -3.5418987 -0.21961902 0
1.6632857 -3.5415037 -0.20120189 0
0.59334624 -3.4496593 -0.22770512 0
0.75209641 -3.4380753 -0.2256262 0
1.3556185 -3.4467247 -0.21915475 0
1.6304286 -3.463603 -0.2033615 0
0.73506427 -3.3507171 -0.22441746 0
1.5811428 -3.3467517 -0.20660093 0
0.71803212 -3.2633586 -0.22320874 0
1.5318571 -3.2299006 -0.20984037 0
0.70099998 -3.1760001 -0.222 0
1.499 -3.152 -0.212 0
1.596 -2.829 -0.20100001 0
-1.7589999 -2.618 -0.23899999 0
-4.269392 -2.5553532 -0.25798261 0
-4.1902432 -2.509891 -0.25768453 0
-1.7307835 -2.5766191 -0.23758392 0
-1.679805 -2.5018573 -0.23502553 0
-4.1157026 -2.4670758 -0.25740376 0
-4.041162 -2.4242606 -0.25712302 0
-1.79 -2.4100001 -0.235 0
-1.6288266 -2.4270954 -0.23246713 0
-3.9666216 -2.3814456 -0.25684226 0
-3.892081 -2.3386304 -0.25656152 0
-1.7518182 -2.3593581 -0.23325121 0
-1.5778483 -2.3523335 -0.22990873 0
-4.3588347 -2.2149811 -0.25620404 0
-4.2342701 -2.2753935 -0.25113428 0
-4.1467834 -2.2299888 -0.25205714 0
-3.8175406 -2.2958152 -0.25628075 0
-3.743 -2.253 -0.25600001 0
-1.817878 -2.2197893 -0.23154423 0
-1.6708484 -2.251965 -0.22954267 0
-1.52687 -2.2775714 -0.22735035 0
-1.4758916 -2.2028096 -0.22479196 0
-1.3106513 -2.2901616 -0.20083787 0
-1.2697384 -2.2211211 -0.2043784 0
-1.1881139 -2.2260892 -0.20270075 0
-4.271225 -2.1716354 -0.25767338 0
-4.1957798 -2.1343083 -0.2589387 0
-4.0720267 -2.191191 -0.2528457 0
-3.9598918 -2.1329944 -0.25402856 0
-1.823 -2.1210001 -0.228 0
-1.7507833 -2.1388476 -0.22852308 0
-1.5898788 -2.144572 -0.22583415 0
-1.4249133 -2.1280477 -0.22223356 0
-1.2288256 -2.1520808 -0.20791894 0
-1.156557 -2.1580446 -0.20985037 0
-4.3515949 -2.0864007 -0.25407547 0
-4.2507339 -2.0386872 -0.25441504 0
-4.146307 -2.0492768 -0.25744161 0
-4.0448899 -2.0596542 -0.26146936 0
-3.969445 -2.0223272 -0.26273468 0
-3.8477566 -2.0747979 -0.25521144 0
-3.773 -2.036 -0.25600001 0
-1.8597772 -2.0378523 -0.23005584 0
-1.7718772 -2.0622633 -0.22582456 0
-1.665324 -2.0357511 -0.224675 0
-1.5358989 -2.0729768 -0.22336179 0
-1.4819192 -2.0013814 -0.22088942 0
-1.373935 -2.0532858 -0.21967517 0
-1.2386446 -2.063621 -0.2065239 0
-1.1533042 -2.0623467 -0.21448648 0
-4.3169999 -1.951 -0.249 0
-4.2493124 -1.9203434 -0.24869648 0
-4.054595 -1.9459009 -0.25507545 0
-3.8940001 -1.985 -0.264 0
-1.8532166 -1.9591683 -0.2287059 0
-1.7283437 -1.9649385 -0.22410157 0
-1.6554079 -1.9284475 -0.22086842 0
-1.5798645 -1.9326547 -0.22082692 0
-1.4279394 -1.9297861 -0.21841706 0
-1.3229567 -1.9785239 -0.21711679 0
-1.2719783 -1.9037619 -0.21455839 0
-1.177 -1.956 -0.215 0
-4.1290503 -1.8658748 -0.24815717 0
-4.0488753 -1.8295623 -0.24779765 0
-3.9369113 -1.890229 -0.25547168 0
-3.8584557 -1.8531145 -0.25573584 0
-3.78 -1.816 -0.25600001 0
-1.7607079 -1.8626091 -0.22416957 0
-1.6530352 -1.8358386 -0.22060166 0
-1.5600324 -1.8627317 -0.21832594 0
-1.3739595 -1.8581908 -0.21594471 0
-1.221 -1.829 -0.212 0
-4.3070002 -1.71 -0.245 0
-3.9687002 -1.7932498 -0.24743812 0
-3.8484375 -1.7387812 -0.24689883 0
-1.837 -1.7640001 -0.21799999 0
-1.7926595 -1.7221179 -0.21645218 0
-1.6681991 -1.76605 -0.21963322 0
-1.5509821 -1.7658935 -0.21612948 0
-1.4518561 -1.7497927 -0.21408705 0
-1.3199798 -1.7865953 -0.21347235 0
-1.266 -1.715 -0.211 0
-4.269547 -1.6949564 -0.24524969 0
-4.1490011 -1.6465372 -0.24605332 0
-3.7281752 -1.6843125 -0.24635954 0
-3.648 -1.648 -0.24600001 0
-1.8235188 -1.6431557 -0.21445894 0
-1.7294225 -1.6623868 -0.21424472 0
-1.6661854 -1.6026556 -0.21203727 0
-1.5309089 -1.6486584 -0.21355985 0
-1.4327409 -1.6331967 -0.21081474 0
-1.3519728 -1.6577309 -0.21056539 0
-4.0284553 -1.5981179 -0.24685697 0
-3.9480915 -1.5658385 -0.24739273 0
-3.8677278 -1.533559 -0.24792849 0
-3.7873638 -1.5012795 -0.24846424 0
-2.1537559 -1.5377334 -0.21838258 0
-1.824363 -1.5536803 -0.21181971 0
-1.7514066 -1.5665691 -0.21193552 0
-1.6411728 -1.5414149 -0.21004948 0
-1.4523451 -1.5407454 -0.20904845 0
-1.3510803 -1.5535655 -0.20743823 0
-1.295 -1.589 -0.208 0
-3.707 -1.469 -0.249 0
-2.3274729 -1.4640261 -0.22749501 0
-2.247359 -1.4399245 -0.22355863 0
-2.165 -1.42 -0.223 0
-2.0604975 -1.4743891 -0.2151152 0
-1.9937043 -1.446677 -0.21607894 0
-1.817 -1.438 -0.208 0
-1.7561736 -1.4368143 -0.20758432 0
-1.6459408 -1.4617672 -0.20834582 0
-1.5454748 -1.4537683 -0.20689192 0
-1.4764742 -1.4234623 -0.20541491 0
-1.3475575 -1.4541241 -0.20467474 0
-4.233161 -1.3517382 -0.23897335 0
-4.1306572 -1.3176669 -0.23882836 0
-2.2573986 -1.3722737 -0.22339532 0
-2.1333537 -1.3589613 -0.21863766 0
-2.031734 -1.3190534 -0.21515942 0
-1.9388992 -1.3937737 -0.21183908 0
-1.8363037 -1.3446765 -0.20714 0
-1.7288512 -1.3366587 -0.20489597 0
-1.6477849 -1.3390496 -0.20446101 0
-1.569484 -1.3403013 -0.204298 0
-1.4553136 -1.3377229 -0.20313792 0
-1.35 -1.304 -0.20100001 0
-4.0469918 -1.2898574 -0.23871003 0
-3.9633267 -1.2620478 -0.23859169 0
-3.8796613 -1.2342383 -0.23847336 0
-3.795996 -1.2064286 -0.23835501 0
-2.0384541 -1.2439425 -0.21281604 0
-1.9578736 -1.2716236 -0.21191248 0
-1.8840132 -1.2241938 -0.20866553 0
-1.7409587 -1.2604432 -0.2081694 0
-1.6360095 -1.2354662 -0.20208153 0
-1.5391375 -1.2419991 -0.20136018 0
-1.4323894 -1.2559087 -0.20109135 0
-3.7123308 -1.1786191 -0.23823668 0
-3.6286654 -1.1508095 -0.23811834 0
-3.5450001 -1.123 -0.23800001 0
-1.9289815 -1.179777 -0.20752642 0
-1.8336527 -1.160764 -0.20741859 0
-1.7366444 -1.1348224 -0.20826976 0
-1.6326392 -1.1806289 -0.2047796 0
-1.5604261 -1.1274192 -0.20251973 0
-2.2487612 -1.027117 -0.2142145 0
-1.6619833 -1.0851167 -0.20570232 0
-1.5873221 -1.0354112 -0.20313488 0
-1.4882131 -1.0742097 -0.20025986 0
-2.207 -0.94599998 -0.207 0
-2.1413972 -0.93833464 -0.2079668 0
-2.0516286 -0.93884861 -0.20955589 0
-1.9696817 -0.902156 -0.20761934 0
-1.5126611 -0.98570561 -0.20056744 0
-2.1783428 -0.84311295 -0.20384903 0
-2.056869 -0.85328698 -0.20429376 0
-1.9679452 -0.8442089 -0.20391542 0
-1.8635074 -0.83607799 -0.204143 0
-2.1752963 -0.75464284 -0.20188969 0
-2.0677989 -0.75357825 -0.20152611 0
-1.952644 -0.76546168 -0.20191683 0
-1.8284843 -0.735232 -0.20128953 0
-1.7351019 -0.74750102 -0.20113841 0
-2.1531453 -0.69265378 -0.20100001 0
-2.0621455 -0.66865373 -0.20100001 0
-1.9975972 -0.67260718 -0.20066728 0
-3.9329636 -0.49545807 -0.22129932 0
-3.820606 -0.4812634 -0.22249886 0
-3.7362847 -0.47061074 -0.22339909 0
-3.6519637 -0.45995805 -0.22429933 0
-3.5676425 -0.44930536 -0.22519955 0
-3.4833212 -0.43865269 -0.22609977 0
-3.3989999 -0.428 -0.227 0
-2.1409788 -0.41917121 -0.20239007 0
-2.0580001 -0.40599999 -0.207 0
-3.8653874 -0.35115612 -0.21773556 0
-3.7569113 -0.33933306 -0.21619654 0
-3.6384158 -0.36696467 -0.21395189 0
-3.5494995 -0.3553983 -0.2128159 0
-3.4605827 -0.3438319 -0.21167992 0
-3.3716662 -0.33226553 -0.21054393 0
-3.2827497 -0.32069916 -0.20940796 0
-3.1938331 -0.30913278 -0.20827197 0
-2.303 -0.39300001 -0.211 0
-2.2484236 -0.34793714 -0.20911825 0
-2.1470339 -0.34210142 -0.21304435 0
-3.934 -0.221 -0.222 0
-3.8679011 -0.21690671 -0.22078718 0
-3.7783566 -0.21136153 -0.21914417 0
-3.6651194 -0.26130357 -0.21595739 0
-3.5596619 -0.23911527 -0.21446195 0
-3.4312451 -0.27056754 -0.21165262 0
-3.3424339 -0.26317564 -0.21023946 0
-3.2536225 -0.25578377 -0.2088263 0
-3.1348639 -0.27297914 -0.20727457 0
-3.0459156 -0.2584655 -0.206 0
-2.9631934 -0.25634551 -0.20606166 0
-2.8747315 -0.24880233 -0.20617895 0
-2.759464 -0.24762644 -0.20647317 0
-2.6538234 -0.23007983 -0.20653082 0
-2.5299108 -0.24581663 -0.20729624 0
-2.4419405 -0.23854442 -0.20753083 0
-2.3539703 -0.23127222 -0.20776542 0
-2.266 -0.22400001 -0.208 0
-3.5097227 -0.19472595 -0.2142151 0
-3.4201782 -0.18918076 -0.21257208 0
-3.3306336 -0.18363556 -0.21092907 0
-3.2410891 -0.17809038 -0.20928603 0
-3.1515446 -0.17254518 -0.20764302 0
-3.0320001 -0.15450001 -0.206 0
-2.9458795 -0.13994053 -0.206 0
-2.8575196 -0.13669796 -0.206 0
-2.7691598 -0.1334554 -0.206 0
-2.640806 -0.16473475 -0.206 0
-2.5361261 -0.14738016 -0.20600002 0
-2.419313 -0.15205674 -0.206 0
-2.3306565 -0.14652836 -0.206 0
-2.2420001 -0.141 -0.206 0
-4.0529699 -0.040300738 -0.23215352 0
-3.9262455 -0.037841331 -0.22917634 0
-3.8355515 -0.036081184 -0.22704564 0
-3.7448578 -0.034321036 -0.22491494 0
-3.6541636 -0.032560885 -0.22278422 0
-3.5634696 -0.030800739 -0.22065352 0
-3.4727757 -0.029040592 -0.21852282 0
-3.3820817 -0.027280442 -0.21639211 0
-3.2460408 -0.024640221 -0.21319604 0
-3.1099999 -0.022 -0.20999999 0
-3.0209999 -0.093999997 -0.20299999 0
-2.9482501 -0.045896888 -0.20614338 0
-2.8596563 -0.044597279 -0.20631295 0
-2.7710626 -0.043297667 -0.20648253 0
-2.6824689 -0.041998059 -0.2066521 0
-2.5495784 -0.040048636 -0.20690648 0
-2.4166875 -0.038099222 -0.20716085 0
-2.3280938 -0.03679961 -0.20733044 0
-2.2395 -0.035499997 -0.20750001 0
-3.0135 0.035 -0.2095 0
-2.947659 0.067814022 -0.20983806 0
-2.8592017 0.064712264 -0.20960832 0
-2.7707443 0.061610512 -0.20937856 0
-2.6822867 0.058508761 -0.20914879 0
-2.5496006 0.053856134 -0.20880416 0
-2.4169147 0.049203504 -0.20845953 0
-2.3268747 0.072384387 -0.20861489 0
-2.2379999 0.069499999 -0.2085 0
-3.0563145 0.12050162 -0.20900001 0
-2.9503367 0.11733622 -0.20900001 0
-2.8469203 0.15665281 -0.206238 0
-2.7590032 0.15170242 -0.20663258 0
-2.6710858 0.14675201 -0.20702715 0
-2.5567379 0.12920143 -0.20794781 0
-2.4337652 0.14450099 -0.20768476 0
-2.3135424 0.15523379 -0.20821087 0
-2.227 0.148 -0.20900001 0
-3.006 0.26199999 -0.206 0
-2.9322801 0.2562421 -0.20628318 0
-2.864435 0.22616841 -0.20481139 0
-2.7554598 0.24243157 -0.20696238 0
-2.6670499 0.23552631 -0.20730199 0
-2.5716965 0.26351327 -0.20882079 0
-2.4565382 0.24119347 -0.20876734 0
-2.3356583 0.24931979 -0.20955347 0
-2.2205 0.227 -0.2095 0
-2.9257531 0.34540552 -0.20999999 0
-2.8177915 0.36575353 -0.20864356 0
-2.7311783 0.35336018 -0.20883733 0
-2.6445651 0.34096679 -0.20903111 0
-2.5511513 0.35874137 -0.20844977 0
-2.4660239 0.37128773 -0.20940647 0
-2.3791828 0.35802513 -0.20977096 0
-2.2489204 0.33813128 -0.21031773 0
-2.9395792 0.46785921 -0.20813411 0
-2.8452568 0.42931432 -0.20780484 0
-2.7298689 0.43653885 -0.20895116 0
-2.6319866 0.46084529 -0.20661563 0
-2.5442533 0.44549739 -0.20600504 0
-2.4461064 0.46302965 -0.20081329 0
-2.8499999 0.54400003 -0.208 0
-2.7534809 0.52465045 -0.20628259 0
-2.8050001 0.67400002 -0.208 0
-2.7771053 0.66705716 -0.20732115 0
-2.6456895 0.63434863 -0.20412298 0
-2.5142736 0.60163999 -0.2009248 0
-3.0339999 1.385 -0.213 0
-3.1556478 1.4425089 -0.21037894 0
-3.4394922 1.5766966 -0.20426315 0
-3.3583939 1.5383574 -0.20601052 0
-3.2772954 1.500018 -0.20775789 0
-3.6016893 1.6533754 -0.20076841 0
-3.5205908 1.615036 -0.20251578 0
-3.523 -4.3720002 -0.15800001 0
-3.468013 -4.3019147 -0.14667618 0
-3.4130263 -4.2318296 -0.13535234 0
-3.3580394 -4.1617441 -0.12402852 0
-3.3030524 -4.0916586 -0.11270468 0
-3.2480655 -4.0215735 -0.10138085 0
-3.4879999 -3.9489999 -0.141 0
-3.4329364 -3.8809936 -0.12680838 0
-3.3778729 -3.8129873 -0.11261676 0
1.6961428 -3.6194043 -0.19904226 0
1.712 -3.6570001 -0.198 0
1.5517007 -2.7528741 -0.186592 0
1.4631022 -2.6006224 -0.15777598 0
1.5074015 -2.6767483 -0.17218399 0
1.418803 -2.5244966 -0.14336798 0
1.3745037 -2.4483705 -0.12895997 0
-1.4170001 -2.375 -0.182 0
-1.3630152 -2.3463128 -0.1936812 0
-1.2521139 -2.3640895 -0.18820074 0
1.3302045 -2.3722448 -0.11455196 0
-1.3413854 -2.2429893 -0.19239703 0
-1.2196709 -2.2941339 -0.19555113 0
1.2859054 -2.2961187 -0.10014395 0
2.3559999 -2.2279999 -0.175 0
-1.300289 -2.171242 -0.19804777 0
2.2586775 -2.1332006 -0.17337796 0
2.3219173 -2.1948009 -0.17443195 0
1.457 -2.027 -0.114 0
2.1638181 -2.0408006 -0.17179696 0
1.3692964 -1.9127103 -0.13416876 0
1.4191206 -1.9776379 -0.12271094 0
1.5457308 -1.9556674 -0.10702248 0
2.0689588 -1.9484005 -0.17021598 0
2.2397046 -1.9233654 -0.16589139 0
1.3194723 -1.8477827 -0.14562657 0
1.4641007 -1.8562826 -0.12294037 0
1.5814583 -1.854779 -0.10760741 0
1.9424794 -1.8252002 -0.16810799 0
2.0057189 -1.8868003 -0.16916198 0
2.1526742 -1.8462756 -0.16548565 0
2.2569799 -1.8472815 -0.16669708 0
4.2588177 -1.8787957 -0.10794104 0
1.2447362 -1.7503914 -0.16281328 0
1.3552604 -1.7237695 -0.14416422 0
1.4408778 -1.7560468 -0.13405837 0
1.5267668 -1.7884232 -0.12108593 0
1.8476198 -1.7328 -0.16652699 0
2.0711501 -1.7459646 -0.16500312 0
2.1646333 -1.7696357 -0.16566181 0
1.17 -1.653 -0.18000001 0
1.3008403 -1.657513 -0.15477614 0
1.4173833 -1.6557117 -0.14804296 0
1.8977349 -1.6204551 -0.16429713 0
1.9650614 -1.6408823 -0.16402949 0
2.0339799 -1.6597813 -0.16419709 0
2.714 -1.63 -0.147 0
1.192 -1.525 -0.176 0
1.2730322 -1.5528334 -0.1736453 0
1.3262305 -1.5451187 -0.17050715 0
1.834 -1.564 -0.164 0
1.9033267 -1.5499271 -0.16273236 0
2.5688291 -1.5434459 -0.14854255 0
2.6538575 -1.5518494 -0.14756416 0
2.704 -1.538 -0.147 0
1.2373185 -1.4377162 -0.17430575 0
1.3172556 -1.438673 -0.1732025 0
1.8380001 -1.495 -0.162 0
2.3348861 -1.4039639 -0.15102836 0
2.4518576 -1.4737049 -0.14978546 0
2.5425692 -1.4471951 -0.14855222 0
2.661777 -1.4297187 -0.14760372 0
2.7019999 -1.451 -0.147 0
1.2473726 -1.3490287 -0.171707 0
1.3245541 -1.3575331 -0.1718282 0
1.8658664 -1.3176655 -0.16019295 0
1.906 -1.345 -0.16 0
2.1789241 -1.310976 -0.15268558 0
2.2569051 -1.3574699 -0.15185697 0
2.3453429 -1.3362554 -0.15044862 0
2.4482403 -1.3550369 -0.15006925 0
2.5725245 -1.3431647 -0.14798345 0
2.6719999 -1.354 -0.146 0
-1.4439332 -1.2049588 -0.19977398 0
-1.359 -1.251 -0.2 0
1.2518619 -1.2807474 -0.17060943 0
1.7563915 -1.2431031 -0.16071928 0
2.0229621 -1.217988 -0.15434279 0
2.1323922 -1.2383711 -0.15273476 0
2.2556319 -1.2504951 -0.15253466 0
2.3585296 -1.2692765 -0.15215528 0
2.4358811 -1.2368261 -0.14806604 0
2.5269909 -1.2442808 -0.14764261 0
2.6366277 -1.2584562 -0.14635441 0
-1.809 -1.169 -0.2 0
-1.5348625 -1.1606951 -0.19990374 0
-1.4605702 -1.1333318 -0.19857919 0
-1.3773333 -1.1516666 -0.198 0
1.5739331 -1.1188327 -0.16159648 0
1.6469165 -1.168541 -0.1612456 0
1.7378331 -1.1082348 -0.15729277 0
1.846324 -1.153869 -0.15616941 0
1.9479357 -1.142935 -0.15470642 0
2.0297809 -1.1587518 -0.15348287 0
2.1816087 -1.1429503 -0.1525903 0
2.2747722 -1.1568757 -0.14947574 0
2.3489575 -1.1465372 -0.15023163 0
2.4602571 -1.1401651 -0.14800841 0
2.5413456 -1.1402535 -0.14600299 0
2.6277049 -1.1408567 -0.14506263 0
-1.416 -1.021 -0.198 0
-1.4 -1.061 -0.197 0
1.4279666 -1.0194163 -0.16229823 0
1.5452527 -1.0433072 -0.16040459 0
1.6636943 -1.0628623 -0.15807731 0
1.8729999 -1.0420001 -0.15450001 0
2.0331089 -1.0369503 -0.15159029 0
2.1338317 -1.0539627 -0.15244272 0
2.263525 -1.0504053 -0.15070584 0
2.3751066 -1.0346425 -0.14758351 0
2.4547377 -1.0336105 -0.14665057 0
2.5372717 -1.0671263 -0.14588636 0
-1.438 -0.93599999 -0.198 0
1.2819999 -0.92000002 -0.163 0
1.3549832 -0.9697082 -0.16264912 0
1.4412777 -0.92674494 -0.16043092 0
1.5154166 -0.97211736 -0.15964639 0
1.6942761 -0.92189151 -0.15662098 0
1.769345 -0.9603644 -0.15552622 0
1.858207 -0.97791862 -0.15371573 0
1.9525545 -0.99697518 -0.15229514 0
2.0513365 -0.92706335 -0.15125075 0
2.1330047 -0.96259505 -0.15037611 0
2.2371595 -0.96592289 -0.14887457 0
2.3577907 -0.9248814 -0.14476325 0
2.4333875 -0.95417517 -0.14268434 0
2.5149949 -0.9624896 -0.13986848 0
1.293 -0.83600003 -0.162 0
1.3671389 -0.88137245 -0.16121547 0
1.469069 -0.8064729 -0.15990524 0
1.5441381 -0.84494579 -0.15881048 0
1.619207 -0.88341862 -0.15771572 0
1.8563924 -0.84525317 -0.15380199 0
1.9590673 -0.87068248 -0.1521204 0
2.042068 -0.86603159 -0.15047158 0
2.1278009 -0.86827368 -0.1503537 0
2.2498128 -0.85369879 -0.14586185 0
2.3783071 -0.86860913 -0.14145608 0
2.4538953 -0.85021371 -0.13929105 0
-1.883 -0.70200002 -0.2 0
-1.6418939 -0.75538534 -0.1998731 0
-1.559947 -0.71869266 -0.19793655 0
1.3940001 -0.76800001 -0.161 0
1.561887 -0.71502137 -0.15732446 0
1.641516 -0.75069517 -0.15643261 0
1.721145 -0.78636897 -0.15554078 0
1.8528789 -0.75493544 -0.15166102 0
1.9680512 -0.72810149 -0.14940934 0
2.0501025 -0.75620306 -0.14781868 0
2.1516619 -0.74901229 -0.14849333 0
2.281682 -0.74243331 -0.14355901 0
2.3604684 -0.76653981 -0.14134641 0
2.4615903 -0.76518106 -0.13812992 0
-2.1674614 -0.63963497 -0.19990146 0
-2.0871918 -0.61445242 -0.19885218 0
-1.9129953 -0.66467857 -0.19961211 0
-1.8297963 -0.63614285 -0.19888969 0
-1.7465972 -0.60760713 -0.19816726 0
-1.6642421 -0.67061603 -0.19964477 0
-1.582121 -0.63830799 -0.19882238 0
-1.4890001 -0.64399999 -0.197 0
1.323 -0.60799998 -0.16 0
1.4424435 -0.66151071 -0.15866223 0
1.5618184 -0.62540311 -0.15499152 0
1.6417577 -0.65620416 -0.1539887 0
1.7216972 -0.68700522 -0.15298587 0
1.8587422 -0.65769404 -0.15128596 0
1.9587401 -0.62248027 -0.14832284 0
2.0414803 -0.64596063 -0.14664568 0
2.139488 -0.63207632 -0.14733292 0
2.2327235 -0.66874874 -0.14367594 0
2.3518488 -0.62983197 -0.14071055 0
2.4273245 -0.67071748 -0.13770701 0
-2.1488857 -0.55290872 -0.19844992 0
-2.0364704 -0.56375951 -0.19783431 0
-1.9398603 -0.54347312 -0.1968355 0
-1.869 -0.546 -0.19599999 0
-1.6633981 -0.57907146 -0.19744484 0
-1.580199 -0.55053574 -0.19672242 0
-1.497 -0.52200001 -0.19599999 0
1.322 -0.53299999 -0.15800001 0
1.4571868 -0.55803239 -0.15631472 0
1.5686134 -0.54304105 -0.15492895 0
1.6494845 -0.57038808 -0.15390526 0
1.7453326 -0.54263949 -0.15214099 0
1.8746982 -0.56615186 -0.1500092 0
2.0969999 -0.54500002 -0.149 0
2.1691446 -0.53528553 -0.14601195 0
2.2442896 -0.55357099 -0.14352389 0
2.3526051 -0.54993284 -0.13906318 0
2.4089999 -0.53250003 -0.13699999 0
-2.146642 -0.45281434 -0.19810276 0
-2.0317492 -0.46967524 -0.19782972 0
-1.9547436 -0.45056903 -0.19804607 0
-1.8734919 -0.45330855 -0.19750828 0
-1.771107 -0.43319422 -0.19739363 0
-1.686738 -0.41246283 -0.19726242 0
1.359 -0.43650001 -0.1575 0
1.4395268 -0.46162814 -0.15640712 0
1.5523648 -0.45781854 -0.15467587 0
1.6325473 -0.48072779 -0.15351382 0
1.7466897 -0.42504525 -0.15049766 0
1.868 -0.454 -0.149 0
2.086 -0.46149999 -0.148 0
2.1561675 -0.44954386 -0.14544801 0
2.2313349 -0.46508777 -0.14289604 0
2.3440862 -0.48840359 -0.13906807 0
-1.602369 -0.39173141 -0.1971312 0
-1.518 -0.37099999 -0.197 0
1.382 -0.338 -0.155 0
1.4630421 -0.35734338 -0.15399948 0
1.5440843 -0.37668678 -0.15299895 0
1.6230061 -0.35568678 -0.15141481 0
1.7458289 -0.34001511 -0.14924674 0
1.8707719 -0.36468685 -0.14766231 0
1.923 -0.375 -0.147 0
2.0450001 -0.32499999 -0.145 0
2.1589656 -0.34266639 -0.1422288 0
2.2695539 -0.33189577 -0.13848422 0
2.3511195 -0.34351385 -0.13615614 0
1.3710001 -0.266 -0.154 0
1.4542954 -0.28244781 -0.15294372 0
1.5375906 -0.29889563 -0.15188743 0
2.043 -0.27500001 -0.145 0
2.1545882 -0.28922939 -0.14125542 0
2.5895095 -0.20039263 -0.12940171 0
2.6791983 -0.20769171 -0.12770194 0
2.7689435 -0.2149954 -0.12600107 0
1.872 -0.142 -0.14300001 0
1.9616886 -0.14929909 -0.14130022 0
2.049051 -0.13525157 -0.14113839 0
2.1603086 -0.14660515 -0.13826504 0
2.2490408 -0.15183294 -0.1363225 0
2.3377728 -0.15706074 -0.13437997 0
2.4509437 -0.17255688 -0.13199212 0
2.5306535 -0.14193913 -0.1298883 0
2.6184292 -0.14509566 -0.12770301 0
2.7166023 -0.14862609 -0.12525886 0
1.758 -0.046999998 -0.14300001 0
1.8375888 -0.030348297 -0.14107585 0
1.9273102 -0.032945827 -0.13924193 0
2.0429533 -0.028527366 -0.13678576 0
2.151386 -0.038890116 -0.13466428 0
2.2604265 -0.050718289 -0.13252364 0
2.3759179 -0.045933474 -0.13007227 0
2.4656394 -0.048531 -0.12823835 0
2.5553608 -0.051128529 -0.1264044 0
2.6590414 -0.05411303 -0.12428524 0
1.732 0.074000001 -0.142 0
1.8216267 0.076168388 -0.14003813 0
1.9441266 0.049668387 -0.14003813 0
2.0517142 0.062052149 -0.13658725 0
2.1653233 0.054898698 -0.13459019 0
2.2535148 0.056971759 -0.1323567 0
2.341706 0.059044816 -0.1301232 0
2.4524446 0.051700711 -0.12758288 0
2.5614676 0.0641798 -0.12440363 0
2.6174998 0.065499999 -0.123 0
1.9449999 0.13850001 -0.141 0
2.0308447 0.14468901 -0.13849941 0
2.1437836 0.16159494 -0.13514243 0
2.2612846 0.15253907 -0.13185404 0
2.3742232 0.16944501 -0.12849706 0
2.4651918 0.14721036 -0.12613368 0
2.5626118 0.15328938 -0.12332799 0
1.774 0.2 -0.14 0
1.861963 0.208039 -0.13813588 0
1.9364631 0.235539 -0.13863587 0
2.046119 0.25474474 -0.13632916 0
2.1516602 0.25863659 -0.13306168 0
2.2380533 0.26767564 -0.13089293 0
2.3457596 0.25225353 -0.12788323 0
2.4663243 0.23418483 -0.12547316 0
2.540534 0.23068909 -0.12344526 0
-2.0509105 0.38380295 -0.19378133 0
1.9507926 0.35353011 -0.13977081 0
2.0761704 0.37312037 -0.13608323 0
2.1597557 0.38618058 -0.13362484 0
2.2433407 0.39924076 -0.13116644 0
2.3471141 0.30519533 -0.12863304 0
2.431937 0.31523439 -0.12615964 0
2.506 0.324 -0.124 0
-2.358285 0.44542372 -0.19925062 0
-2.2704637 0.42781779 -0.19768797 0
-2.1826425 0.41021186 -0.19612531 0
-2.076221 0.49261144 -0.19026424 0
-1.9448053 0.45990285 -0.18706606 0
-1.885 0.493 -0.186 0
-1.6619999 0.495 -0.184 0
2.326926 0.41230094 -0.12870806 0
2.4317555 0.42868057 -0.12562484 0
-2.4266632 0.57983428 -0.1987927 0
-2.3390527 0.55802858 -0.19666058 0
-2.2392659 0.56160927 -0.19297564 0
-2.1526995 0.53895694 -0.19123173 0
-2.0337429 0.56633157 -0.18876949 0
-1.9473016 0.54237396 -0.1874882 0
-1.8408602 0.56041634 -0.18570688 0
-1.7287045 0.55926561 -0.18421875 0
-1.622 0.57099998 -0.182 0
1.5420001 0.56099999 -0.141 0
1.6259077 0.59352541 -0.13860549 0
-2.5691795 0.68099117 -0.19684565 0
-2.4836571 0.65749228 -0.19548994 0
-2.3572097 0.64493948 -0.19352263 0
-2.2735219 0.6659143 -0.19244823 0
-2.1831813 0.66409147 -0.19048457 0
-2.0692675 0.63606262 -0.18864806 0
-1.9474976 0.64394051 -0.18655221 0
-1.8548123 0.66757017 -0.1849615 0
-1.7713623 0.65334201 -0.18470187 0
-1.666 0.64499998 -0.184 0
1.465 0.65399998 -0.139 0
1.5455993 0.69153941 -0.13612933 0
1.7517691 0.64231354 -0.13501373 0
1.8776304 0.69110167 -0.13142197 0
-2.6224999 0.7295 -0.19749999 0
-2.5255022 0.76776659 -0.19526225 0
-2.4399221 0.74184775 -0.19406784 0
-2.3290958 0.76872349 -0.19196832 0
-2.2441711 0.74095535 -0.19076204 0
-2.1342275 0.76157653 -0.18907709 0
-2.0500579 0.73183614 -0.18786547 0
-1.9586569 0.75063682 -0.18699427 0
-1.831254 0.7139082 -0.18588503 0
-1.7134666 0.76303482 -0.18387942 0
-1.633 0.72500002 -0.183 0
1.4680001 0.77999997 -0.134 0
1.6261988 0.72907883 -0.13325867 0
1.7067981 0.76661825 -0.13038801 0
1.874 0.78799999 -0.12800001 0
1.961538 0.72362709 -0.12902746 0
2.0454454 0.75615251 -0.12663294 0
2.129353 0.78867793 -0.12423844 0
-2.5425 0.83850002 -0.19499999 0
-2.4824874 0.85214937 -0.19430619 0
-2.3867366 0.85079777 -0.19271195 0
-2.2505288 0.84906775 -0.19057214 0
-2.161762 0.85172457 -0.18965508 0
-2.0791349 0.81727052 -0.18871257 0
-1.9548665 0.87713909 -0.18651767 0
-1.8743999 0.83910435 -0.18563825 0
-1.7743469 0.84428155 -0.18417922 0
-1.6696564 0.86673403 -0.18242766 0
-1.5812649 0.84036821 -0.18094282 0
-1.4584999 0.8585 -0.178 0
1.2640001 0.87900001 -0.13500001 0
1.3546222 0.85199022 -0.13492662 0
1.4545584 0.86404449 -0.13199291 0
1.5449972 0.82282889 -0.13174585 0
1.6589972 0.86332893 -0.13174585 0
1.7737241 0.8500104 -0.12940741 0
1.8679967 0.8416971 -0.12464669 0
1.9585203 0.84857112 -0.12459967 0
2.0534825 0.8787384 -0.1240115 0
2.2552145 0.83746606 -0.12064667 0
2.3820379 0.88662708 -0.11702745 0
-2.453742 0.93975341 -0.1932559 0
-2.3270159 0.92063278 -0.19154011 0
-2.1560333 0.97222608 -0.1887162 0
-2.0353332 0.91517389 -0.18739708 0
-1.9115212 0.96998715 -0.18519919 0
-1.8279691 0.95020199 -0.18428299 0
-1.7224492 0.95290852 -0.18187802 0
-1.631081 0.93744898 -0.18075627 0
-1.547658 0.95119351 -0.179002 0
-1.4642931 0.96535081 -0.17716552 0
-1.369 0.97099996 -0.175 0
1.1569999 0.98000002 -0.133 0
1.2512691 0.96120143 -0.13312781 0
1.336926 0.93035024 -0.13305819 0
1.4386704 0.95283055 -0.13141142 0
1.5549834 0.95255947 -0.12926567 0
1.6661139 0.94391793 -0.12906502 0
1.7525449 0.96811211 -0.12745762 0
1.85508 0.96348673 -0.1257388 0
1.933 0.99000001 -0.124 0
2.0291953 0.916776 -0.11890537 0
2.1650629 0.98005676 -0.11406624 0
-2.3611 1.0691564 -0.19095737 0
-2.2767332 1.0292783 -0.19003533 0
-2.146662 1.0937275 -0.18759859 0
-2.065438 1.0754039 -0.18706599 0
-1.9522911 1.055546 -0.18512399 0
-1.8661346 1.0537156 -0.18312757 0
-1.7721584 1.0419695 -0.18172488 0
-1.6593499 1.0564375 -0.17980482 0
-1.5550793 1.0445402 -0.17785068 0
-1.458642 1.0515351 -0.17490798 0
-1.3650627 1.0631871 -0.1727121 0
-1.283 1.0575 -0.171 0
1.0705 1.044 -0.13150001 0
1.1641564 1.0830305 -0.13040526 0
1.248153 1.0564401 -0.13078354 0
1.3449903 1.057477 -0.12988025 0
1.4551966 1.0651298 -0.12897071 0
1.5708518 1.0732005 -0.12911637 0
1.65117 1.045588 -0.12858266 0
1.7550251 1.0484003 -0.12393624 0
1.8372529 1.0462712 -0.12532966 0
1.9363923 1.0454941 -0.12272464 0
2.0069802 1.0798025 -0.11822093 0
-2.2438338 1.161248 -0.18894754 0
-2.1284428 1.1636922 -0.18700814 0
-2.0398817 1.1577988 -0.18540436 0
-1.9212644 1.1566896 -0.18405955 0
-1.8507274 1.1421156 -0.18160103 0
-1.7494004 1.1600125 -0.17992957 0
-1.6431996 1.1582571 -0.17682271 0
-1.5557475 1.1561341 -0.17554036 0
-1.4437574 1.1668301 -0.17311832 0
-1.3499675 1.1462355 -0.17166373 0
-1.2461993 1.1419376 -0.1692137 0
-1.1765001 1.1775 -0.168 0
0.96149999 1.1345 -0.131 0
1.0711091 1.1730461 -0.12922081 0
1.1381906 1.1434385 -0.12882216 0
1.2365856 1.1475438 -0.12823661 0
1.3504257 1.1723213 -0.12790065 0
1.4558908 1.1537844 -0.12675625 0
1.5545 1.1245 -0.131 0
1.6327263 1.1479948 -0.12797424 0
1.7485307 1.1535172 -0.12470929 0
1.8456177 1.1483272 -0.12228075 0
1.9441109 1.1356282 -0.11981413 0
2.0554676 1.1402979 -0.11725595 0
2.1493392 1.1648905 -0.11597298 0
-2.4159999 1.285 -0.192 0
-2.3423576 1.2461014 -0.19102754 0
-2.239974 1.2700226 -0.18764225 0
-2.164355 1.2529436 -0.18653823 0
-2.0570836 1.2640899 -0.18381639 0
-1.9574478 1.250523 -0.18233187 0
-1.8493983 1.2458662 -0.18005194 0
-1.73312 1.2483934 -0.17743619 0
-1.6480327 1.2546191 -0.17714714 0
-1.5360312 1.2420678 -0.17312706 0
-1.446853 1.2544893 -0.17172888 0
-1.3481252 1.2487189 -0.17021105 0
-1.2554811 1.2295183 -0.16866978 0
-1.1447369 1.2519665 -0.16666667 0
-1.079 1.28 -0.16500001 0
0.85549998 1.2265 -0.131 0
0.97110075 1.2605582 -0.12937324 0
1.0587307 1.2662598 -0.1277011 0
1.1303015 1.2370201 -0.12769008 0
1.2512558 1.2460945 -0.12645191 0
1.3452992 1.2785048 -0.12515916 0
1.4565487 1.241276 -0.12710081 0
1.5550293 1.2402192 -0.12559675 0
1.6420947 1.2670392 -0.1243127 0
1.7499138 1.2477717 -0.12462619 0
1.869222 1.2469174 -0.12109721 0
1.953557 1.2534635 -0.11863437 0
2.0289781 1.2382373 -0.11629555 0
-2.3399999 1.316 -0.18799999 0
-2.2320001 1.399 -0.184 0
-2.158056 1.3356696 -0.18423496 0
-2.0505128 1.3656832 -0.18293798 0
-1.9391422 1.3458029 -0.17903376 0
-1.8426976 1.3570274 -0.17884165 0
-1.7466764 1.3438338 -0.17575757 0
-1.6319976 1.3549539 -0.17339972 0
-1.5520974 1.3416008 -0.17212109 0
-1.4513876 1.3456315 -0.17040689 0
-1.3498498 1.370443 -0.16888905 0
-1.2575603 1.3422805 -0.16751932 0
-1.1384724 1.3540096 -0.16640788 0
-1.036 1.35525 -0.16500001 0
0.65799999 1.382 -0.133 0
0.87122655 1.3447523 -0.12928234 0
0.9566918 1.3713777 -0.12793189 0
1.03869 1.3408301 -0.12751158 0
1.1388253 1.3418446 -0.12625967 0
1.2710338 1.3587559 -0.12480314 0
1.3731251 1.3666881 -0.12335359 0
1.4498401 1.33162 -0.12515841 0
1.5363387 1.35324 -0.12457266 0
1.6559384 1.3658953 -0.12376272 0
1.745038 1.3420217 -0.12091714 0
1.8303835 1.3255374 -0.12310222 0
1.9386759 1.3412124 -0.11809599 0
2.0689418 1.3220853 -0.11695468 0
-2.1452656 1.4405073 -0.18065517 0
-2.0257094 1.4424318 -0.17866141 0
-1.9485755 1.4366347 -0.18023126 0
-1.8481359 1.4533421 -0.1775053 0
-1.7591343 1.4565189 -0.17469525 0
-1.6407675 1.4484762 -0.1711209 0
-1.5380456 1.4381104 -0.16949734 0
-1.4446898 1.456202 -0.16898265 0
-1.3533052 1.4435416 -0.16809265 0
-1.2621243 1.4364443 -0.16841491 0
-1.1550081 1.4460634 -0.16723326 0
-1.0459188 1.4402094 -0.16410975 0
-0.95058179 1.4492722 -0.16292197 0
-0.86500001 1.4883333 -0.16066666 0
-0.44143856 1.4568989 -0.15467778 0
-0.366 1.4630001 -0.153 0
-0.30000001 1.494 -0.15099999 0
0.34508392 1.4657884 -0.13852362 0
0.46900001 1.498 -0.13500001 0
0.56350005 1.437 -0.134 0
0.695297 1.463954 -0.13150813 0
0.73250002 1.4845001 -0.13 0
0.83109426 1.4584765 -0.12912834 0
0.94304001 1.4539942 -0.12692811 0
1.0771377 1.4510678 -0.12564842 0
1.1506621 1.4583485 -0.12527229 0
1.2501827 1.442564 -0.12313223 0
1.3608471 1.4458725 -0.1238523 0
1.4448251 1.4365059 -0.12394351 0
1.557411 1.4428463 -0.12238463 0
1.6497095 1.4745345 -0.12134014 0
1.7333603 1.4338664 -0.1214988 0
1.8464174 1.4417543 -0.11925428 0
1.9683254 1.4260561 -0.11915334 0
2.026 1.4680001 -0.1175 0
-2.0580001 1.503 -0.178 0
-1.9267035 1.5340732 -0.17565523 0
-1.8390361 1.5444398 -0.17499526 0
-1.7464621 1.5618001 -0.17228922 0
-1.6533329 1.5528847 -0.17117848 0
-1.5459791 1.5412955 -0.16946214 0
-1.4439721 1.5233388 -0.16653538 0
-1.3614683 1.5451274 -0.16591917 0
-1.2327231 1.5559031 -0.16295086 0
-1.138123 1.5243366 -0.16496368 0
-1.0380076 1.5460215 -0.16307031 0
-0.94500357 1.552748 -0.16001104 0
-0.83687317 1.5572977 -0.16020843 0
-0.76290953 1.5671301 -0.15976954 0
-0.65633339 1.5806667 -0.15700001 0
-0.47575411 1.552596 -0.15371116 0
-0.35039273 1.5526674 -0.15081066 0
-0.233 1.533 -0.15000001 0
-0.14500001 1.5764999 -0.148 0
0.17200001 1.59 -0.141 0
0.257 1.5235 -0.13949999 0
0.33896786 1.5645424 -0.13771267 0
0.44926643 1.5611031 -0.13483542 0
0.56402814 1.5391484 -0.13230908 0
0.64909661 1.5439571 -0.1313915 0
0.74896342 1.564644 -0.12823039 0
0.86618841 1.5564532 -0.12725668 0
0.95772082 1.516974 -0.12616216 0
1.0089326 1.5692211 -0.12473599 0
1.1629361 1.5570898 -0.12311947 0
1.2527997 1.5560796 -0.12456927 0
1.332423 1.5266662 -0.12285158 0
1.4477444 1.5433329 -0.12151283 0
1.5598974 1.5517898 -0.11893547 0
1.6468672 1.5423907 -0.12071887 0
1.749601 1.5425826 -0.12010387 0
1.8638618 1.5632505 -0.12010231 0
1.937 1.587 -0.119 0
-3.6827879 1.6917146 -0.19902104 0
-1.8201847 1.6252214 -0.17178465 0
-1.7298398 1.6357555 -0.17061412 0
-1.6456667 1.6479999 -0.16900001 0
-1.5496246 1.6605631 -0.16638821 0
-1.4626913 1.6428937 -0.16560799 0
-1.3246262 1.6438322 -0.16209053 0
-1.2595234 1.6408591 -0.16143444 0
-1.1603385 1.6416225 -0.16023311 0
-1.0388845 1.6295104 -0.16144028 0
-0.94906116 1.6433792 -0.15996964 0
-0.86846405 1.6576834 -0.15870869 0
-0.72422028 1.6142749 -0.15866667 0
-0.6628601 1.6409963 -0.15563367 0
-0.50099999 1.623 -0.153 0
-0.44215265 1.6362399 -0.15100057 0
-0.33124021 1.6441394 -0.14866863 0
-0.24979065 1.6481838 -0.14798513 0
-0.1701356 1.6570776 -0.14681166 0
-0.071793132 1.6547772 -0.14537418 0
0.15907526 1.6671705 -0.14096943 0
0.25966588 1.6195766 -0.13879144 0
0.34026685 1.6663449 -0.13721767 0
0.43690056 1.6540753 -0.13539787 0
0.56078047 1.6409273 -0.13248996 0
0.66999185 1.6487252 -0.12985425 0
0.76056755 1.6606053 -0.12682055 0
0.85599804 1.6431618 -0.12349936 0
0.92487007 1.6593595 -0.12456259 0
1.0545982 1.639955 -0.12313253 0
1.1693836 1.6620889 -0.12253048 0
1.2599648 1.6483835 -0.12164451 0
1.344342 1.6425247 -0.12172689 0
1.4499141 1.6581885 -0.11942423 0
1.5423273 1.6159939 -0.11926211 0
1.6203823 1.6663702 -0.1166745 0
1.7579966 1.661171 -0.12009878 0
1.8607203 1.6503202 -0.11989696 0
-3.848666 1.7709402 -0.19180089 0
-3.7638862 1.730054 -0.19727367 0
-1.9318768 1.7779098 -0.1758668 0
-1.8652513 1.7167732 -0.17524454 0
-1.7483406 1.7678409 -0.17171757 0
-1.6544665 1.7131407 -0.16983707 0
-1.578661 1.7482171 -0.16548973 0
-1.3538212 1.7279545 -0.16057034 0
-1.2414434 1.7470171 -0.15861297 0
-1.1475 1.775 -0.15650001 0
-1.0685773 1.764213 -0.15637377 0
-0.95850122 1.7516601 -0.15827081 0
-0.847 1.732 -0.15800001 0
-0.70295024 1.7855898 -0.15148136 0
-0.6746335 1.7217265 -0.15298758 0
-0.44383073 1.7605302 -0.148074 0
-0.35467035 1.7567439 -0.14692011 0
-0.2665813 1.7633678 -0.14597024 0
-0.13958985 1.7478286 -0.14212474 0
-0.063666776 1.7511837 -0.14333197 0
0.070286065 1.7456245 -0.14211971 0
0.15807112 1.7665297 -0.14019097 0
0.26107448 1.7426695 -0.1372879 0
0.36476555 1.7600353 -0.13534541 0
0.44842458 1.7496154 -0.1338252 0
0.55902356 1.7454952 -0.13182805 0
0.64743453 1.7647139 -0.12875706 0
0.7518416 1.7672256 -0.12612885 0
0.83796746 1.7512572 -0.12444609 0
0.94488043 1.7415155 -0.12100527 0
1.0663384 1.7446016 -0.12116083 0
1.149835 1.7552249 -0.12174891 0
1.2360028 1.7571758 -0.1194858 0
1.3478616 1.7345619 -0.12037706 0
1.4569831 1.7731638 -0.12069657 0
1.5513334 1.726429 -0.1198718 0
1.6453679 1.746714 -0.1189329 0
1.7240671 1.7679483 -0.1089225 0
1.8049999 1.705 -0.119 0
-4.0539932 1.8744607 -0.1582081 0
-3.9769955 1.8356404 -0.17080539 0
-2.0641627 1.8559926 -0.17756194 0
-1.9375116 1.868561 -0.17511143 0
-1.8441223 1.8216003 -0.17364149 0
-1.7492462 1.8532252 -0.17041649 0
-1.6501722 1.8407141 -0.16619183 0
-1.4528105 1.8870244 -0.16019244 0
-1.3969052 1.8160121 -0.16009621 0
-1.2534409 1.8409472 -0.15744084 0
-1.1197575 1.8682665 -0.15572764 0
-1.0322475 1.8436911 -0.15778455 0
-0.94070244 1.8468069 -0.15510884 0
-0.88479757 1.812149 -0.15765846 0
-0.71200001 1.806 -0.15099999 0
-0.36700001 1.816 -0.146 0
-0.28038752 1.8580785 -0.14431348 0
-0.031638011 1.8553162 -0.14281064 0
0.074144252 1.8779976 -0.14097877 0
0.15844508 1.8743733 -0.13946831 0
0.24490237 1.8542433 -0.13654335 0
0.35061169 1.858942 -0.13435407 0
0.45330009 1.8452563 -0.13286696 0
0.55805677 1.839378 -0.13058066 0
0.64476055 1.8597641 -0.12845831 0
0.74279457 1.8420594 -0.12623577 0
0.84107953 1.8456371 -0.12354998 0
0.95106643 1.8434907 -0.11979663 0
1.0275 1.837 -0.12 0
1.1367897 1.8329213 -0.11929275 0
1.3618816 1.8403825 -0.11773612 0
1.4563942 1.8727803 -0.1178738 0
1.5690842 1.855822 -0.11908409 0
1.6415 1.8280001 -0.118 0
1.7249732 1.8713533 -0.11147612 0
-4.2464876 1.9715114 -0.12671486 0
-4.130991 1.913281 -0.14561081 0
-2.1652169 1.9466567 -0.17841591 0
-2.0653493 1.9450674 -0.17671368 0
-1.9386016 1.9588521 -0.17429394 0
-1.8411772 1.9503051 -0.17160895 0
-1.7561439 1.9453684 -0.16845891 0
-1.5087157 1.9580365 -0.16028866 0
-1.348177 1.9603844 -0.15754832 0
-1.2748772 1.9173189 -0.15676333 0
-1.1385982 1.9486851 -0.15583044 0
-1.0729109 1.945666 -0.15915596 0
-0.97941113 1.9676527 -0.15560612 0
-0.04302476 1.9578843 -0.14229618 0
0.076716378 1.9662466 -0.14021815 0
0.16611925 1.9622952 -0.13852933 0
0.23680966 1.9474024 -0.13599651 0
0.34913093 1.9548085 -0.13327432 0
0.44280234 1.9347237 -0.13193595 0
0.54558665 1.9592351 -0.12933721 0
0.65338814 1.9465714 -0.12733813 0
0.75889605 1.9372371 -0.12490509 0
0.85485905 1.9237639 -0.12090721 0
0.93824476 1.943051 -0.11577751 0
1.2283833 1.9808962 -0.11414863 0
1.392 1.925 -0.115 0
1.4529999 1.914 -0.116 0
1.5328268 1.9233316 -0.11414766 0
1.6536909 1.9312394 -0.10505643 0
1.7859464 1.9337065 -0.10495224 0
-4.3619843 2.0297418 -0.10781892 0
-2.2541986 2.058095 -0.17898051 0
-2.1328955 2.0561068 -0.17744499 0
-2.0332551 2.0545928 -0.17557125 0
-1.9339924 2.0469503 -0.17283298 0
-1.8477461 2.0935485 -0.16923319 0
-1.7901218 2.0271237 -0.16802765 0
-1.564621 2.0290487 -0.16038489 0
-1.4377722 2.0539401 -0.15800001 0
-1.3747544 2.0626378 -0.15652665 0
-1.2341512 2.0514326 -0.15504672 0
-1.1436548 2.0530457 -0.15694845 0
-1.0396442 2.040787 -0.1543553 0
-0.99819034 2.0525963 -0.15663382 0
-0.067070916 2.0312107 -0.14217627 0
0.02774802 2.0652442 -0.14037973 0
0.15621373 2.0509119 -0.13787565 0
0.24734816 2.0489683 -0.13486162 0
0.35627186 2.0485344 -0.13181357 0
0.43889466 2.0476589 -0.1306386 0
0.54434001 2.0725994 -0.12802704 0
0.64282382 2.0501652 -0.12619793 0
0.7457518 2.0505652 -0.12370851 0
0.84688103 2.0402646 -0.1221985 0
0.93186307 2.0536489 -0.11814138 0
-4.401093 2.1718228 -0.11754894 0
-4.3231087 2.1347933 -0.10747377 0
-4.2729998 2.1110001 -0.101 0
-2.4346948 2.1884277 -0.18069319 0
-2.3673253 2.127985 -0.18012387 0
-2.2959354 2.1614738 -0.17907694 0
-2.1659927 2.1376009 -0.17804398 0
-2.0571566 2.1761007 -0.17444398 0
-1.9336269 2.1425197 -0.17142808 0
-1.648479 2.1355672 -0.16052923 0
-1.5416582 2.19841 -0.15800001 0
-1.4572041 2.1307361 -0.15720415 0
-1.3027874 2.1613324 -0.15463817 0
-1.2250335 2.1493835 -0.15646267 0
-1.1472094 2.1747239 -0.15584916 0
-1.0584235 2.1257308 -0.15538301 0
-0.079799943 2.141825 -0.14138478 0
0.028935026 2.1533055 -0.13972466 0
0.1480252 2.1391909 -0.13717519 0
0.24825571 2.1486435 -0.13407892 0
0.36162952 2.1418493 -0.13034736 0
0.45209178 2.1569226 -0.1291915 0
0.54730546 2.1532855 -0.12745827 0
0.66114098 2.1564603 -0.12480719 0
0.74437374 2.1489289 -0.12252347 0
0.84359962 2.1532104 -0.12118693 0
0.97159481 2.14224 -0.11988603 0
-4.6350465 2.2829115 -0.14777447 0
-4.5570621 2.2458818 -0.13769931 0
-4.4790773 2.2088523 -0.12762412 0
-2.471 2.221 -0.18099999 0
-2.3522723 2.2491014 -0.1799174 0
-2.2625539 2.2324009 -0.17936473 0
-2.1715994 2.2441332 -0.17676683 0
-2.0846391 2.2565424 -0.17398265 0
-1.9714975 2.2361989 -0.17182213 0
-1.7323368 2.2420852 -0.16067356 0
-1.5590857 2.2756307 -0.15708582 0
-1.4746317 2.2079568 -0.15628998 0
-1.348545 2.2345986 -0.15436581 0
-1.2537236 2.2491407 -0.15662035 0
-1.1374358 2.2838087 -0.15515989 0
-1.0737855 2.2128944 -0.15595074 0
-0.1026829 2.2747984 -0.14038707 0
-0.045450568 2.2255332 -0.14048851 0
0.030122031 2.2413664 -0.13906959 0
0.15434425 2.22719 -0.13627429 0
0.24588938 2.247679 -0.13326597 0
0.34302425 2.2376072 -0.13003628 0
0.44604453 2.2526183 -0.12800157 0
0.54703838 2.2523954 -0.12645097 0
0.64634621 2.2555921 -0.1231504 0
0.7437517 2.243901 -0.12172416 0
0.84027487 2.2511518 -0.11919366 0
0.96094096 2.2581894 -0.11964101 0
1.031985 2.2037699 -0.1180406 0
-4.869 2.3940001 -0.178 0
-4.7520232 2.3384557 -0.16288725 0
-1.8441473 2.3841097 -0.16086601 0
-1.7882421 2.3130975 -0.16076978 0
-1.6455442 2.34288 -0.15800001 0
-1.5857544 2.369638 -0.15602666 0
-1.41 2.3329999 -0.154 0
-1.366344 2.3253975 -0.15540656 0
-1.2531601 2.352648 -0.15554325 0
-1.1493807 2.3731928 -0.15526764 0
-0.10563004 2.3619316 -0.13961825 0
-0.048025664 2.3137887 -0.13990326 0
0.031309035 2.3294277 -0.13841453 0
0.15001762 2.3400452 -0.13547166 0
0.23477837 2.3381538 -0.13314582 0
0.35209039 2.3372102 -0.12846123 0
0.45745492 2.3606033 -0.12536083 0
0.53882802 2.3649471 -0.12536153 0
0.67317748 2.325958 -0.12215136 0
0.76394492 2.3390555 -0.12088428 0
0.84299999 2.3134999 -0.118 0
0.91402721 2.3196058 -0.11926722 0
-1.9110262 2.4690609 -0.16098112 0
-1.701 2.4200001 -0.15800001 0
-1.6974871 2.4151149 -0.15800001 0
-1.429067 2.4977674 -0.15692532 0
-1.3621505 2.4465098 -0.15599971 0
-1.254859 2.447716 -0.15497373 0
-1.179 2.4360001 -0.155 0
-0.108 2.4319999 -0.139 0
-0.05130038 2.4260221 -0.13915899 0
0.032748017 2.4344943 -0.13762973 0
0.13798313 2.4383307 -0.13482101 0
0.25182423 2.4310474 -0.13251625 0
0.42362222 2.4217026 -0.12777416 0
0.54999995 2.4159999 -0.1245 0
0.63747954 2.4090748 -0.12302867 0
0.759 2.4059999 -0.121 0
0.94599998 2.401 -0.118 0
-1.462 2.5539999 -0.15700001 0
-1.3559999 2.5020001 -0.155 0
-2.4619999 2.947 -0.103 0
-0.78799999 3.813 -0.12 0
-1.1103716 3.9454012 -0.1001433 0
-0.81988913 3.944741 -0.11740269 0
-1.1326858 4.0322008 -0.11007164 0
-0.85177827 4.0764818 -0.11480539 0
-1.155 4.119 -0.12 0
-0.87303764 4.1643095 -0.11307385 0
-0.89429706 4.2521367 -0.11134232 0
-0.91555649 4.3399639 -0.10961078 0
-0.93681592 4.4277916 -0.10787924 0
-0.95807528 4.5156188 -0.10614771 0
-1.0005941 4.6912737 -0.10268463 0
-0.97933471 4.603446 -0.10441617 0
-1.0089999 4.7259998 -0.102 0
-3.1930788 -3.951488 -0.090057023 0
-0.778 -4 -0.0060000001 0
-3.1380918 -3.8814027 -0.078733183 0
-3.0831048 -3.8113174 -0.067409351 0
-3.3228095 -3.7449811 -0.098425135 0
-3.0281179 -3.7412319 -0.056085519 0
-3.2402143 -3.6429718 -0.077137709 0
-2.984 -3.6849999 -0.046999998 0
-3.157619 -3.5409625 -0.055850275 0
-3.1025555 -3.4729562 -0.041658655 0
-3.047492 -3.4049499 -0.027467035 0
-3.003 -3.3499999 -0.016000003 0
-0.88200003 -3.1040001 -0.0020000001 0
1.241606 -2.2199931 -0.085735954 0
1.1906534 -2.1324334 -0.069163971 0
1.592 -2.0120001 -0.097999997 0
1.73 -2.0350001 -0.071000002 0
4.5770001 -2.0280001 -0.063000001 0
1.663496 -1.9543126 -0.087389633 0
4.3662701 -1.929183 -0.092764154 0
4.4379048 -1.9627745 -0.082646236 0
4.5095396 -1.996366 -0.072528318 0
2.9319999 1.52 -0.093000002 0
3.0111661 1.5611966 -0.093000002 0
3.0903323 1.602393 -0.093000002 0
3.1694984 1.6435896 -0.093000002 0
3.2486649 1.6847861 -0.093000002 0
3.327831 1.7259827 -0.093000002 0
3.4069972 1.7671793 -0.093000002 0
1.826761 1.8648759 -0.096213996 0
3.4861634 1.8083758 -0.093000002 0
3.5653296 1.8495723 -0.093000002 0
3.6444957 1.8907689 -0.093000002 0
1.7351047 1.9782096 -0.089819245 0
1.8680604 1.9629523 -0.094597936 0
1.9516416 1.9948138 -0.085320994 0
3.668 1.903 -0.093000002 0
-4.4219999 2.0599999 -0.097999997 0
1.6573098 2.0288687 -0.094146207 0
1.7690728 2.0647182 -0.078169279 0
1.9078928 2.058413 -0.091904484 0
2.0140817 2.0597827 -0.079874501 0
1.6834409 2.1099837 -0.083328918 0
1.7399212 2.1799784 -0.07177189 0
1.8267637 2.1314578 -0.064725704 0
1.9390639 2.1478951 -0.06646435 0
2.0531805 2.1539354 -0.076642357 0
2.1389623 2.1897206 -0.068981498 0
1.7964015 2.2499728 -0.06021487 0
1.8596475 2.2213705 -0.055016153 0
1.9421456 2.2649364 -0.037838556 0
2.0908122 2.2454727 -0.072332844 0
2.2102013 2.263845 -0.062767498 0
1.8528818 2.3199675 -0.048657842 0
1.9418343 2.3735404 -0.03326172 0
2.0543928 2.339036 -0.012322154 0
2.1500001 2.306 -0.066 0
-2.2195837 2.4477882 -0.0018888824 0
-2.0610604 2.4732945 -0.012042731 0
1.9658424 2.4599566 -0.025543794 0
2.0603008 2.4589295 -0.010227468 0
-2.3287919 2.5788941 -0.022944441 0
-2.2741878 2.5133412 -0.012416661 0
-2.1183374 2.5409667 -0.025036626 0
2.0505629 2.5649486 -0.0082082562 0
-2.3833959 2.6444471 -0.033472221 0
-2.2328916 2.6763113 -0.051024415 0
-2.1756144 2.608639 -0.03803052 0
-2.438 2.71 -0.044 0
-2.2901688 2.7439833 -0.064018309 0
-2.4047227 2.8793278 -0.090006106 0
-2.3474457 2.8116555 -0.077012211 0
-0.9299289 3.2435033 -0.019858245 0
-0.95417202 3.3378057 -0.030644834 0
-0.97648627 3.4246054 -0.040573187 0
-1.0211147 3.5982039 -0.060429893 0
-0.99880046 3.5114045 -0.05050154 0
-1.0434289 3.6850033 -0.070358247 0
-1.0657431 3.7718027 -0.080286592 0
-1.0880573 3.858602 -0.090214945 0
-0.7608971 -3.9126568 0.00056149438 0
-0.7437942 -3.8253136 0.0071229888 0
-0.72669125 -3.7379704 0.013684484 0
-0.70958835 -3.6506274 0.020245977 0
-0.69248545 -3.5632842 0.026807472 0
-0.67538255 -3.4759409 0.033368967 0
-0.64972818 -3.3449264 0.043211207 0
-0.6240738 -3.2139115 0.053053446 0
-0.54400003 -3.21 0.021 0
-0.84100002 -3.1630001 0.028999999 0
-0.755 -3.1289999 0.027000001 0
-0.61900002 -3.188 0.055 0
-0.52776563 -3.1208954 0.027087897 0
-1.084 -3.0150001 0.0020000001 0
-0.93599999 -3.0090001 0.026000001 0
-0.83734167 -3.0471935 0.020473933 0
-0.73290575 -3.0420356 0.032750551 0
-0.51153123 -3.0317907 0.033175796 0
-5.3464255 -2.9242713 0.057830673 0
-5.2610002 -2.908 0.044 0
-1.0552663 -2.9329214 0.011744494 0
-0.90978611 -2.9250448 0.032494426 0
-0.8338744 -2.9325132 0.015653055 0
-0.75718075 -2.9489079 0.040702596 0
-0.49529684 -2.9426858 0.039263695 0
-1.0265324 -2.850843 0.021488987 0
-0.95449996 -2.8115001 0.02 0
-0.84669197 -2.8439298 0.031734217 0
-0.74398446 -2.8155222 0.049485356 0
-0.68871731 -2.8681066 0.044251654 0
-0.47906244 -2.8535812 0.045351595 0
-1.001 -2.7249999 0.022 0
-0.95172518 -2.7460558 0.027669972 0
-0.8573584 -2.7571344 0.045483276 0
-0.75273967 -2.7448394 0.043956399 0
-0.66662312 -2.781142 0.050002206 0
-0.46282804 -2.7644765 0.05143949 0
-0.94935012 -2.652554 0.034781035 0
-0.86159146 -2.660563 0.045908183 0
-0.76168603 -2.675283 0.042132642 0
-0.65414673 -2.6477244 0.058994696 0
-0.44659364 -2.6753719 0.057527386 0
-0.92668104 -2.5342834 0.03767148 0
-0.85587275 -2.5675383 0.040557463 0
-0.74330014 -2.5328681 0.058570474 0
-0.63578165 -2.537581 0.066051617 0
-0.43035924 -2.5862672 0.063615285 0
-0.85483855 -2.4478936 0.051164687 0
-0.75250292 -2.4213135 0.071460985 0
-0.66823328 -2.4430485 0.069291472 0
-0.57824624 -2.433284 0.07300441 0
-0.41412485 -2.4971623 0.069703184 0
-0.39789045 -2.4080577 0.075791083 0
-0.86137658 -2.3651237 0.063318647 0
-0.7624681 -2.3267329 0.078490466 0
-0.64407492 -2.3567419 0.07626541 0
-0.55615199 -2.3463197 0.078754961 0
-0.38165605 -2.318953 0.081878975 0
-0.71399999 -2.2980001 0.081 0
-0.653 -2.2880001 0.082000002 0
-0.57482034 -2.2751017 0.082071126 0
-0.368 -2.244 0.086999997 0
-2.1306634 2.0348508 0.041523419 0
