# .PCD v0.7 - Point Cloud Data file format
VERSION 0.7
FIELDS x y z intensity
SIZE 4 4 4 4
TYPE F F F F
COUNT 1 1 1 1
WIDTH 526
HEIGHT 1
VIEWPOINT 0 0 0 1 0 0 0
POINTS 526
DATA ascii
-31.110064 -17.793081 7.9891229 10
-30.836397 -18.21826 8.1288042 10
-30.568274 -18.450035 7.9791064 10
-30.63266 -18.417871 8.9488449 11
-30.767414 -18.277189 9.3551455 11
-30.103424 -19.147133 7.9939685 10
-30.29357 -18.902174 8.133872 10
-30.160788 -19.070038 8.9146357 11
-29.768711 -19.601095 8.1509552 10
-29.673908 -19.71814 8.881505 11
-29.829584 -19.554611 9.2396765 11
-29.760242 -19.757265 10.175317 12
-29.861279 -19.624899 14.146752 15
-29.352673 -20.183771 9.1855001 11
-29.258589 -20.386175 10.189233 12
-29.594053 -19.997107 14.649374 15
-29.098766 -20.492071 8.0169544 10
-28.879751 -20.812904 9.1363478 11
-28.880783 -20.925804 14.116619 15
-29.115009 -20.749537 14.053486 15
-28.688435 -21.090996 8.1225529 10
-28.415781 -21.458046 9.0932379 11
-28.733135 -21.015343 8.8342524 11
-28.796894 -21.041142 10.221107 12
-28.511677 -21.51952 14.112093 15
-28.113066 -21.840935 8.0610552 10
-28.246218 -21.661371 8.8112316 11
-28.336172 -21.706068 10.263043 12
-28.21958 -21.81959 13.598699 14
-28.178698 -21.937107 14.578099 15
-27.718246 -22.38357 8.2755527 10
-27.762341 -22.298367 8.7972221 11
-27.927876 -22.076099 9.0501862 11
-27.825518 -22.323862 10.28708 12
-27.959288 -22.266672 14.147541 15
-27.455917 -22.710157 9.0151558 11
-24.130888 -7.8349934 1.6789238 5
-23.842863 -8.1438398 0.6412611 4
-23.693893 -8.4904404 1.2202618 5
-23.93017 -7.9815817 1.2417487 5
-23.678976 -8.4372931 2.1372266 6
-23.836178 -8.2626963 2.074477 6
-23.952234 -7.8885722 2.1305416 6
-23.823223 -8.2727232 2.7185357 6.5
-23.441084 -8.1865644 1.6615353 5
-23.276842 -8.9256496 2.135226 6
-23.470966 -8.7841721 2.0754108 6
-22.965534 -3.926059 0.62374759 4
-22.931595 -3.855576 1.2467579 5
-23.099773 -9.2886143 2.0743618 6
-23.128813 -9.1733713 2.613085 6
-22.526285 -3.9593308 1.8580823 6
-21.288271 -2.5832241 2.2309399 6
-20.986769 -3.2358108 -0.48437181 3
-21.10004 -2.595015 1.1624979 5
-21.030611 -2.4215238 1.2384865 5
-21.093897 -2.4377739 1.6773237 6
-21.05349 -2.1483879 1.6910896 6
-20.668125 -2.1702788 0.57423329 4
-20.607193 -1.7615017 1.1714249 5
-20.591265 -1.4486849 1.1686041 5
-20.553844 -1.8720171 1.6252129 6
-20.418734 -1.3612589 1.6070065 6
-20.499615 -0.86402112 1.6062056 6
-15.593993 -3.1218827 -0.35675395 3
-15.109641 -4.668591 0.78588504 5
-15.166347 -4.320406 0.79419726 5
-15.149651 -4.5500379 1.0325892 5
-15.123096 -4.5063362 1.3011042 6
-15.098491 -4.6108994 1.9598374 7
-14.171062 -5.9782104 -0.46121961 2
-12.696647 7.8096452 3.3847771 10
-12.635818 7.8248072 3.6849506 11
-12.104001 7.8862019 3.1135101 10
-12.097035 7.8709455 3.5565431 11
-11.777122 7.9063206 3.2954831 10
-11.917623 7.8869228 3.8750746 11
-11.713048 5.8831954 10.226067 23
-11.65163 5.9188037 10.48623 24
-11.404083 7.9567819 3.0015738 10
-11.591282 7.9220195 3.4380338 11
-11.447957 7.9519548 3.7834477 11
-11.592682 5.7386656 10.941527 24
-10.802384 5.9615936 10.368752 24
-10.253177 8.0778818 3.1379678 10
-10.301406 8.1028872 3.2068052 11
-10.366 6.2387013 9.1888771 23
-10.3274 6.1020551 9.375083 23
-10.020973 6.0708342 10.613037 26
-9.7468939 6.137176 4.4477949 14
-9.8618469 6.1152773 10.654488 26
-9.8507004 5.862813 10.99969 26
-8.5415468 1.2235428 0.1718908 4
-8.6487875 6.3234105 4.123992 14
-8.601943 6.2624712 10.260198 26
-7.7065048 -3.2075374 0.031672362 3
-7.8377848 6.3713112 5.9644232 19
-7.8289723 6.0508957 11.062182 29
-6.5301604 1.9522192 -0.029745597 3
-6.1397982 2.137459 -0.03170979 3
-5.5901179 -2.969399 -0.063317411 3
-5.5977511 2.2587199 -0.21216488 2
-5.3956761 0.5224269 0.21370538 4.5
-5.2605238 1.1112306 0.32063508 5
-5.2220292 8.7114668 0.03550721 3
-5.3694005 0.45706332 0.45950609 6
-5.2046089 1.1899526 0.57374382 6.5
-5.4666572 6.6691566 6.2943726 22
-5.3658581 6.6676817 6.5116763 23
-4.9298987 -2.9057653 -0.063398689 3
-5.1472254 1.3898203 -0.24373108 2
-4.9500003 2.2795315 -0.1912227 2
-4.9185824 -2.892266 0.12961246 4
-5.0975513 0.97394073 0.20888612 4.6666665
-4.9263492 -2.8811796 0.58977103 6.1999998
-5.1763959 1.0087346 0.44871145 6
-4.9878287 6.7224689 4.7642527 19
-4.5389147 -2.8808227 -0.064727999 3
-4.4679627 1.5398813 -0.22430176 2
-4.5492711 2.4067442 -0.20508349 2
-4.6026416 -2.8593464 0.11769954 4.3333335
-4.4566288 6.7858605 4.5912728 19
-4.6018443 6.7775459 6.011857 22
-4.3232403 -2.58149 -0.26912266 2
-4.2964573 -2.3050992 -0.26254055 2
-4.2743578 -0.85210305 -0.24865031 2
-4.0953097 -0.62431508 -0.23939991 2
-4.1195321 2.4259698 -0.19278245 2
-4.1895304 -2.8487232 0.14205904 4.125
-4.2030215 -2.8635433 0.54499799 6.4000001
-4.3112178 6.8141489 4.5786762 19
-4.3067183 6.796514 4.8387046 20
-4.1974874 6.8211923 5.896008 22
-4.2841311 6.7314548 6.0981593 23
-3.6679394 -4.458456 -0.21885097 2
-3.7751241 -2.8793585 -0.1933094 2.5
-3.7181656 -2.6011088 -0.26419008 2
-3.8081937 -2.1663234 -0.26629129 1
-3.6215203 -0.99676764 -0.25006667 1
-3.9079657 5.1840086 -0.021918815 3
-3.7796345 5.5304937 -0.030793119 3
-3.8508961 -2.8010213 0.1882876 4.5
-3.8896894 -2.7875054 0.43163869 6
-3.7031679 6.8741331 4.3883905 19
-3.8586814 6.8608723 4.4269543 19
-3.8766992 6.8389168 5.9719238 23
-3.7163255 6.8582969 6.0283713 23
-3.4816155 -4.6253009 -0.29576367 2
-3.4891813 -3.7857275 -0.28784946 2
-3.5621686 -3.3635352 -0.28106937 2
-3.3041689 -2.8867643 -0.051097132 3
-3.5151672 -2.7853174 -0.051169243 3
-3.583936 0.86231649 -0.23421344 1
-3.3104651 -2.8964584 0.091876827 3.8333333
-3.5153611 -2.7828329 0.14432643 4.5
-3.1617343 -3.0286901 -0.033479419 3
-3.0582321 -0.23109613 -0.21681303 1
-2.8840675 0.86127549 -0.2181143 1
-3.0795753 2.1360431 -0.20341501 2
-3.1915033 -3.0531838 0.20247763 5
-2.8441846 5.269732 0.025152048 3
-2.7843409 1.0493706 -0.21641722 1
-2.5752542 1.2543166 -0.20888309 1
-2.6286256 2.2034366 -0.19455144 2
-2.4791079 2.6990681 -0.054881193 3
-2.4139881 8.4639044 3.7475302 15
-2.2666276 -1.8336425 -0.23478428 1
-2.3810608 -1.586887 -0.23696226 1
-2.1221797 -0.47265366 -0.20953541 0.33333334
-2.2400873 -0.33682492 -0.21885003 0.5
-2.1607733 1.3362067 -0.19463392 1
-2.0895326 2.2328734 0.021613918 4
-2.0035508 9.0856895 2.0699914 10
-2.3674495 8.5226736 3.4840963 14.5
-1.9346634 -5.3215375 -0.28781733 2
-1.7088122 -2.4662645 -0.15037619 1.8
-1.905466 -2.172132 -0.23568645 1
-1.8909905 -1.8672434 -0.22583315 1
-1.6763827 0.71359748 -0.19034371 0
-1.8825114 1.5288641 -0.18584895 1
-1.8476855 2.442492 -0.16776732 2
-1.8063616 -2.4505417 0.3235046 6.3333335
-1.8331959 9.102932 0.27639773 4
-1.7178078 9.1218634 0.61333483 5.3333335
-1.8072476 9.1097107 1.0606242 6.6666665
-1.760793 9.1119757 1.365906 7.3333335
-1.8549895 9.0908251 1.9628592 10
-1.7721615 9.1052351 2.1950538 10
-1.7305684 9.0998392 2.5179968 11.333333
-1.3260937 -3.5302355 -0.24740359 1
-1.3783641 -2.4196305 -0.0061757448 3
-1.3502854 -2.3832822 -0.13421984 1.8333334
-1.2791115 -1.8493556 -0.21544412 0
-1.3661151 -1.5473266 -0.21030344 0
-1.5075313 1.0347927 -0.18337514 0
-1.3968122 1.2094722 -0.18064618 0
-1.5408274 2.3508258 -0.16275971 2
-1.4196165 5.5239825 -0.020119311 3
-1.2201147 5.9223785 -0.084982425 3
-1.4036909 -2.4284003 0.16190626 5
-1.2152667 -2.3920376 0.195124 5.5
-1.5093025 1.9997897 0.30856946 7
-1.4594232 2.0541315 0.17696665 5.3333335
-1.4021746 9.1507187 0.27641475 4
-1.5036249 -2.4114525 0.71434206 10.5
-1.3235934 -2.385752 0.5539062 9.25
-1.5084496 2.1336734 0.61665404 10.5
-1.3442336 9.1623812 0.55654377 5.25
-1.5076135 -2.4541142 0.85293961 12
-1.402714 9.1567125 0.99040824 6.4000001
-1.3357289 9.1563749 1.3619063 7.6666665
-1.4223692 9.1445456 1.9453754 10
-1.4696779 9.1460943 2.0597599 10
-1.4599329 9.1276741 2.5613039 11.5
-0.83857393 -5.4173155 -0.26671016 2
-0.83429706 -4.015336 -0.00087114627 3
-1.1832199 -2.1060765 -0.2187724 0
-0.87440127 1.4881674 -0.16511191 0
-1.0814283 1.7855134 -0.16170891 1
-0.97769827 2.7800016 -0.025092624 3
-0.98744726 2.8767686 -0.08653865 2
-0.88875967 5.6410146 -0.085875981 3
-1.1418941 -3.0308797 0.0029389989 3
-1.0663431 -2.4221923 0.21978928 5.75
-0.99452889 -2.371938 0.17665961 5.4000001
-1.0876278 2.2703106 0.20224999 5.7142859
-0.9453187 2.7362752 0.14120413 5
-0.97315717 9.2044678 0.27638826 4
-0.99313146 -2.3455215 0.58349347 10
-1.0751668 2.3162508 0.48442346 9
-0.9315185 2.772984 0.4077124 7
-1.0924249 9.1936026 0.58511782 5.5
-0.92853719 9.2172136 0.58714741 5.3333335
-0.86877251 -2.3496506 0.81413567 13
-1.0817592 9.191227 1.1411474 7
-0.92520118 9.2088652 1.0307484 6.5
-1.0756266 9.190506 1.3881629 8
-0.9358902 9.2038164 1.4634798 8
-1.0874015 9.1915102 1.8666358 9
-1.1129707 9.1888208 2.1905782 10.5
-0.88333833 9.208663 2.1690998 10.5
-1.0049666 9.1684217 2.5853546 11.6
-0.98193353 9.1808138 3.3723998 14
-0.91846514 9.1904001 3.8285413 15
-0.8766312 7.207077 5.3286252 22
-0.62837005 -5.8727121 -0.26936293 2
-0.52278978 -3.2460239 -0.22976653 1
-0.59429008 1.4894032 -0.16074055 0
-0.643444 1.6395793 -0.15951052 1
-0.62828511 2.8516288 -0.13727823 2
-0.64148915 6.1665802 -0.039793782 3
-0.47480825 -4.2192307 0.027377276 3
-0.60516423 -3.2279434 0.040815674 3.5
-0.57087308 -2.4085515 0.14221111 5
-0.67173451 -2.3488674 0.27100661 6.7142859
-0.42264277 9.2752361 0.13558441 4
-0.65713131 -2.3254304 0.60321987 10.777778
-0.57243675 9.2579765 0.59438807 5.5
-0.59376311 9.2542734 1.0273439 6.5
-0.54530054 9.2528572 1.387333 8
-0.43671173 9.2645044 1.8455683 9
-0.62515777 9.2410469 2.1569977 10.333333
-0.4334535 9.1919489 2.7436516 12
-0.62823313 9.2309475 2.541167 11.5
-0.056585047 -9.7282763 -0.060911775 3
-0.3743515 -6.2759123 -0.26693749 2
-0.070970438 -3.6727538 -0.22437097 1
-0.30890796 -3.4549458 -0.22715528 1
-0.32933307 1.4912292 -0.15478714 0
-0.23363347 1.7884604 -0.14796901 1
-0.13633169 2.4273009 -0.14284474 2
-0.31789595 2.8458991 -0.13671257 2
-0.3506076 6.2211304 -0.025166322 3
-0.025760857 7.1996908 -0.034427959 3
-0.249603 -3.6195464 0.018621566 3
-0.32290062 -2.620559 0.056270991 4
-0.26783937 -2.3117347 0.26619738 6.625
-0.25781903 -2.2737174 0.56582969 10.555555
-0.20372976 9.306345 0.62904054 5.5
-0.1755719 9.3016291 0.94410908 6.3333335
-0.33277643 9.2806835 1.3887838 8
-0.023274511 9.3146887 1.9204324 9
-0.34547579 9.2669954 2.1867712 10.5
-0.27857709 9.2510414 2.6192713 11.666667
0.03639653 -4.6015487 -0.25665912 2
0.39829895 -3.7502725 -0.2371114 1
0.20340911 1.4288913 -0.14926787 0
0.18446247 1.6901586 -0.14257979 1
0.2081892 2.5491047 -0.13400799 2
0.38052827 8.6013155 -0.037985437 3
0.025358407 -2.6648552 0.068322308 4
0.26921412 -2.22176 0.30934846 7.125
0.21465108 9.3578739 0.27439541 4.5
0.22589965 -2.205899 0.58705109 11.214286
0.11420717 9.3377981 0.60120136 5.5
0.36577618 -2.1933377 0.81647706 14
0.18513986 9.3428755 0.94409835 6.25
0.20455451 9.3379803 1.3946457 8
0.13636021 9.3387442 1.7537506 9
0.19168672 9.3364515 2.2140384 10.333333
0.22560193 9.3121357 2.6183698 11.6
0.25609684 8.78055 3.3935781 14
0.39101589 8.7830553 3.7308605 15
0.53389817 -4.3049684 -0.24777409 2
0.60084307 -3.3951848 -0.22940314 1
0.63669097 1.37593 -0.13444626 1
0.53645986 1.7667608 -0.1331864 1
0.5783481 2.276448 -0.12688302 2
0.65719968 7.2397695 -0.028030876 3
0.65516084 -2.5591671 0.063571088 4
0.64097655 -2.192112 0.2906101 6.8571429
0.43467528 9.3766994 0.27533871 4.5
0.6230191 -2.1659946 0.57894897 11
0.43254936 9.372139 0.72234011 6
0.60098279 9.3949862 0.96528834 6.5
0.66726446 9.3908195 1.3418041 7.75
0.55329663 9.3796482 1.8353335 9
0.61013061 9.3814344 2.2058992 10.2
0.74489284 9.3902807 2.4884655 11
0.71096092 9.3871841 3.4654026 14
0.62472481 9.3704443 3.8402452 14.5
1.1944414 -2.0851419 -0.032203101 3
1.1426573 -1.3985684 -0.16655284 0
0.93947566 1.3570465 -0.12916605 1
0.93989509 2.2548828 -0.12024139 2
1.1580386 3.893667 -0.091722481 3
0.90849078 4.0997667 -0.09136606 3
1.0126082 -2.1128733 0.23062684 6.2222223
0.98099256 -2.1107473 0.5779956 10.636364
0.98126918 9.4368305 0.65571749 5.6666665
0.98780543 9.4343452 1.0137333 6.6666665
1.0282085 9.4259987 1.2959877 7.5
1.0562432 9.4380188 1.8065326 9
0.96235794 9.4192533 2.1768692 10
0.92821079 9.399621 2.6079884 11.666667
1.0542966 9.3979549 2.8005729 12
1.1536009 9.4282179 3.4892359 14
0.92468292 9.4141703 3.7133024 15
1.5644772 -5.0829616 -0.25317001 2
1.2403104 -4.797543 -0.24871767 2
1.5136005 -3.1501763 -0.21510451 1
1.3712037 -2.0652473 -0.072899655 2.25
1.3366172 -1.437066 -0.17472363 1
1.2775741 -0.27681977 -0.14985 0
1.5113717 0.71530664 -0.13488774 1
1.4820861 0.97158635 -0.13196598 1
1.3878999 1.3703737 -0.12772641 1
1.2202774 1.7427851 -0.12015089 2
1.3155166 2.3536873 -0.11354677 2
1.4364486 3.8120625 -0.096199982 3
1.3905088 -2.0927143 0.17005503 5.2857141
1.2412027 -2.455966 0.48922455 8.333333
1.369415 -2.0788398 0.43927181 8.6000004
1.4403449 9.4847565 0.6512177 5.6666665
1.3826681 9.4706812 1.0111235 6.5
1.3548576 9.4625015 1.3938309 7.75
1.4150317 9.4721861 1.8755186 9
1.4054062 9.4715624 2.2074175 10
1.4489871 9.4697437 2.6187539 11.5
1.8076581 -8.840271 -0.041202668 3
1.7262294 -3.6553719 -0.20171423 2
1.6801983 -2.0204036 -0.039416667 2.6666667
1.8558433 -1.3996527 -0.16150495 1
1.8749456 -1.1243007 -0.15696114 1
1.8246828 -0.20535739 -0.14512902 1
1.9653018 1.4645728 -0.11788388 2
1.8475677 1.6750544 -0.12004238 2
1.763931 -2.0627959 0.18752411 5.1999998
1.908673 7.7665715 0.12376443 4
1.780247 9.0233822 0.12630105 4
1.6305455 -2.046011 0.44656414 8.5
1.7885482 9.5334511 0.57747555 5
1.7970543 9.5228348 0.994169 6.3333335
1.7607732 9.5152512 1.4145277 8
1.7612401 9.5265341 1.8191022 9
1.7944095 9.5246973 2.1468308 10
1.8227328 9.5180941 2.6660893 11.4
1.7229577 9.4537401 2.8357751 12
2.2501943 -8.8927956 -0.053477179 3
2.3369195 -2.203799 -0.17519906 2
2.2936306 -1.8693434 -0.16881235 2
2.1684017 -1.0995059 -0.1554528 1
2.3470893 0.58378375 -0.12472749 2
2.1088324 1.1404688 -0.11473712 2
2.0420365 1.2293898 -0.11577746 2
2.223299 2.3462152 -0.088121191 2
2.1054013 -1.9958502 0.23705859 5.5
2.3130345 1.846769 0.2335473 5.5
2.1591778 2.2023888 0.19695593 5.0714288
2.095752 3.5220516 0.136944 4
2.0805531 3.8979983 0.1406191 4
2.1528366 4.6330066 0.13108471 4
2.186038 7.4139147 0.13256565 4
2.2640617 -1.9793104 0.58781457 9.25
2.2887053 1.9106443 0.52463728 8.5
2.1613159 2.1398976 0.52719593 8.5
2.0514629 3.1305964 0.5904485 8
2.0479345 3.4626853 0.64760262 8
2.1589489 9.5752811 0.64808846 5
2.3963101 9.609416 0.49379367 5
2.0174232 3.0255182 0.89424127 10
2.1014996 9.5725555 1.0355762 6.5
2.2403326 9.5743122 1.4403137 8
2.1306672 9.5686779 1.9003816 9
2.3686976 9.6054773 1.7647535 9
2.2147329 9.5797567 2.2712655 10
2.1381791 9.5539646 2.5974116 11
2.7504947 -1.7396759 -0.1501838 2
2.6872852 -1.3597074 -0.14775498 2
2.7935414 -0.28094742 -0.12620477 2
2.6157272 1.6692427 0.20853883 5.1666665
2.7506475 7.8006201 0.25707942 4
2.7175114 1.6478829 0.44841656 7
2.6563509 9.6354961 0.6488651 5
2.4088216 9.5978088 0.93482679 6
2.5965915 9.6245985 1.0411125 6.5
2.5613899 9.620326 1.3528091 7.5
2.5635102 9.619277 1.8800645 9
2.6304495 9.6207809 2.2021728 9.666667
2.7537923 9.6394176 2.4233565 10
3.0384746 -14.91734 -0.38615388 2
2.8518407 -3.1345663 -0.19331881 2
3.01775 -2.2217667 -0.16424944 2
2.983566 -0.51193827 -0.13240619 2
2.99453 0.14797762 -0.11923546 2
2.9094069 9.6659594 0.48557639 5
2.8808291 9.6580009 1.7795405 9
2.8722956 9.6493654 2.227536 10
2.9490244 9.6692352 2.5866387 10.5
2.9086435 9.6249533 2.894618 12
3.4120476 -11.290849 -0.28550172 3
3.2405062 1.3299462 -0.085432783 2
3.388639 2.1634941 -0.070905149 3
3.2578418 2.406924 -0.079509005 3
3.3787298 7.1760354 -0.0014879534 3
3.3509784 5.6800098 0.0036936011 3
3.4702647 6.5611148 0.0011368269 3
3.5242443 9.7941904 2.5273976 10
3.4446654 9.7894068 2.8807847 11.5
3.5874867 9.7459393 3.4135351 13
3.4338145 9.7045803 3.7468474 13.5
3.8308303 -1.4871161 -0.12841071 2
3.8790467 1.1951133 -0.084360659 3
3.8344495 -2.6109257 0.26369849 5
3.9030228 -2.3121524 0.24839416 5
3.8105433 -2.6764016 0.42320314 6
3.9708827 -2.2569036 0.41720483 6
3.9827495 9.8129196 2.9997025 11.666667
4.3423452 -2.1143656 -0.008124277 3
4.0613494 -1.2461531 -0.10914893 2
4.1564126 3.4004223 -0.065342493 3
4.0743608 -3.652457 0.044020113 3
4.0369687 -3.2994051 0.038449608 3
4.0215321 -2.9933686 0.03382108 3
4.192802 -2.1455824 0.18443772 4.4000001
4.2886534 -2.1334894 0.45185283 6
4.1889338 9.8025808 2.3543258 10
4.1855421 9.8602762 2.6092694 10
4.2732744 9.8691568 3.0268819 11.5
4.2095504 9.7756357 3.7363787 13
4.2773666 9.8018894 4.0074477 14
4.2778068 7.7758546 5.8521266 21
4.767736 -3.1906743 -0.023409616 3
4.4201336 -2.0693722 -0.040071055 3
4.6114359 0.45209599 -0.067673318 3
4.5023556 -2.0819852 0.27541518 5
4.4283566 -2.0815201 0.46691507 6
5.1199784 -5.1360555 -0.16180006 3
4.8125353 -2.0024543 -0.064989284 3
4.8461642 0.25606197 -0.065802284 3
4.8321939 -2.0370395 0.22097102 4.5
4.8895736 -1.9985597 0.28901619 5
4.8545346 2.231596 0.24535224 4.3333335
4.9007516 -2.0466328 0.51896095 6
4.8392849 2.2206595 0.49601454 6
4.9380822 7.8508091 6.1297956 21
5.4128256 1.3794044 -0.083140016 3
5.5970836 8.091713 9.5242863 26
5.9345384 -6.537652 -0.19452718 3
5.902822 -2.1167166 0.0068937158 3
5.6572051 7.7924461 9.3075371 26
6.1021514 5.529655 0.025015242 3
6.6272039 -2.0427969 0.00098761974 3
6.4679856 2.6760011 0.035401568 3
7.650794 -1.5016676 -0.073414698 3
7.9287829 2.3751438 0.33449292 4
9.1546612 8.2885838 8.6487789 22
9.2709723 8.3444443 8.2743244 21
10.016583 2.4933856 0.42470711 4
11.016876 -1.3980598 0.31470296 4
11.106073 -1.3848257 0.57451624 4.8000002
11.178102 -1.5509515 0.86954856 6
11.293777 -1.3068055 0.86779588 6
11.389605 -28.18993 21.04468 21
11.317185 -28.726139 28.282103 26
11.703382 -1.100632 -0.056999844 3
11.866534 -28.074072 21.058699 21
11.845178 -28.416697 28.341322 26
12.063009 -28.447733 28.318237 26
12.787196 -28.65584 21.483852 21
12.584445 -28.661905 21.65189 21
13.492133 -28.544081 21.583849 21
13.302415 -28.5662 21.802862 21
13.826531 -28.504509 22.05584 22
15.030702 10.787982 17.582884 26
14.975273 10.930142 17.634838 26
16.242319 10.683614 18.665319 26
31.773485 -24.237646 13.376163 13
31.809158 -24.477337 14.646849 14
31.815874 -24.555912 15.875748 15
32.172363 -23.854275 13.028689 13
32.799923 -23.850042 12.402743 12
32.537651 -23.688375 13.505933 13
32.628269 -23.964067 14.738583 14
33.076126 -23.70709 12.71695 12
32.856934 -23.321293 13.871437 13
33.416054 3.4165251 0.65888995 4
39.509521 -21.877398 14.030805 12
39.524887 -21.651453 14.7231 13
39.598068 -22.521351 15.474979 13
39.540379 -21.95607 15.905707 13
39.570557 -21.599884 16.194174 14
39.529182 -21.998663 17.625656 14
39.648304 -22.081436 13.688551 12
39.604 -21.218157 14.829665 13
39.668472 -22.822914 16.477596 14
