# .PCD v0.7 - Point Cloud Data file format
VERSION 0.7
FIELDS x y z intensity
SIZE 4 4 4 4
TYPE F F F F
COUNT 1 1 1 1
WIDTH 110
HEIGHT 1
VIEWPOINT 0 0 0 1 0 0 0
POINTS 110
DATA ascii
-32.688984 -24.401718 12.913175 13
-32.331596 -24.601461 8.9507456 10
-31.969236 -24.949533 7.3496828 9
-31.398432 -25.521908 12.417871 12
-30.508783 -26.344742 10.141673 11
-28.717445 -28.063177 12.324778 12
-11.457039 -34.571629 11.159883 12
-9.6393318 4.5302644 10.976355 27
-9.3059006 4.8265533 7.5481367 22
-8.9307337 6.578856 3.2970746 12
-8.3128576 5.1777868 10.566901 28
-7.6766944 5.3925872 4.554656 17
-6.6988249 5.7663093 9.4423838 28
-6.0538206 5.8660474 5.7362466 21
-6.0695343 5.8064404 6.0792422 22
-5.8579049 6.0037394 4.1137347 17
-5.7068148 -1.2007242 0.47578129 6
-5.6827064 -0.97923046 0.86457354 8
-5.7069216 -1.0932294 1.0506463 9
-4.7782707 6.2911391 7.8637724 27
-4.6956625 6.325048 8.201993 28
-4.4683938 8.4899359 1.5028977 8
-4.5132446 8.457243 1.905799 9
-4.304038 8.5464134 0.49031109 5
-4.3053761 8.5345135 2.8283265 12
-4.2827892 8.5179911 3.1134052 13
-4.0971951 6.5001879 7.6416144 27
-3.8344836 8.683321 0.94550818 6
-3.9493191 6.5384169 8.0240145 28
-3.7815244 8.6504898 1.6666862 9
-3.6104767 8.8209295 2.9100108 12
-3.4825699 6.6704612 4.9632378 21
-3.2909398 8.8268604 3.3158779 13
-3.3705747 8.7997713 3.5266874 14
-2.7938645 -3.0150206 -0.29910818 1
-2.6725698 -2.9943571 0.045263555 4
-2.7533512 -2.9731891 0.28993741 5
-2.7961533 6.8838959 5.190979 22
-2.5143743 0.74222195 0.10067533 5
-2.2223947 -2.8828342 0.27257374 6
-2.350786 7.0564399 4.8960342 21
-2.1697035 -2.8916869 0.58378726 8
-1.9835302 0.88949496 0.091721624 5
-1.9657567 0.89184022 0.21877617 6
-1.9688128 -3.5507843 0.65925813 8
-1.7454398 1.0594293 0.054891083 4.5
-1.6485381 1.8007598 0.18032624 6
-1.7294619 2.0925961 0.11089629 4.5
-1.6669192 1.1413943 0.20560454 6
-1.6409168 1.2936418 0.35161826 8.5
-1.5914799 1.5876367 0.10062565 5
-0.40565532 -2.6231089 0.051056102 3.5
-0.48976657 1.63387 0.10401099 5.5
-0.55063725 1.6536664 0.33915135 9
-0.34548879 -2.6130838 -0.090704694 2
-0.24530955 -2.559484 -0.14440984 1
-0.3583653 -2.6174831 0.14125367 5
-0.19002935 -2.5731516 0.31889385 7
-0.12283486 1.6167834 0.57854098 13.5
0.15890443 -2.4481568 -0.15766309 1
0.21372332 -2.4204471 -0.080685191 2
0.37790278 -2.4632823 0.16713361 5
0.29514876 -2.4405992 0.28622553 6.5
0.36245158 -2.3734381 0.38223675 8
0.22548953 -2.4120748 0.51831335 10
0.3694686 -2.3675013 0.42323714 9
0.24356674 -2.4047704 0.65230489 11.5
0.49346969 1.6709768 0.30236381 8.5
0.79131526 -2.1842651 0.95614982 15
0.93703347 -2.2024295 0.69906241 12
1.167169 -2.0997627 0.42708373 9
1.2329917 -2.0800846 0.69808489 12
1.7134632 2.9537568 0.27795586 6
1.795242 -1.8768815 0.58819956 10
1.705093 2.9778683 0.45992598 7
1.9937743 -1.8138558 0.1102512 4
1.8039137 2.6568482 0.24029469 5
1.8095918 2.675035 0.51528716 8
1.8341067 -1.8600007 0.73621422 12
1.9499367 2.5962844 0.60448945 9
2.188746 2.444304 0.15980291 5
2.0525157 2.4981911 0.24765211 6
2.1886268 2.431447 0.42981058 7
2.326128 -1.6752418 0.40638959 7.5
2.5749583 -1.6442599 0.022416515 3
2.5458047 -1.5702239 0.10450175 4
2.5400026 -1.5873095 0.32148251 6
3.0790226 -1.4674765 0.23360889 5
3.1036437 -1.3754374 0.3557114 6
3.1386428 -1.3745064 0.56571221 8
3.2332227 -1.3294706 0.47276103 7
3.2520964 8.7129669 9.7559662 28
3.4335544 8.893014 9.4290609 27
4.1884127 3.3807683 0.42567256 6
4.172543 3.3158207 0.68868375 7
4.3409948 2.983501 0.38583681 5
4.2961836 -29.657539 11.353589 14
4.4074969 -29.586514 12.132602 15
4.4744978 -29.646891 14.522507 17
4.6365967 2.8145335 0.5339669 6
4.922482 -29.173626 13.212762 16
6.1485019 -1.1617393 0.4219349 5
6.2376781 -0.52080011 0.62455785 6
10.302851 -27.865808 17.668121 19
11.46638 4.9660873 0.89472067 5
11.510371 4.9561405 1.1207256 6
15.166031 -22.872576 16.473219 20
15.375824 -22.90061 16.249174 19
37.722973 -15.117861 17.630356 16
42.759731 21.56822 17.2185 14
