# .PCD v0.7 - Point Cloud Data file format
VERSION 0.7
FIELDS x y z intensity
SIZE 4 4 4 4
TYPE F F F F
COUNT 1 1 1 1
WIDTH 1080
HEIGHT 1
VIEWPOINT 0 0 0 1 0 0 0
POINTS 1080
DATA ascii
-1.1950001 -5.6040001 -0.30599999 0
-1.581 -5.5029998 -0.317 0
-1.1809609 -5.5433307 -0.3052837 0
-1.5629125 -5.4445515 -0.31617785 0
-1.160743 -5.4559608 -0.30425218 0
-1.5233985 -5.3168659 -0.31438175 0
-1.1405251 -5.3685904 -0.30322066 0
-1.4970558 -5.2317424 -0.31318435 0
-1.1203072 -5.2812204 -0.30218914 0
-1.4707131 -5.1466188 -0.31198695 0
-1.1000893 -5.1938505 -0.30115762 0
-1.0798715 -5.1064801 -0.30012611 0
-1.4443705 -5.0614948 -0.31078956 0
-1.4180279 -4.9763713 -0.30959219 0
-1.3785139 -4.8486857 -0.30779609 0
-1.339 -4.7210002 -0.30599999 0
-2.2349999 -4.0029998 -0.30899999 0
-4.8823514 -3.417891 -0.31544238 0
-4.8070002 -3.3699999 -0.331 0
-1.0596536 -5.0191102 -0.29909456 0
-1.0394357 -4.9317403 -0.29806304 0
-1.0192178 -4.8443699 -0.29703152 0
-0.99900001 -4.757 -0.296 0
-2.5709515 -4.6193662 -0.20976231 0
-2.5289576 -4.5423203 -0.22216702 0
-2.4869635 -4.4652743 -0.23457173 0
-2.4239726 -4.3497057 -0.25317878 0
-2.3609817 -4.2341371 -0.27178586 0
-2.3189878 -4.1570911 -0.28419057 0
-2.2769938 -4.0800457 -0.29659528 0
0.61011976 -4.0557289 -0.2093298 0
0.59332407 -3.9491854 -0.21125297 0
0.57940853 -3.8609123 -0.21284635 0
-5.4098105 -3.7531295 -0.20653912 0
-5.3344593 -3.7052383 -0.22209674 0
0.56549305 -3.772639 -0.21443973 0
1.776 -3.7219999 -0.219 0
-5.2591081 -3.6573472 -0.23765436 0
-5.1837568 -3.6094558 -0.25321198 0
0.55157751 -3.6843657 -0.21603312 0
1.740937 -3.6483154 -0.21804532 0
-5.1084051 -3.5615647 -0.26876956 0
-5.0330539 -3.5136735 -0.28432718 0
0.53070426 -3.5519562 -0.21842319 0
1.6826837 -3.5258973 -0.21645921 0
-4.9577026 -3.4657824 -0.2998848 0
0.50983101 -3.4195464 -0.22081324 0
1.6438483 -3.4442849 -0.21540181 0
0.44370928 -3.3401039 -0.22162855 0
0.57340646 -3.3161421 -0.20569868 0
1.6050128 -3.3626728 -0.21434441 0
1.791 -3.3399999 -0.20900001 0
0.48199999 -3.243 -0.22400001 0
0.55820322 -3.227571 -0.21334934 0
1.5661774 -3.2810607 -0.21328701 0
1.743542 -3.2517128 -0.20869869 0
-3.152 -3.1099999 -0.22 0
0.54299998 -3.1389999 -0.221 0
1.4885064 -3.1178365 -0.21117221 0
1.5273418 -3.1994486 -0.21222961 0
1.6818014 -3.1368561 -0.20830669 0
-3.0956147 -3.0546143 -0.23219682 0
1.4496709 -3.0362241 -0.21011481 0
1.6406412 -3.0602849 -0.20804535 0
1.7995448 -3.0081267 -0.20283598 0
1.823 -3.0469999 -0.20299999 0
-3.039211 -2.9992108 -0.24439761 0
-2.9828072 -2.9438071 -0.25659841 0
1.4108355 -2.954612 -0.20905741 0
1.5789007 -2.9454279 -0.20765334 0
1.7557873 -2.9356055 -0.20252998 0
-2.9264035 -2.8884034 -0.26879919 0
-2.8699999 -2.8329999 -0.28099999 0
1.372 -2.8729999 -0.208 0
1.5171603 -2.8305712 -0.20726134 0
1.7120298 -2.8630843 -0.20222399 0
1.476 -2.7539999 -0.207 0
1.6463935 -2.7543027 -0.201765 0
1.5807574 -2.6455212 -0.201306 0
1.5369999 -2.573 -0.20100001 0
-1.55441 -2.3324399 -0.25152749 0
-1.5517464 -2.2492549 -0.24770363 0
-1.4910001 -2.2279999 -0.245 0
-1.5158861 -2.1585498 -0.24105559 0
-1.4559715 -2.0688875 -0.23351391 0
-2.503 0.99999994 -0.20900001 0
-2.428 1.11 -0.207 0
-2.9000001 -4.7449999 -0.15700001 0
-2.8518903 -4.6693568 -0.14700569 0
-2.6040001 -4.6799998 -0.2 0
-2.8037803 -4.5937133 -0.13701138 0
-2.7556705 -4.5180702 -0.12701708 0
-2.7075605 -4.4424272 -0.11702277 0
-2.6594508 -4.3667841 -0.10702845 0
0.69651616 -4.0333552 -0.14374673 0
0.67982906 -3.9361393 -0.1521441 0
-5.6110001 -3.881 -0.16500001 0
-5.5605135 -3.848912 -0.17542391 0
-5.4851618 -3.8010209 -0.19098152 0
0.66462582 -3.8475683 -0.15979475 0
0.64942259 -3.7589972 -0.16744541 0
0.63421935 -3.6704261 -0.17509606 0
0.61901611 -3.5818551 -0.18274672 0
0.5886097 -3.4047132 -0.19804804 0
0.60381287 -3.4932842 -0.19039738 0
0.40142471 -3.2140765 -0.19795798 0
0.39063704 -3.127115 -0.18243697 0
0.37984937 -3.0401533 -0.16691595 0
3.487 -3.0309999 -0.102 0
0.36906174 -2.9531915 -0.15139495 0
3.3642793 -2.9217095 -0.11425529 0
3.4318657 -2.9818995 -0.10750587 0
0.35827407 -2.86623 -0.13587394 0
2.641 -2.8310001 -0.193 0
3.2628994 -2.8314247 -0.1243794 0
0.34748644 -2.7792683 -0.12035292 0
2.5488231 -2.7339263 -0.17139605 0
2.6410811 -2.7477672 -0.17346646 0
3.1615195 -2.7411399 -0.13450353 0
0.33669877 -2.6923065 -0.10483192 0
2.4566462 -2.6368525 -0.14979208 0
2.5513244 -2.6510689 -0.15086585 0
3.0601397 -2.6508551 -0.14462763 0
2.3644693 -2.5397787 -0.1281881 0
2.4615676 -2.5543706 -0.12826525 0
2.8911731 -2.50038 -0.16150117 0
2.9587598 -2.56057 -0.15475176 0
2.2722924 -2.4427049 -0.10658415 0
2.3718109 -2.4576721 -0.10566463 0
2.585 -2.4089999 -0.182 0
2.8235867 -2.4401901 -0.16825059 0
2.5234449 -2.3508539 -0.1819053 0
2.756 -2.3800001 -0.175 0
2.3926792 -2.2273307 -0.18170412 0
2.4580622 -2.2890923 -0.1818047 0
2.631 -2.234 -0.182 0
1.502 -2.112 -0.19499999 0
2.2619138 -2.1038077 -0.18150294 0
2.3272965 -2.1655693 -0.18160354 0
2.4922857 -2.1174073 -0.18163735 0
2.561873 -2.1758971 -0.18181928 0
2.6110001 -2.1129999 -0.17900001 0
1.4568174 -2.0490875 -0.19399911 0
1.502 -2.0109999 -0.192 0
2.1965311 -2.0420461 -0.18140236 0
2.353111 -2.000428 -0.18127349 0
2.4226983 -2.0589175 -0.18145542 0
2.5444736 -2.0579014 -0.17900001 0
2.636116 -2.032831 -0.18087576 0
1.3829581 -1.9462454 -0.19236299 0
1.4552414 -1.9489702 -0.19121282 0
1.512 -1.927 -0.19 0
2.0657654 -1.9185231 -0.18120117 0
2.1311481 -1.9802846 -0.18130176 0
2.2835238 -1.9419382 -0.18109156 0
2.3722756 -1.9152834 -0.17900001 0
2.4545703 -1.9386301 -0.17950061 0
2.5401092 -1.9597956 -0.18037638 0
2.6544795 -1.9505017 -0.18083745 0
1.284479 -1.8091228 -0.19018149 0
1.3444318 -1.8469331 -0.19039997 0
1.4496424 -1.8484248 -0.18908119 0
1.518 -1.8430001 -0.18799999 0
2.0003827 -1.8567615 -0.18110058 0
2.1443491 -1.8249588 -0.18072772 0
2.224227 -1.8423188 -0.17995483 0
2.3496294 -1.8541497 -0.17931303 0
2.4821675 -1.8256028 -0.17973992 0
2.5555634 -1.8788033 -0.1802074 0
2.6648736 -1.8643967 -0.17983894 0
2.7079999 -1.801 -0.18099999 0
1.2352395 -1.7405614 -0.18909074 0
1.3398446 -1.7517471 -0.18839818 0
1.438279 -1.7470038 -0.18689659 0
1.9349999 -1.795 -0.18099999 0
2.0399683 -1.7372241 -0.18045482 0
2.1656377 -1.7441417 -0.17900001 0
2.251616 -1.7403308 -0.17887576 0
2.3295574 -1.7571995 -0.17902792 0
2.4517846 -1.7596186 -0.17890736 0
2.5799363 -1.7610387 -0.17946658 0
2.6662223 -1.7735147 -0.18058117 0
1.186 -1.6720001 -0.18799999 0
1.244082 -1.6416541 -0.18718211 0
1.3476645 -1.6647142 -0.18634273 0
1.4797347 -1.6328583 -0.18379682 0
1.5425091 -1.661419 -0.18398097 0
1.9377323 -1.6390778 -0.1793852 0
2.0623188 -1.6585708 -0.17900001 0
2.1584821 -1.6429548 -0.17816533 0
2.2619796 -1.6660018 -0.17833744 0
2.3458483 -1.6438761 -0.17740673 0
2.4298394 -1.6598079 -0.17814067 0
2.5149779 -1.6740118 -0.17906493 0
1.2511599 -1.5590005 -0.18536207 0
1.3713673 -1.5149292 -0.18339841 0
1.4507723 -1.5512296 -0.18323219 0
1.5422329 -1.5463834 -0.18269873 0
1.7960297 -1.5096898 -0.17875728 0
1.8646598 -1.5796084 -0.17943275 0
1.9610616 -1.5469331 -0.17818758 0
2.0385191 -1.5410665 -0.17734264 0
2.1560435 -1.5502592 -0.1768368 0
2.2797425 -1.5585771 -0.17681476 0
2.3637335 -1.5745089 -0.17754871 0
2.4692917 -1.5342767 -0.10130328 0
1.229 -1.495 -0.184 0
1.3484156 -1.454453 -0.18268517 0
1.4458995 -1.4507169 -0.18136539 0
1.5517329 -1.4608825 -0.18055005 0
1.7287397 -1.4511627 -0.1786491 0
1.891 -1.466 -0.177 0
1.9683959 -1.4532003 -0.17646749 0
2.0479496 -1.4379587 -0.17513557 0
2.1296453 -1.4573462 -0.17548886 0
2.2124889 -1.475006 -0.17603247 0
2.3696737 -1.441085 -0.11430656 0
2.4598043 -1.462528 -0.10210399 0
2.5559986 -1.4524858 -0.16996118 0
2.6266303 -1.4413407 -0.1584813 0
2.7272391 -1.4570016 -0.15717891 0
1.2655001 -1.367 -0.182 0
1.348241 -1.3755627 -0.18065031 0
1.4456087 -1.3616694 -0.17978334 0
1.5636517 -1.3627349 -0.17901328 0
1.6614498 -1.3926356 -0.17854092 0
1.8970001 -1.3675001 -0.175 0
1.9795485 -1.3561155 -0.17416295 0
2.0765924 -1.3387196 -0.16351572 0
2.1674106 -1.3484043 -0.14227283 0
2.2503691 -1.339735 -0.14121716 0
2.3551431 -1.3485124 -0.13747525 0
2.4652755 -1.3762032 -0.14431077 0
2.5557823 -1.3654025 -0.15968624 0
2.6441298 -1.3745649 -0.15856273 0
1.2809999 -1.257 -0.17900001 0
1.3514545 -1.2641141 -0.17892084 0
1.4505153 -1.2640362 -0.17855112 0
1.5618653 -1.2557448 -0.17744152 0
1.9368342 -1.2235502 -0.1695306 0
2.0568812 -1.2437328 -0.15512948 0
2.1531725 -1.2489002 -0.14846301 0
2.2317288 -1.2448305 -0.15517758 0
2.3171484 -1.2567458 -0.14943032 0
2.4421492 -1.2735746 -0.16146198 0
3.0755985 -1.2118063 -0.15856388 0
3.148 -1.24 -0.15800001 0
1.3457606 -1.1727296 -0.17808354 0
1.4523633 -1.1468265 -0.177 0
1.567077 -1.166238 -0.17583333 0
1.7982886 -1.1445454 -0.17156436 0
1.8772416 -1.1498983 -0.17116183 0
1.9415624 -1.1427803 -0.17052883 0
2.0479474 -1.1551913 -0.16192921 0
2.1577935 -1.152651 -0.16550733 0
2.2401688 -1.1725844 -0.16436121 0
2.8314848 -1.1167464 -0.16046508 0
2.9535418 -1.1642764 -0.15951449 0
1.3472955 -1.0652282 -0.177 0
1.443318 -1.0423704 -0.17529818 0
1.561149 -1.0580043 -0.17400464 0
1.6505258 -1.054697 -0.17237623 0
1.7332324 -1.0401419 -0.17125659 0
1.8451545 -1.0495781 -0.16988598 0
1.9361329 -1.0553446 -0.16896351 0
2.0785844 -1.0917922 -0.1666806 0
2.5873713 -1.0216867 -0.16236627 0
2.6687424 -1.0533732 -0.16173254 0
2.7501137 -1.0850599 -0.16109881 0
1.3494999 -0.9425 -0.175 0
1.4224931 -0.94157887 -0.17416976 0
1.5444486 -0.94663715 -0.17270091 0
1.6532791 -0.94524515 -0.17101613 0
1.7426116 -0.9314974 -0.16971764 0
1.8527374 -0.96191263 -0.16854437 0
1.918 -0.92400002 -0.16599999 0
2.506 -0.99000001 -0.163 0
1.355 -0.875 -0.17399999 0
1.4380447 -0.8374753 -0.1727379 0
1.5500691 -0.85645449 -0.17103371 0
1.6499821 -0.85495943 -0.16959126 0
1.7494292 -0.84653383 -0.1676366 0
1.8592455 -0.84338474 -0.16616255 0
1.928 -0.81999999 -0.16500001 0
2.7449255 -0.82454324 -0.15227315 0
1.3625 -0.74849999 -0.1715 0
1.4366828 -0.74665278 -0.16986388 0
1.5123658 -0.78830564 -0.16972776 0
1.6467309 -0.75074613 -0.16854627 0
1.7572732 -0.72537154 -0.16639093 0
1.8519694 -0.73764819 -0.16496156 0
1.9229571 -0.74835402 -0.16434516 0
2.3727105 -0.71385181 -0.15632777 0
2.4594955 -0.7396605 -0.15538239 0
2.5462806 -0.76546913 -0.15443702 0
2.6305594 -0.75711322 -0.15293235 0
2.7341409 -0.75186038 -0.15120724 0
1.5583112 -0.62387931 -0.16629839 0
1.6543974 -0.66074878 -0.16673338 0
1.7503988 -0.62743825 -0.16411346 0
1.8273866 -0.65451765 -0.16363296 0
1.9169912 -0.64421225 -0.16233802 0
2.0255702 -0.61061728 -0.16010925 0
2.1678028 -0.63424963 -0.15818274 0
2.2825332 -0.65795183 -0.15674019 0
2.3663688 -0.65163243 -0.15524869 0
2.4519072 -0.64389205 -0.15428868 0
2.5393939 -0.66666234 -0.15332994 0
2.6257081 -0.65591663 -0.15236931 0
2.7211771 -0.64646006 -0.14961639 0
1.358 -0.546 -0.167 0
1.4381245 -0.57715172 -0.16671935 0
1.5736024 -0.54439944 -0.16464536 0
1.668797 -0.55463296 -0.16358823 0
1.7423756 -0.53307122 -0.16171156 0
1.8512925 -0.54940498 -0.16107707 0
1.9345067 -0.55879033 -0.16054803 0
2.0427277 -0.52846223 -0.15876268 0
2.1458328 -0.56369513 -0.15764424 0
2.2719269 -0.53996003 -0.15536639 0
2.3597126 -0.56075203 -0.15423965 0
2.4447784 -0.55070853 -0.15193865 0
2.5289874 -0.5381819 -0.15050726 0
2.6443241 -0.55167806 -0.14883877 0
1.35 -0.46900001 -0.16500001 0
1.4261229 -0.45713645 -0.1636382 0
1.5589396 -0.44325557 -0.1626002 0
1.6624215 -0.46768576 -0.16221283 0
1.7623068 -0.45409048 -0.16098194 0
1.8641046 -0.43412578 -0.15905333 0
1.9207854 -0.456792 -0.15987328 0
2.061214 -0.44654748 -0.15730549 0
2.1769938 -0.46284091 -0.15550363 0
2.2608571 -0.4522748 -0.15398148 0
2.3426061 -0.44019654 -0.15227129 0
2.4309568 -0.45706263 -0.15106651 0
2.5132446 -0.44201773 -0.14935309 0
2.6532583 -0.44563165 -0.14704907 0
1.339 -0.39399999 -0.163 0
1.5799999 -0.34033334 -0.16233332 0
1.6535574 -0.35749832 -0.16119182 0
1.7491075 -0.33614257 -0.15918657 0
1.8408291 -0.34288013 -0.15814151 0
1.9621919 -0.37543976 -0.15765905 0
2.062109 -0.33610365 -0.15488356 0
2.1581192 -0.33741355 -0.15390418 0
2.2464325 -0.35162535 -0.15283179 0
2.3201265 -0.34157562 -0.15188473 0
2.4525771 -0.3423225 -0.14851032 0
2.5859926 -0.36158702 -0.14661238 0
2.6570001 -0.34 -0.145 0
1.5655 -0.23999999 -0.16049999 0
1.6461489 -0.25342754 -0.15959847 0
1.7581576 -0.24143831 -0.15806834 0
1.8538718 -0.25009626 -0.15651269 0
1.9586437 -0.27486724 -0.1559207 0
2.0681179 -0.27844018 -0.15459308 0
2.1400471 -0.27130982 -0.15269804 0
2.229059 -0.28313726 -0.15137255 0
2.3180707 -0.29496473 -0.15004706 0
2.5574298 -0.20611492 -0.14491715 0
2.6240001 -0.212 -0.14399999 0
1.574 -0.145 -0.162 0
1.6532261 -0.15404332 -0.16012678 0
1.7457821 -0.1276027 -0.15695032 0
1.8338636 -0.13510486 -0.15555978 0
1.9476002 -0.14224254 -0.15386336 0
2.0534177 -0.15366057 -0.15200382 0
2.1609681 -0.16561127 -0.15035647 0
2.2631433 -0.17170498 -0.14880572 0
2.3786676 -0.1903116 -0.14738001 0
2.4680486 -0.19821325 -0.14614858 0
1.6502987 -0.0028900169 -0.15494846 0
1.717 -0.027999999 -0.15450001 0
1.8124447 -0.052870702 -0.15364003 0
1.9466115 -0.058676753 -0.15160006 0
2.0807784 -0.064482808 -0.14956009 0
2.170223 -0.068353511 -0.14820012 0
2.2596676 -0.072224215 -0.14684014 0
2.3491123 -0.076094911 -0.14548017 0
2.4385567 -0.079965614 -0.14412019 0
2.5530007 -0.084918156 -0.14238012 0
1.5499772 0.042004891 -0.15636703 0
1.6857597 0.078964561 -0.15399387 0
1.7733905 0.081183314 -0.15241876 0
1.8610214 0.083402075 -0.15084362 0
1.9486523 0.085620835 -0.14926851 0
2.036283 0.087839589 -0.14769338 0
2.1276093 0.092372239 -0.14607884 0
2.2280126 0.085837714 -0.14413524 0
2.3170147 0.087810673 -0.1424911 0
2.4505179 0.090770096 -0.14002492 0
2.506 0.092 -0.139 0
1.6742557 0.16332428 -0.15260142 0
1.7200524 0.14734688 -0.15000415 0
1.6652296 0.24826269 -0.15014331 0
1.7518679 0.28730714 -0.14852513 0
1.8512768 0.29625374 -0.14474951 0
-1.7042584 0.38931143 -0.19557497 0
-1.6201292 0.36765572 -0.19478749 0
-1.536 0.34599999 -0.19400001 0
1.58 0.38100001 -0.15099999 0
1.6357695 0.33911186 -0.14858042 0
1.8639656 0.30779451 -0.14720069 0
1.9404347 0.31438667 -0.1443626 0
2.0228319 0.32883278 -0.14316672 0
2.154511 0.33869779 -0.13906112 0
2.2844687 0.35688812 -0.13662325 0
2.3710001 0.36899999 -0.13500001 0
-2.1249046 0.49759012 -0.19951238 0
-2.0407755 0.47593439 -0.1987249 0
-1.9566462 0.45427865 -0.19793741 0
-1.872517 0.43262291 -0.19714993 0
-1.7883878 0.41096717 -0.19636245 0
1.575 0.45550001 -0.148 0
1.6551573 0.47664058 -0.14641646 0
1.7051926 0.4953863 -0.14702417 0
-2.177 0.51099998 -0.2 0
1.337 0.588 -0.15099999 0
1.4910001 0.55699998 -0.148 0
1.565208 0.58195293 -0.1466981 0
1.7733629 0.50787771 -0.14408892 0
1.8535204 0.52901828 -0.14250536 0
1.9358386 0.55513662 -0.14144939 0
2.0180926 0.56643987 -0.13760398 0
2.1023111 0.58852786 -0.13592479 0
-1.4597741 0.68860805 -0.17848547 0
-1.3429435 0.63190198 -0.17587137 0
-1.2869999 0.68300003 -0.176 0
1.289 0.68300003 -0.15000001 0
1.3577423 0.63750398 -0.14920318 0
1.4537475 0.64967734 -0.14672938 0
1.5409009 0.67538768 -0.14508334 0
1.6210911 0.6439631 -0.14511967 0
1.7507279 0.64433539 -0.14344338 0
1.8329999 0.67199999 -0.142 0
2.0639606 0.60238898 -0.13802879 0
2.1634853 0.6195997 -0.13489437 0
2.2531078 0.65425009 -0.13220984 0
2.3110001 0.68699998 -0.13 0
-1.6155481 0.76421613 -0.18197095 0
-1.5376612 0.72641212 -0.18022822 0
-1.4377228 0.76490223 -0.17884383 0
-1.3485258 0.75844824 -0.17731294 0
-1.262 0.74900001 -0.176 0
1.2589999 0.74600005 -0.14933334 0
1.3625648 0.76467127 -0.14498036 0
1.433466 0.74298477 -0.14487167 0
1.5267243 0.74697566 -0.14334215 0
1.6458508 0.73437071 -0.14252126 0
1.751997 0.75344568 -0.14067477 0
1.8516546 0.78164011 -0.13881041 0
1.9441676 0.71777493 -0.13843313 0
2.0553353 0.7635498 -0.13486624 0
2.1294472 0.79406643 -0.13248833 0
-1.8671046 0.88631409 -0.18759958 0
-1.7713223 0.8398242 -0.18545642 0
-1.6786211 0.84488785 -0.18341163 0
-1.5507649 0.82632887 -0.18097669 0
-1.4437261 0.85886335 -0.17900996 0
-1.3029196 0.86261302 -0.17679816 0
-1.233 0.81599998 -0.176 0
-1.198 0.87900001 -0.175 0
1.2702343 0.86160702 -0.14417164 0
1.3607239 0.83972645 -0.14469358 0
1.4530236 0.84371746 -0.14377788 0
1.5472803 0.84218723 -0.14244021 0
1.6540592 0.85352063 -0.14065835 0
1.7551471 0.84033489 -0.13813753 0
1.847352 0.82301438 -0.13728414 0
1.9540565 0.85140866 -0.13559026 0
2.0696187 0.88256037 -0.13224162 0
2.2052794 0.82529151 -0.1300552 0
3.349 0.81900001 -0.123 0
3.4366679 0.83913857 -0.12069559 0
3.5243359 0.85927719 -0.11839117 0
3.6558378 0.889485 -0.11493455 0
-1.8157649 0.97032881 -0.1859767 0
-1.7391684 0.92870659 -0.18453148 0
-1.625452 0.96872675 -0.1820199 0
-1.5527617 0.92478138 -0.18081594 0
-1.4427587 0.9558391 -0.1783945 0
-1.3526478 0.9433248 -0.17696545 0
-1.2445638 0.95938051 -0.17501262 0
-1.16 0.93900001 -0.17399999 0
1.1525993 0.9591772 -0.14657046 0
1.2299623 0.95741504 -0.14280584 0
1.36763 0.94428635 -0.14101213 0
1.4582602 0.95043105 -0.14159037 0
1.5524241 0.95724773 -0.14025696 0
1.6506677 0.94105297 -0.13939275 0
1.7539762 0.97645736 -0.13659672 0
1.8584714 0.94810104 -0.13455871 0
2.0494995 0.91412812 -0.13282923 0
2.1226394 0.93515807 -0.13063109 0
3.7873397 0.91969293 -0.11147793 0
3.8750076 0.9398315 -0.10917351 0
3.9626758 0.95997006 -0.10686909 0
4.0503435 0.98010862 -0.10456468 0
-2.661808 1.0679855 -0.19036305 0
-2.5824039 1.0339928 -0.19968152 0
-1.745 1.041 -0.184 0
-1.6753299 1.0541751 -0.18200645 0
-1.5476379 1.0257587 -0.17959175 0
-1.4669132 1.0758473 -0.17766912 0
-1.3756915 1.0601413 -0.17603788 0
-1.2877988 1.0420983 -0.17471595 0
-1.1544923 1.0308332 -0.17399999 0
-1.0621777 1.0678389 -0.17124796 0
-0.96350002 1.039 -0.16850001 0
1.067 1.0725 -0.14649999 0
1.1474158 1.0577677 -0.1446263 0
1.2383406 1.0421468 -0.1425527 0
1.3427398 1.0554502 -0.14086087 0
1.4643338 1.0501722 -0.13864197 0
1.5520946 1.0513365 -0.13817625 0
1.6548617 1.0487735 -0.13737585 0
1.7576356 1.0421681 -0.13660696 0
1.8511648 1.0441417 -0.13468808 0
1.9414753 1.0413135 -0.13245489 0
2.0123332 1.069 -0.131 0
4.1380115 1.0002472 -0.10226027 0
-2.9000199 1.1699638 -0.16240759 0
-2.8206158 1.1359711 -0.17172608 0
-2.7412119 1.1019783 -0.18104456 0
-2.5454674 1.1680883 -0.19538233 0
-2.29 1.1849999 -0.199 0
-1.6359999 1.141 -0.18000001 0
-1.5341415 1.125059 -0.1783364 0
-1.4475474 1.170971 -0.1756109 0
-1.3069538 1.1649992 -0.17399999 0
-1.2459692 1.1113328 -0.17399999 0
-1.1493814 1.154094 -0.17147064 0
-1.0618043 1.1657749 -0.17082424 0
-0.9931556 1.153964 -0.16916966 0
0.99199998 1.179 -0.146 0
1.055137 1.1543115 -0.14428185 0
1.1382154 1.1464024 -0.14261955 0
1.2514715 1.1534586 -0.14037238 0
1.3504547 1.1499286 -0.13857016 0
1.4293444 1.156518 -0.13833304 0
1.5575305 1.1457051 -0.13602182 0
1.6610116 1.1576049 -0.13533652 0
1.7574583 1.1527735 -0.1344095 0
1.8445095 1.1560028 -0.13237944 0
1.9501024 1.148599 -0.13174914 0
2.0452762 1.1383829 -0.13020349 0
2.1365492 1.1587276 -0.12839906 0
2.2048237 1.1970913 -0.12709859 0
-3.108 1.2589999 -0.138 0
-3.0588279 1.2379494 -0.14377064 0
-2.9794238 1.2039566 -0.15308911 0
-2.7412467 1.2649021 -0.17601956 0
-2.662935 1.2261766 -0.18376467 0
-2.4444036 1.2654037 -0.17125002 0
-2.3672018 1.2252018 -0.18512501 0
-1.6286156 1.2556792 -0.16406369 0
-1.5447917 1.2345949 -0.17328542 0
-1.4389615 1.2811661 -0.17399999 0
-1.3403015 1.2519906 -0.17310195 0
-1.2255139 1.2593677 -0.17158957 0
-1.1282575 1.2458607 -0.17030302 0
-1.0665448 1.2685301 -0.1696769 0
-0.94843292 1.2483845 -0.16651115 0
-0.8046819 1.2925471 -0.16112894 0
-0.73750001 1.2539999 -0.162 0
0.85049999 1.2909999 -0.13949999 0
0.917 1.249 -0.139 0
1.0565896 1.2602195 -0.14243084 0
1.1659023 1.2514547 -0.14025673 0
1.2725781 1.2522755 -0.13779034 0
1.3512539 1.2410016 -0.13679226 0
1.4563519 1.257413 -0.13443832 0
1.5623285 1.255156 -0.13502665 0
1.6573654 1.2733141 -0.13396674 0
1.7320025 1.2150335 -0.13285181 0
1.8524559 1.2616208 -0.13152085 0
1.9364591 1.2540662 -0.12947097 0
2.0766497 1.2204099 -0.12855901 0
2.1514249 1.265645 -0.12673551 0
2.2585809 1.2727661 -0.12531 0
2.3150001 1.2589999 -0.125 0
-2.9761817 1.3810788 -0.15278423 0
-2.8587141 1.3229904 -0.16440189 0
-2.6760094 1.3860096 -0.12962504 0
-2.5602067 1.3257066 -0.15043753 0
-1.7386737 1.3755889 -0.13680802 0
-1.6722825 1.3220593 -0.15020534 0
-1.3539283 1.3564279 -0.17199513 0
-1.251165 1.3469678 -0.17078416 0
-1.153667 1.3353865 -0.16935557 0
-1.0217315 1.342538 -0.1680446 0
-0.82468188 1.3640471 -0.16312894 0
-0.75255436 1.3478179 -0.16110612 0
-0.63250005 1.357 -0.161 0
0.35600001 1.3940001 -0.14399999 0
0.41299999 1.346 -0.14399999 0
0.88875854 1.3573053 -0.14075567 0
0.93806362 1.3399358 -0.13760631 0
1.0560043 1.3625758 -0.13875109 0
1.1513133 1.3542676 -0.13891223 0
1.2605098 1.3383821 -0.13658641 0
1.3677359 1.3350903 -0.134633 0
1.446501 1.3568717 -0.13218784 0
1.549021 1.3527746 -0.13025697 0
1.6411663 1.3465061 -0.13152608 0
1.7488922 1.3450564 -0.13141207 0
1.8565295 1.3373349 -0.13040188 0
1.9629149 1.3469759 -0.12864028 0
2.0474546 1.3592734 -0.12646066 0
2.1518261 1.3461846 -0.12510657 0
3.0969999 1.342 -0.117 0
3.1785674 1.3786049 -0.11530729 0
-3.0597467 1.4224021 -0.14451955 0
-2.8304133 1.4664134 -0.10187504 0
-2.7532113 1.4262115 -0.11575004 0
-1.8571249 1.4596714 -0.11409383 0
-1.7816675 1.4445202 -0.12456664 0
-1.3230096 1.423277 -0.16713126 0
-1.242 1.4463333 -0.16933334 0
-1.1576244 1.4420782 -0.16961378 0
-1.0705973 1.4053069 -0.16906689 0
-0.9327274 1.4891884 -0.15851578 0
-0.85120773 1.4611955 -0.16227928 0
-0.76736212 1.4292208 -0.16226237 0
-0.67414349 1.4458447 -0.16200221 0
-0.48199999 1.469 -0.15800001 0
0.29899999 1.452 -0.145 0
0.37357697 1.4700205 -0.14334086 0
0.44454443 1.4580834 -0.14299326 0
0.62900001 1.4960001 -0.14300001 0
0.76099998 1.449 -0.14399999 0
0.95386094 1.444976 -0.13899946 0
1.0781966 1.4610122 -0.13630778 0
1.1708598 1.435025 -0.1377425 0
1.2388948 1.4461927 -0.13792554 0
1.348094 1.4405991 -0.13458705 0
1.4494226 1.4572442 -0.13044274 0
1.5502288 1.4492695 -0.12791787 0
1.6530184 1.4496499 -0.12695304 0
1.7479656 1.4390669 -0.12817788 0
1.836037 1.445033 -0.12805708 0
1.9458528 1.4553897 -0.12758422 0
2.0567791 1.4242409 -0.12680657 0
2.137691 1.4670517 -0.12214579 0
3.2601349 1.4152098 -0.11361458 0
3.3417025 1.4518145 -0.11192187 0
3.4232697 1.4884194 -0.11022916 0
-1.4400725 1.5485778 -0.1419844 0
-1.3359298 1.5881969 -0.14494079 0
-1.2824649 1.5210985 -0.1569704 0
-1.163 1.524 -0.171 0
-0.93383425 1.549647 -0.16019024 0
-0.87362415 1.5633847 -0.16022179 0
-0.73233193 1.5665865 -0.16181771 0
-0.6464417 1.5270209 -0.1617192 0
-0.53311342 1.5689758 -0.15978622 0
-0.42763641 1.5377758 -0.15587622 0
-0.34900001 1.5443333 -0.15433334 0
-0.28 1.581 -0.153 0
0.15200001 1.5669999 -0.14649999 0
0.24135312 1.5414757 -0.14566544 0
0.34690559 1.5473791 -0.14422724 0
0.46654445 1.5780834 -0.14299326 0
0.67766351 1.5371393 -0.14189443 0
0.77625656 1.5608492 -0.14164382 0
1.0251999 1.5451566 -0.13744819 0
1.1319289 1.5316831 -0.13541037 0
1.2750179 1.5232484 -0.13554436 0
1.3751833 1.5401969 -0.13335836 0
1.464148 1.5631607 -0.13135403 0
1.5558165 1.5385929 -0.12633853 0
1.6358792 1.5550356 -0.125687 0
1.737 1.5135 -0.124 0
1.853 1.505 -0.126 0
2.2498443 1.5437882 -0.11835113 0
2.3246131 1.5949458 -0.11582136 0
3.5456209 1.5433267 -0.1076901 0
3.6679723 1.5982339 -0.10515103 0
-1.5480582 1.6641622 -0.11878751 0
-1.3893946 1.6552954 -0.13291119 0
-0.90148264 1.6418242 -0.16336134 0
-0.82097751 1.6345267 -0.16007483 0
-0.74708772 1.6556985 -0.16237167 0
-0.66950005 1.6507766 -0.1607655 0
-0.54330462 1.6635071 -0.15906475 0
-0.4455274 1.6446488 -0.15690097 0
-0.35553798 1.6536585 -0.1544468 0
-0.24267438 1.6473013 -0.15298724 0
-0.153 1.6489999 -0.1505 0
0.098999999 1.612 -0.148 0
0.15980326 1.6703653 -0.1456584 0
0.26720625 1.6669512 -0.14533086 0
0.36750001 1.6294999 -0.14449999 0
0.45389777 1.6592605 -0.1419 0
0.53224999 1.6562499 -0.14125001 0
0.728194 1.6560003 -0.13986835 0
0.85051966 1.6467193 -0.14004405 0
1.075 1.692 -0.13699999 0
1.1463182 1.6276789 -0.13403153 0
1.2393934 1.6730247 -0.13361555 0
1.337492 1.6354549 -0.13263351 0
1.4097897 1.6413853 -0.13185108 0
1.5370874 1.6402208 -0.12936875 0
2.3993819 1.6461034 -0.11329159 0
2.4741507 1.697261 -0.11076182 0
3.7495399 1.6348388 -0.10345832 0
3.8495536 1.6797218 -0.10138281 0
-1.4695921 1.7559431 -0.11486679 0
-0.9433102 1.7217656 -0.1624818 0
-0.75470448 1.7346745 -0.16127692 0
-0.61191589 1.745082 -0.15967037 0
-0.53994733 1.7696705 -0.15657417 0
-0.45217201 1.7436671 -0.15549338 0
-0.32349998 1.73 -0.15549999 0
-0.25629058 1.7470021 -0.15397875 0
-0.17158385 1.7434467 -0.15098549 0
0.14883909 1.7593321 -0.14450809 0
0.25733849 1.7628574 -0.14423393 0
0.44773501 1.7472595 -0.1413749 0
0.53636122 1.7517061 -0.13927597 0
0.63717771 1.7639351 -0.1361627 0
0.74087977 1.7661448 -0.1386501 0
0.84508294 1.743081 -0.13859689 0
0.95453829 1.7546382 -0.13742286 0
1.0288931 1.7962987 -0.13632908 0
1.1376765 1.7416146 -0.13416879 0
1.2504456 1.7715504 -0.13224414 0
1.4583906 1.7382798 -0.12947631 0
2.5489197 1.7484186 -0.10823204 0
2.6236885 1.7995763 -0.10570227 0
-1.0269653 1.8816485 -0.16072269 0
-0.9851377 1.801707 -0.16160224 0
-0.84866989 1.8482051 -0.16144967 0
-0.74700004 1.852071 -0.15870796 0
-0.623254 1.8514404 -0.15718386 0
-0.51425648 1.8860087 -0.15706772 0
-0.45809761 1.8201755 -0.15523727 0
-0.34650001 1.852 -0.153 0
-0.24039495 1.8471438 -0.15332814 0
-0.17530458 1.8446617 -0.15096407 0
0.055 1.84 -0.147 0
0.16928354 1.8571124 -0.14402008 0
0.264918 1.846647 -0.14356852 0
0.35213718 1.8532768 -0.14214556 0
0.42894149 1.8591259 -0.14188659 0
0.54386365 1.8414637 -0.13819197 0
0.6491487 1.8585507 -0.13577703 0
0.73961067 1.8543267 -0.13802545 0
0.85388941 1.8505102 -0.13636446 0
0.9439109 1.8408185 -0.13635851 0
1.0422221 1.8666314 -0.13470727 0
1.1609646 1.8220491 -0.13435493 0
1.2310538 1.87984 -0.13195628 0
1.371429 1.846683 -0.13141036 0
2.674 1.834 -0.104 0
2.9611983 1.8248901 -0.10965472 0
-1.4400001 1.959 -0.169 0
-1.2819999 1.938 -0.168 0
-1.0687928 1.9615901 -0.15984315 0
-0.90222645 1.9699399 -0.16059957 0
-0.77800006 1.9325888 -0.15788496 0
-0.6631608 1.9486928 -0.15631707 0
-0.53400862 1.9620116 -0.15642363 0
-0.46033478 1.9670968 -0.15366556 0
-0.34367648 1.93426 -0.15244091 0
-0.24600632 1.9511269 -0.15184578 0
-0.15178251 1.923061 -0.14709014 0
0.057324752 1.9306655 -0.14597711 0
0.17631832 1.9467037 -0.14290246 0
0.2606363 1.9526527 -0.14271745 0
0.3609249 1.9634172 -0.14106974 0
0.44930238 1.9457089 -0.14073455 0
0.5575121 1.9451401 -0.13421214 0
0.65974915 1.9546248 -0.13393164 0
0.75337005 1.9493102 -0.13684322 0
0.83111387 1.9395207 -0.13556117 0
0.94968939 1.9451145 -0.13451642 0
1.0290247 1.9629327 -0.13329519 0
1.1086793 1.932896 -0.13298725 0
1.2584646 1.9695491 -0.13135493 0
1.308 1.9450001 -0.13 0
-1.5443416 2.0995367 -0.16974886 0
-1.4921708 2.0292683 -0.16937444 0
-1.3557711 2.0445807 -0.16820379 0
-1.1106204 2.0415313 -0.15896359 0
-0.93793082 2.0510967 -0.16003284 0
-0.82450008 2.0533655 -0.15665045 0
-0.71787381 2.0616231 -0.15500556 0
-0.65879393 2.0433307 -0.15500349 0
-0.54699999 2.0120001 -0.156 0
-0.4342781 2.0835843 -0.15049496 0
-0.32172579 2.032934 -0.15159191 0
-0.24193643 2.0446324 -0.1505883 0
-0.15771002 2.0120814 -0.14612019 0
0.059649508 2.0213308 -0.14495422 0
0.16370121 2.0476747 -0.14112048 0
0.24956775 2.0359142 -0.14178945 0
0.34089285 2.0323064 -0.14093533 0
0.45325094 2.0578403 -0.13934663 0
0.57782608 2.0477819 -0.13409281 0
0.64082205 2.047678 -0.12861305 0
0.73205209 2.0446007 -0.129842 0
0.85044813 2.0485771 -0.13416731 0
0.92883503 2.0731015 -0.13232833 0
1.0498006 2.036442 -0.13210939 0
1.1531907 2.0427315 -0.13043877 0
-1.5965124 2.169805 -0.17012329 0
-1.4295421 2.1511614 -0.16840757 0
-1.1524479 2.1214728 -0.15808405 0
-1.0086666 2.1746666 -0.15833333 0
-0.9736352 2.1322532 -0.1594661 0
-0.86008614 2.1434002 -0.15562421 0
-0.45203745 2.1717792 -0.14999329 0
-0.33850276 2.1389747 -0.15025163 0
-0.25256154 2.1331246 -0.14941044 0
-0.16660127 2.1456118 -0.14466524 0
0.061974261 2.1119962 -0.14393133 0
0.16926828 2.1378996 -0.14016064 0
0.23506239 2.1311653 -0.14052525 0
0.33079383 2.1441813 -0.13974383 0
0.45378494 2.1698523 -0.137981 0
0.54986358 2.1393659 -0.13702656 0
0.64421725 2.152704 -0.12616827 0
0.76125216 2.1264083 -0.1272717 0
0.84467506 2.1852756 -0.13285804 0
0.93897462 2.1294467 -0.13182206 0
1.0665858 2.1263387 -0.13122769 0
-1.6486832 2.2400732 -0.17049773 0
-1.5279034 2.2932692 -0.1686793 0
-1.4787227 2.2222154 -0.16854343 0
-1.2185293 2.2460258 -0.15696473 0
-1.1942754 2.2014141 -0.15720449 0
-1.0663639 2.2528276 -0.15541402 0
-0.91551697 2.2754006 -0.15374519 0
-0.46979681 2.259974 -0.14949161 0
-0.34254068 2.262202 -0.14870986 0
-0.26318663 2.2216165 -0.14823259 0
-0.17549253 2.2791424 -0.14321032 0
0.065461397 2.2479944 -0.14239699 0
0.17483534 2.2281246 -0.13920081 0
0.23968773 2.2443221 -0.13912453 0
0.36605427 2.2652988 -0.13769479 0
0.4707312 2.2563152 -0.13685125 0
0.54106033 2.2289209 -0.13647076 0
0.64862758 2.2574587 -0.1232305 0
0.76693666 2.2414808 -0.12745038 0
0.84805727 2.2738414 -0.13170044 0
0.93076938 2.2491941 -0.13112707 0
-1.7269393 2.3454757 -0.17105937 0
-1.5770841 2.3643231 -0.16881515 0
-1.291176 2.3761549 -0.15678841 0
-1.1397879 2.3567913 -0.15220849 0
-1.0756078 2.3523839 -0.15506707 0
-0.94877547 2.3546009 -0.15261778 0
-0.48755616 2.3481686 -0.14898993 0
-0.35992855 2.3658278 -0.14749838 0
-0.26839337 2.3419101 -0.14643025 0
-0.18142001 2.3681626 -0.14224036 0
0.068948522 2.3839927 -0.14086266 0
0.18040241 2.3183494 -0.13824096 0
0.25973958 2.3544931 -0.13758752 0
0.34901327 2.3747811 -0.13605346 0
0.43178809 2.3598382 -0.13584231 0
0.53995955 2.3349154 -0.13551211 0
0.65501702 2.3502502 -0.12859194 0
0.73236418 2.3473942 -0.11712278 0
0.83314055 2.3280494 -0.12154496 0
-1.8051955 2.4508781 -0.17162102 0
-1.6351324 2.4481883 -0.1689755 0
-1.551 2.441 -0.169 0
-1.3347639 2.4542325 -0.15668261 0
-1.1458144 2.4313989 -0.15185598 0
-0.98203397 2.4338012 -0.15149038 0
-0.50531554 2.4363635 -0.14848825 0
-0.40959436 2.4150593 -0.14790034 0
-0.34702826 2.4706912 -0.14566651 0
-0.24241067 2.4216123 -0.14482455 0
-0.18817376 2.4695916 -0.14113522 0
0.071273282 2.474658 -0.13983977 0
0.18875301 2.4536867 -0.13680121 0
0.26995257 2.4439178 -0.13643751 0
0.36151546 2.4624112 -0.13456237 0
0.4475072 2.4478402 -0.13469371 0
0.56032038 2.4214983 -0.13436005 0
0.65042341 2.4623675 -0.12437693 0
0.74549997 2.4245 -0.133 0
-1.8576832 2.5215731 -0.17199773 0
-1.6389564 2.5798786 -0.1697122 0
-1.5949782 2.5104394 -0.16935609 0
-1.3783518 2.5323098 -0.15657683 0
-1.2396111 2.5491176 -0.14821556 0
-1.1663674 2.5441136 -0.15015092 0
-1.0319217 2.5526016 -0.14979926 0
-0.52307487 2.5245581 -0.14798659 0
-0.42334053 2.5473621 -0.14582632 0
-0.3454814 2.5640485 -0.14448519 0
-0.25273466 2.5342784 -0.14332831 0
0.073598035 2.5653234 -0.13881686 0
0.19710362 2.5890243 -0.13536145 0
0.25401998 2.5586591 -0.13479701 0
0.33285442 2.5519943 -0.13453418 0
0.45581758 2.5535614 -0.13336343 0
0.53680634 2.5439968 -0.13305736 0
0.61299998 2.5109999 -0.133 0
0.70037347 2.5096343 -0.10201353 0
-1.6829346 2.649318 -0.17006829 0
-1.4437338 2.649426 -0.15641813 0
-1.2601641 2.6618323 -0.14651051 0
-1.0834048 2.6752009 -0.14805408 0
-0.54941714 2.6553764 -0.14724246 0
-0.43721581 2.6581342 -0.1442098 0
-0.36619133 2.6553602 -0.14363116 0
0.075922787 2.6559887 -0.13779397 0
0.24373107 2.6702888 -0.13364108 0
0.35499999 2.6385 -0.133 0
-1.748902 2.7534769 -0.17060244 0
-1.5091157 2.766542 -0.15625943 0
-1.3200001 2.704 -0.145 0
-1.243 2.7060001 -0.146 0
-0.44568148 2.7454739 -0.14280337 0
-0.36723185 2.7438962 -0.14189053 0
0.07824754 2.746654 -0.13677108 0
0.205 2.717 -0.134 0
-1.798 2.8310001 -0.171 0
-1.5527036 2.8446195 -0.15615363 0
-0.37599999 2.8099999 -0.141 0
0.079999998 2.8150001 -0.13600001 0
-1.6160001 2.9579999 -0.156 0
-1.5962915 2.9226971 -0.15604784 0
0.67400002 3.299 -0.116 0
0.69396651 3.3872879 -0.11410744 0
0.71393299 3.4755757 -0.11221488 0
0.73389947 3.5638635 -0.11032232 0
0.75386596 3.6521513 -0.10842977 0
0.77383244 3.7404392 -0.10653721 0
0.79379898 3.828727 -0.10464465 0
0.81376547 3.9170148 -0.10275209 0
0.83373195 4.0053029 -0.10085953 0
-2.6113408 -4.2911406 -0.097034141 0
-2.563231 -4.2154975 -0.087039836 0
-2.515121 -4.1398544 -0.077045523 0
-2.4670112 -4.0642114 -0.067051217 0
-4.6455498 -3.9661534 -0.079782411 0
-2.4139504 -3.9807839 -0.056028452 0
-4.5422006 -3.8826137 -0.058129672 0
-4.4733005 -3.8269207 -0.043694511 0
-4.4044008 -3.7712276 -0.029259346 0
-4.3355012 -3.7155344 -0.014824182 0
-4.2666016 -3.6598413 -0.00038901716 0
0.3259111 -2.6053448 -0.089310899 0
0.32499999 -2.598 -0.088 0
2.1493897 -2.313273 -0.077778861 0
2.2314882 -2.3533649 -0.083855994 0
2.3119731 -2.3932066 -0.090597562 0
2.0879385 -2.2485571 -0.063376218 0
2.1922975 -2.2642756 -0.060463414 0
2.0137436 -2.1704206 -0.045986786 0
2.1237297 -2.1904049 -0.043198176 0
2.6306162 -1.6336064 -0.079409257 0
2.5372276 -1.5496755 -0.091520041 0
2.6389565 -1.5487573 -0.07956776 0
2.5470753 -1.4608448 -0.092518643 0
2.6290424 -1.4689214 -0.082679704 0
-2.652 0.89700001 -0.025 0
-2.5443175 0.8611058 -0.0077567184 0
-2.7701869 0.99038303 -0.042290032 0
-2.6465771 0.94792026 -0.023757555 0
-2.5229671 0.9054575 -0.0052250773 0
-2.9349999 1.0470001 -0.067000002 0
-2.8525934 1.0186915 -0.054645017 0
-2.6331491 1.0675896 -0.022229858 0
-2.5511863 1.0322371 -0.0097873248 0
-2.401083 1.0715632 -0.0058032069 0
4.224 1.02 -0.1 0
-2.8790371 1.1736474 -0.05955746 0
-2.756093 1.1206186 -0.040893659 0
-2.5599999 1.138 -0.026000001 0
-2.4805415 1.1047816 -0.015901603 0
-2.2160001 1.175 -0.024 0
-2.1432807 1.1385518 -0.011437767 0
-2.961 1.209 -0.071999997 0
-2.036 1.268 -0.024 0
-1.96816 1.2270994 -0.010628648 0
-1.7403227 1.2998044 -0.02558561 0
-1.6706936 1.2511827 -0.015251366 0
-1.8422259 1.3709631 -0.040709928 0
-1.7715262 1.3596421 -0.025207102 0
-1.686481 1.3552291 -0.020149477 0
-2.0120645 1.4895608 -0.065917119 0
-1.94419 1.4575539 -0.051021803 0
-1.843393 1.4313216 -0.039068617 0
-1.759349 1.4483939 -0.031498592 0
-2.9243076 1.5153077 -0.085000023 0
-2.8429062 1.5675526 -0.072093971 0
-2.7431912 1.5172204 -0.065683737 0
-2.0463271 1.5549386 -0.074361451 0
-1.9508605 1.5415602 -0.07805676 0
-1.8510932 1.5262462 -0.044811621 0
-1.7626314 1.5908691 -0.0011435524 0
-3.0634766 1.6788881 -0.086273491 0
-2.9531913 1.6232204 -0.079183728 0
-2.0074999 1.6445 -0.0735 0
-1.9615026 1.6058794 -0.072058134 0
-1.825421 1.6465794 -0.011762368 0
-3.1370001 1.716 -0.090999998 0
-1.951 1.758 -0.033 0
-1.8882104 1.7022897 -0.022381183 0
-1.5497894 1.8565907 -0.096822374 0
3.0577934 1.8725604 -0.099618874 0
-1.6161271 1.9398446 -0.081896387 0
3.1410952 1.9136703 -0.090964153 0
0.84659952 2.3864167 -0.095464259 0
0.74492502 2.4552317 -0.095346496 0
0.87677723 2.4716852 -0.090293624 0
0.68154818 2.511492 -0.0040325113 0
0.74428672 2.5735922 -0.073608942 0
0.89600003 2.526 -0.086999997 0
0.73509133 2.6729155 -0.062505424 0
0.75 2.7579999 -0.046 0
0.85369843 4.0935907 -0.098966971 0
0.87366492 4.1818786 -0.097074419 0
0.88499999 4.2319999 -0.096000001 0
-4.1977015 -3.6041481 0.014046155 0
-4.1288018 -3.5484552 0.02848132 0
-4.0334511 -3.4713812 0.048458241 0
2.2739999 -1.9299999 0.021 0
2.1345797 -1.8205814 0.05011946 0
2.2219477 -1.8891488 0.031871673 0
-2.346 0.79500002 0.024000002 0
-2.4385977 0.85118032 0.0083082365 0
-2.3602111 0.8407529 0.02839149 0
-2.2544799 0.83528531 0.032335289 0
-2.1361864 0.85323703 0.053212684 0
-1.962 0.88800001 0.050000004 0
-2.4467242 0.9383629 0.040405482 0
-2.3462796 0.94385552 0.021319017 0
-2.1627078 0.97190797 0.024491988 0
-2.04352 0.92208034 0.039639585 0
-1.8287015 0.98087955 0.04290558 0
-2.3216248 1.0383447 0.0042951908 0
-2.2421663 1.0051264 0.014393587 0
-1.961482 1.0474313 0.019967815 0
-1.6939001 1.0617485 0.043428384 0
-2.0705612 1.1021036 0.0011244658 0
-1.9003201 1.1861987 0.002742704 0
-1.8324802 1.1452981 0.01611406 0
-1.7646402 1.1043975 0.029485408 0
-1.543 1.396 0.035999998 0
-1.6370524 1.4794486 0.020094078 0
-1.5742629 1.4237382 0.030712888 0
-1.6998419 1.5351588 0.0094752647 0
-0.43458927 1.6708543 0.055937126 0
-0.38600001 1.628 0.057999998 0
-0.50828212 1.7609009 0.046242591 0
-0.43700892 1.7557815 0.040405691 0
-0.5291881 1.8312672 0.033495061 0
-0.47108746 1.8512379 0.02561467 0
-0.54703134 1.9465445 0.011915844 0
-0.4693777 1.9579246 0.010483682 0
0.58613956 2.1679072 0.054462068 0
0.61309636 2.2649839 0.037934978 0
0.63591361 2.3471532 0.023945812 0
0.65873092 2.4293227 0.0099566504 0
4.987761 3.5690043 0.096795097 0
5.0586658 3.6221287 0.086820707 0
5.1295705 3.6752532 0.076846324 0
5.2359281 3.7549398 0.061884746 0
5.3422852 3.8346267 0.046923161 0
5.4131899 3.8877511 0.036948778 0
5.4840951 3.9408755 0.026974387 0
5.5549998 3.994 0.017000001 0
7.6390085 4.7884197 0.096371271 0
7.7425041 4.8667097 0.079185635 0
7.8460002 4.9450002 0.061999999 0
4.9089279 3.5099399 0.10788474 0
7.3335099 4.557323 0.14709982 0
7.4320168 4.6318393 0.13074255 0
7.5010142 4.6840329 0.11928546 0
7.5700116 4.7362266 0.10782836 0
