# .PCD v0.7 - Point Cloud Data file format
VERSION 0.7
FIELDS x y z intensity
SIZE 4 4 4 4
TYPE F F F F
COUNT 1 1 1 1
WIDTH 114
HEIGHT 1
VIEWPOINT 0 0 0 1 0 0 0
POINTS 114
DATA ascii
-38.630932 -16.375097 10.179343 10
-38.607605 -16.434801 10.849476 11
-38.214294 -17.050823 16.788233 15
-37.132446 -18.745655 18.094177 16
-35.188942 -21.846079 17.800713 16
-11.144491 6.6886945 11.30802 25
-10.807543 6.9432511 5.0648365 15
-10.617915 6.9363942 4.8232975 14
-9.3018513 -26.640602 16.291527 19
-8.0249577 7.0964346 4.1136169 14
-6.4258652 7.2377877 9.376503 26
-6.3064265 7.1903424 5.5177841 19
-6.2785525 7.2180705 9.4238577 27
-5.5311146 1.1367135 0.18037 4
-5.5044136 1.2111501 0.35742876 5
-5.4836869 1.0701232 0.44948661 6
-5.4759283 1.1755251 0.60449839 7
-5.4857631 0.88250023 0.89949989 8
-4.6450615 -2.2981617 0.35033005 5
-4.4790812 -2.3235528 0.47626916 6.5
-3.6298649 7.335093 4.5460057 19
-3.4662907 7.3522978 4.4963622 18
-3.2851465 7.3358579 4.9297609 20
-3.030962 1.4212846 0.28639689 6
-2.8947151 1.6402303 0.079780519 4
-2.8949726 1.6574663 0.25578371 6
-2.8320978 1.9751362 0.31200585 6
-2.810189 2.2894933 0.23111732 5
-2.8002627 1.9774094 0.47708738 7
-2.7967706 1.8647348 0.0070732469 3
-2.7946281 2.6059744 0.31920332 6
-2.5545511 -2.5160201 0.11606958 4
-1.8523395 -2.4307332 0.34696135 7
-1.6667693 -2.4234107 0.28752181 6
-1.5842396 -2.4527719 0.060848512 4
-1.39624 -2.4180956 0.13738309 5
-1.3732185 -2.3837342 0.66238332 10
-1.1614693 -2.3746204 0.47907683 9
-1.148133 -2.3641698 0.64309901 11
-0.85989499 -2.3281064 0.73903841 12
-0.66194844 1.4743592 0.19354743 7
-0.76908314 1.4551085 0.27527207 8
-0.6899069 -2.3245025 0.77866781 13
-0.46888435 1.5168446 0.10702087 5.5
-0.4750919 1.5339658 0.31800383 9
-0.40112054 7.4442711 4.1891923 19
-0.35967469 1.5881501 0.10926185 5
-0.33642206 1.6182265 0.13030705 6
-0.26834336 1.6294645 0.28395322 8.5
-0.26287854 1.6265386 0.40946588 11
-0.32986787 7.6022706 4.0922432 18
-0.15506098 1.7471412 0.10965069 5.5
-0.14051151 1.7177302 0.25168934 8
-0.099780865 9.5004864 1.7488695 9
-0.059120547 9.4968414 2.6009293 11
-0.15700135 9.4981899 3.6517897 14
0.32502976 -2.1758895 0.47962308 10
0.33229387 7.5498185 4.8072095 20
0.42950681 -2.176919 0.0021246879 3
0.47316617 -2.175781 0.48734361 10
0.44766966 9.5199394 2.0666101 10
0.75175273 2.0608277 0.093787633 5
0.75824398 2.0683553 0.33329034 7.5
0.61789185 9.5245199 0.51482564 5
0.67489249 9.5216684 0.86589813 6
0.97810519 1.8490064 0.19100623 6
0.98922676 1.8385121 0.29251441 7.5
0.97348702 -2.1263077 0.43076476 9
0.84421593 9.3579569 1.4981675 8
0.82065964 9.3612881 2.6051383 11
1.015191 -2.107697 0.094927691 4.5
1.1588283 1.7400718 0.31109691 8
1.1949223 9.5502281 1.9085025 9
1.1607003 7.526782 4.1902122 18
1.2052686 9.5796995 3.5795035 14
1.2509974 7.5108228 4.3333135 19
1.4729722 -2.1847415 0.1776285 5
1.4431217 -2.1439395 0.31385392 6.5
1.4795939 9.5794144 2.2698004 10
1.556608 9.5935736 2.8268747 12
1.5253252 9.570714 3.4098508 13
3.1951296 2.4250698 0.73464179 9
3.1878996 -28.838404 28.745615 27
3.3986931 1.6668055 0.12796474 4
3.2103634 2.6033139 0.15771778 4
3.3330007 1.7213089 0.30256921 5.5
3.2708542 2.4992161 0.20863281 5
3.3567519 1.7166528 0.57504541 8
3.2033119 2.0179965 0.45339832 7
3.3888695 1.7465304 0.79504293 9
3.2193501 2.3640497 0.66059494 8
3.9905829 -3.047199 0.44131312 6
4.1983085 -2.0995097 0.17846687 4
4.0007062 -3.0283248 0.38732201 5
4.0349064 -2.216038 0.29939911 5
4.3114352 -2.0228536 0.35250476 6
4.2584152 7.888917 4.1610279 16
4.6818533 -1.8812544 0.2863768 5
4.6508555 7.7964816 7.5390973 24
4.7030125 7.8074274 7.7981019 25
5.3387351 7.9977818 9.2891207 26
5.5567098 7.8513985 9.6341047 27
7.5684137 8.0862083 9.1906595 24
7.7673421 7.9576697 9.9535398 25
8.2086878 8.1214809 8.9833994 23
9.3298836 -25.458885 18.62842 21
10.542954 3.5900741 1.6888422 8
10.635105 2.5894213 0.95136344 6
10.643085 3.8389957 2.0320501 9
12.76197 -25.257473 19.819963 21
31.460436 -23.633295 6.6884365 8
31.456079 -23.559475 7.4682446 9
31.502489 -24.028593 8.8697023 10
31.600048 -23.242855 15.982477 15
