# .PCD v0.7 - Point Cloud Data file format
VERSION 0.7
FIELDS x y z intensity
SIZE 4 4 4 4
TYPE F F F F
COUNT 1 1 1 1
WIDTH 183
HEIGHT 1
VIEWPOINT 0 0 0 1 0 0 0
POINTS 183
DATA ascii
-1.8403374 1.2645142 1.5839958 22
-1.8484886 1.2284181 1.638996 23
-1.8006036 -0.26781973 1.8329979 28
-1.8040186 -0.11956174 1.8289977 28
-1.7268741 -0.49975675 -0.071001634 2
-1.7698495 0.33351335 -0.084002793 2
-1.6747743 -0.51944333 0.10299847 5
-1.7590921 0.28148845 0.13899729 6
-1.731527 -0.4997873 0.29699835 8
-1.6998471 -0.4144243 0.4934983 11.5
-1.7920232 -0.38598338 0.93399817 18
-1.7688935 -0.33423451 1.0584981 19.5
-1.7821031 -0.13544832 1.4839978 25
-1.7916397 -0.27377173 1.7849979 27
-1.6574569 -1.2153599 2.3499994 29
-1.6057677 -1.1789527 2.3539996 30
-1.6797904 1.4667193 2.3659956 28
-1.6902081 1.7949656 2.3499954 26
-1.4381422 -0.64506269 -0.013001053 3
-1.4218081 -0.90832824 0.092999324 5
-1.4371601 -0.64906222 0.022998955 4
-1.519877 -0.53343266 0.14149868 6
-1.5572047 -0.52566791 0.34299862 9.5
-1.585839 1.2320304 2.3549962 29.5
-1.4743009 -1.6725003 2.5540001 29
-1.4861116 1.5809573 2.558996 30
-1.2949424 0.27750307 0.16899791 7
-1.3114934 0.25836211 0.25333124 9
-1.393862 1.881687 2.5589957 28
-1.2212896 2.0186725 2.4649956 28
-1.1499947 0.3605769 0.15549798 7.5
-1.0121597 0.40151915 0.10999812 6
-1.0572813 0.41925898 0.20299804 9
-1.0106981 0.82737607 0.2873309 10
-0.98281956 0.8151952 -0.0080023864 3
-0.97980142 0.8132112 0.10699762 6
-0.86032301 -0.3857463 0.30899939 13.5
-0.86844486 0.81886357 0.32899776 12
-0.85041958 -0.35830632 0.42633265 17
-0.6220457 -0.44464475 0.18299976 10.5
-0.64145166 -0.42125976 0.2289997 12.5
-0.68518639 -0.37752292 0.26299959 14
-0.73258919 0.81862593 0.38699794 14
-0.63675797 -0.33713487 0.47449961 22
-0.79951376 0.82225764 0.81199783 22
-0.65579182 -1.6542542 2.5590014 29
-0.49168479 0.82612491 0.33299825 13.5
-0.51049876 -0.47884232 0.43999997 21
-0.56156236 -0.34260875 0.4719997 23
-0.49306482 0.82406574 0.50119829 18
-0.34271637 0.81621134 -0.053001542 1.3333334
-0.25796387 0.81489301 0.14649856 8.5
-0.22561963 0.32602435 0.35749927 26.5
-0.30866542 0.81369674 0.23099852 11
-0.39856252 0.82831126 0.51899838 19
-0.28508195 0.82829422 0.7854985 25.5
-0.17688325 0.62520504 -0.027001064 2
-0.13151069 0.8420071 0.12966537 7.6666665
-0.16549134 0.43625599 0.2229992 17
0.099720724 0.63595116 -0.045000713 1
0.15218306 -0.77560663 0.068001233 5
0.15181485 0.44870585 0.18899962 14.5
0.14011641 -0.74010217 0.38900116 18
0.14834777 0.43894684 0.21349961 16
0.094231121 -0.7465058 0.68150109 25.5
0.2624608 -0.72655278 -0.02679869 1.8
0.36795843 0.63578087 -0.024500357 2.5
0.27985969 -0.75883168 0.11130138 6.6999998
0.2498236 0.42200765 0.19899978 15
0.33433896 0.64358842 0.027332924 4.6666665
0.38314646 0.86595583 0.097999364 6.5
0.28800282 -0.75991064 0.29700142 14
0.35966647 -0.50471532 0.27866778 16.333334
0.31558555 0.30935466 0.35566667 23.5
0.26908633 -0.73030359 0.42500132 18
0.3383978 0.28781593 0.44500005 26.5
0.3007952 -0.64329123 0.68900126 27
0.50466347 -0.89365274 -0.010998145 3
0.51642221 -0.88365543 0.053001858 5
0.4513531 -0.65190047 0.32725146 15.25
0.40328294 -0.45690349 0.34900114 21
0.47704357 -0.74602878 0.47150159 19.5
0.48953775 -0.55081856 0.48585853 24.857143
0.5542444 -0.81066972 0.65300179 24
0.47261369 -0.69660801 0.67660153 25.200001
0.71809232 0.91276801 0.12149974 6.5
0.71215552 -0.62994635 0.26700178 11.5
0.68170285 0.90574282 0.2269997 9
0.70370662 -0.70204788 0.57900184 19.5
0.6669876 0.90573436 0.5649997 17.5
0.67476165 -0.63845408 0.71100175 23
0.65716416 -0.62943614 0.90425175 27
0.67702436 -0.58537072 0.93400168 28
0.77424115 -2.0465629 2.5660038 29
0.88678753 -0.63847214 0.31950203 11.5
0.82212359 0.90281123 0.31449986 10.5
0.84296232 -0.71526307 0.55066872 17
0.80124915 -0.64347577 0.70150191 21.5
0.84793818 -0.61818397 0.92400199 25
0.97371566 -1.7577041 2.3820035 29
0.84962124 -1.7805653 2.4190035 30
1.0867015 0.8858673 -0.049999733 2
1.1601924 0.8989017 0.37700036 11
1.0532064 -0.67153513 0.4930023 15
1.0048133 0.89285946 0.5570001 15
1.2613703 -0.73164999 -0.010997356 3
1.3195237 0.89341575 0.12250057 5.5
1.2730898 0.9001711 0.2722505 8.5
1.3214655 0.89942646 0.50000054 12.5
1.2496917 -1.6558803 2.5720038 30
1.4882205 -0.7416696 -0.060997043 2
1.4973307 -0.75970453 0.016002996 4
1.4738878 -1.6545217 2.5755041 29.5
1.5158925 -1.1333545 2.4115036 30.5
1.9671171 -0.84586859 2.5790038 30
1.8854412 -0.46707287 2.593003 31
1.8221627 0.91849798 2.5800011 30.5
2.0128243 1.1484251 2.5870011 28
2.3304985 -1.1013675 2.5870044 27
2.3708212 1.2025476 2.5770016 26
2.3230114 1.5260944 2.4310009 25
2.2715561 -0.58632016 2.6000037 28
2.5888836 -2.5686252 0.17500684 5
2.5343554 -0.97913593 0.15800467 5
2.5111258 -0.58431208 0.11850411 4.5
2.527734 0.33241916 0.074336246 4
2.5799377 -2.5976539 0.3670069 6
2.5655334 -0.93053794 0.26700464 6.5
2.4824896 0.23286359 0.28766963 7
2.4952087 -0.59333158 0.54800409 10
2.4752262 0.22350961 0.53650296 9.5
2.4539664 1.4740287 2.3860011 24
2.5740397 1.6593496 2.3960011 23
2.4496071 -1.1920418 2.5355048 25.5
2.4033458 -0.74866247 2.5920043 27
2.4601057 -0.41994891 2.4070039 26
2.452306 -0.30569282 2.4170036 27
2.6257396 -0.89897376 -0.039995324 3
2.6417594 -0.90899396 0.10100471 4
2.7063518 -1.2832252 0.51350528 8.5
2.7684176 -0.89045292 1.2845049 15.5
2.7494247 -0.88494176 1.4350047 17
2.7727568 -1.7355193 2.397006 22
2.7361786 1.7264833 2.2780015 22
2.6336529 -1.5842505 2.4150054 23
2.872916 -0.29666659 0.93900424 13
2.8736084 -0.24755642 1.0690042 14
2.972712 0.044100843 1.2290039 15
2.9548059 0.32673436 1.2300035 15
2.8433335 0.24054357 1.4290035 17
2.9742353 0.11626381 1.7035038 18.5
2.9852102 -0.53418881 1.9100046 20
2.9147439 0.11225549 1.9285036 20.5
2.8825119 -0.5677644 2.0470045 21.5
2.8872001 -0.184413 2.011004 22
2.9282372 -1.6874593 2.3310063 21
2.8789399 -1.2787205 2.3980055 23
2.9321444 -1.1123992 2.2220054 22
2.8149548 0.15034242 2.2440035 23
2.8126729 0.32974485 2.2640033 24
2.8233106 0.65445477 2.2280028 23
2.8121715 1.2105819 2.2950022 23
2.8851256 -1.0873492 2.4030054 23
3.0841079 -1.7666117 2.1880064 20
3.9990168 1.4941572 0.50600332 7
3.9908597 1.5192058 0.77300328 9
3.9949803 1.4991674 1.2890034 12
3.9974759 1.4119984 1.5210035 14
3.9509006 2.3797324 1.931002 15
3.954242 2.1433396 2.1250024 16
3.8692107 1.2446661 2.2460036 18
3.8568978 1.9860584 2.2000024 17
4.0075288 1.405985 0.14500345 4
4.0081882 1.4666035 0.31500337 5.5
4.0016632 1.3799347 0.99700344 10
4.1679454 0.62436748 1.0620047 11
4.0604153 0.51914144 1.2735046 12.5
4.1868205 0.65142614 1.5640047 14
4.0181804 0.93102175 1.4700041 14
4.1403332 1.1144021 1.915004 16
4.1234117 1.4620992 1.8880036 15.5
4.2192912 2.0662301 0.68800288 8
4.4905114 2.1323705 1.5870031 13
