# .PCD v0.7 - Point Cloud Data file format
VERSION 0.7
FIELDS x y z intensity
SIZE 4 4 4 4
TYPE F F F F
COUNT 1 1 1 1
WIDTH 1001
HEIGHT 1
VIEWPOINT 0 0 0 1 0 0 0
POINTS 1001
DATA ascii
-1.5428668 -1.1412007 -0.21468981 0
-1.557 -1.076 -0.21600001 0
-1.4839191 -1.0257443 -0.20078315 0
1.077 -1.51 -0.164 0
0.90700001 -1.424 -0.13 0
1.0257435 -1.4374807 -0.15116018 0
1.162469 -1.4196037 -0.15557107 0
1.2 -1.467 -0.156 0
1.5698671 -1.4337273 -0.14730716 0
1.7125673 -1.4534452 -0.15380007 0
0.7709223 -1.3020216 -0.12485401 0
0.84506381 -1.3450292 -0.12087309 0
0.94383758 -1.3649011 -0.1362707 0
1.054126 -1.339184 -0.14703116 0
1.1541566 -1.3603218 -0.13822208 0
1.224 -1.396 -0.109 0
1.4650508 -1.3363409 -0.14996074 0
1.5706604 -1.3344704 -0.1485779 0
1.6664732 -1.349813 -0.14840886 0
1.7640001 -1.3609999 -0.154 0
-1.377 -1.249 -0.178 0
-1.1695001 -1.251 -0.178 0
-1.0895628 -1.2257086 -0.16754222 0
0.74667788 -1.2315416 -0.1078803 0
0.84063298 -1.2346475 -0.11506546 0
0.95083874 -1.2458414 -0.12806991 0
1.0432452 -1.258426 -0.13789941 0
1.1432848 -1.2577533 -0.1506891 0
1.2619226 -1.2442596 -0.15713423 0
1.3723671 -1.2502272 -0.15230717 0
1.434186 -1.2200503 -0.14355564 0
1.5282843 -1.2395484 -0.13762644 0
1.6240971 -1.2548912 -0.13745742 0
1.7567906 -1.2243086 -0.14620693 0
-1.4563375 -1.1141856 -0.19993591 0
-1.3191516 -1.1490268 -0.17756604 0
-1.2439102 -1.1291606 -0.15539616 0
-1.1271384 -1.1468333 -0.16570932 0
-1.0301256 -1.1594172 -0.15608445 0
0.78506839 -1.156574 -0.11037607 0
0.86455995 -1.1607159 -0.1103704 0
0.96633261 -1.1660492 -0.10867589 0
1.0502332 -1.1465521 -0.14383753 0
1.1535158 -1.1426526 -0.14970802 0
1.24801 -1.1497465 -0.15097752 0
1.3382635 -1.1778293 -0.14745799 0
1.4841942 -1.1487823 -0.12091484 0
1.5591755 -1.145244 -0.14455545 0
1.6597217 -1.1561602 -0.138008 0
2.3767943 -1.1207604 -0.14536795 0
2.4567649 -1.1582978 -0.14513479 0
2.5050001 -1.147 -0.131 0
-1.4422015 -1.0492042 -0.19213882 0
-1.3503439 -1.0334638 -0.17733979 0
-1.2671514 -1.0524184 -0.17403392 0
-1.1578798 -1.0379883 -0.14460279 0
-1.032846 -1.052083 -0.14877328 0
-0.94731313 -1.04432 -0.13759851 0
0.74426109 -1.0747361 -0.10500882 0
0.85517401 -1.0817807 -0.10838765 0
0.96041816 -1.0329294 -0.12405246 0
1.0408828 -1.0585921 -0.1272596 0
1.1541598 -1.0649168 -0.15040037 0
1.2294744 -1.0484202 -0.13602225 0
1.3711616 -1.0355004 -0.12207011 0
1.4489963 -1.0587659 -0.12949218 0
1.5344582 -1.0674651 -0.13520902 0
2.1368823 -1.0081489 -0.1460674 0
2.259546 -1.0465702 -0.13924818 0
2.3484566 -1.0464013 -0.12309782 0
2.4637005 -1.0450753 -0.13669676 0
-1.4108381 -0.97548866 -0.18556631 0
-1.3608532 -0.95534641 -0.15651923 0
-1.2541064 -0.95250875 -0.16101597 0
-1.1469871 -0.95340604 -0.15191004 0
-1.0485914 -0.93410325 -0.126167 0
-0.92182392 -0.95602709 -0.12648517 0
-0.85181379 -0.9605428 -0.12171109 0
0.86912954 -0.93243539 -0.10817967 0
0.95336676 -0.94980794 -0.11670742 0
1.0637268 -0.9420889 -0.13072839 0
1.1427951 -0.96689671 -0.1424444 0
1.2358631 -0.9709363 -0.1549847 0
1.3422534 -0.94543296 -0.14043981 0
1.4307947 -0.96234977 -0.12570149 0
1.516 -0.98500001 -0.152 0
1.6877694 -0.92139494 -0.14816326 0
1.9769412 -0.93307441 -0.1465337 0
2.056453 -0.93807107 -0.13832523 0
2.1814661 -0.97520101 -0.12952052 0
2.2592907 -0.93321693 -0.14639011 0
2.3893156 -0.95640075 -0.14545923 0
2.4884424 -0.9430759 -0.13434006 0
-1.751 -0.824 -0.18000001 0
-1.628 -0.86500001 -0.169 0
-1.550439 -0.8236497 -0.16035615 0
-1.305851 -0.8961513 -0.11304767 0
-1.2421273 -0.87176347 -0.135525 0
-1.1552281 -0.85209382 -0.13415682 0
-1.0698035 -0.8666712 -0.1388216 0
-0.96809042 -0.84399116 -0.11536564 0
-0.84623694 -0.87386936 -0.11235619 0
-0.79237658 -0.89425135 -0.11025332 0
0.85846412 -0.8235575 -0.115054 0
0.94168723 -0.85765427 -0.11500093 0
1.0327024 -0.85409188 -0.12604238 0
1.1511899 -0.88301605 -0.14354259 0
1.2452452 -0.83412993 -0.14497855 0
1.32991 -0.83708763 -0.13666646 0
1.405723 -0.85469031 -0.13593152 0
1.5353233 -0.83787394 -0.1505959 0
1.606431 -0.87683189 -0.14946121 0
1.7348788 -0.81933701 -0.1483487 0
1.8381962 -0.86004621 -0.14604124 0
1.9531341 -0.84060335 -0.14360276 0
2.0596218 -0.82709956 -0.14684825 0
2.1534994 -0.8327685 -0.13135645 0
2.2652042 -0.84073991 -0.13781422 0
2.3491499 -0.87078267 -0.13661601 0
2.4684901 -0.8624233 -0.13980265 0
-1.658114 -0.77527755 -0.1406371 0
-1.5410963 -0.7410515 -0.13882688 0
-1.464087 -0.75062066 -0.14336313 0
-1.3777524 -0.72559786 -0.13433488 0
-1.1185144 -0.77446604 -0.12469888 0
-1.0362145 -0.76740855 -0.11263621 0
-0.93309671 -0.75660068 -0.11398904 0
-0.85108966 -0.71087724 -0.10698591 0
0.84415698 -0.77224499 -0.10339475 0
0.93996769 -0.75422478 -0.10718554 0
1.146415 -0.73137665 -0.12815952 0
1.2400422 -0.75939274 -0.13094865 0
1.3593006 -0.72703874 -0.13473602 0
1.459546 -0.73665023 -0.13823216 0
1.544763 -0.72564518 -0.15092081 0
1.6688638 -0.77219051 -0.14920628 0
1.7495087 -0.75443298 -0.14770967 0
1.8474051 -0.74082917 -0.14551868 0
1.9618216 -0.73438609 -0.13743336 0
2.0396957 -0.75107116 -0.1307987 0
2.1336832 -0.73812872 -0.13145272 0
2.2387283 -0.749919 -0.13718683 0
2.3567054 -0.74845469 -0.14021102 0
2.4760256 -0.74706805 -0.11704233 0
-1.735 -0.64249998 -0.1445 0
-1.6462617 -0.62789154 -0.15959939 0
-1.4330034 -0.67658687 -0.14296573 0
-1.3491026 -0.65581763 -0.13905674 0
-1.2441527 -0.65306461 -0.12214086 0
-1.1626341 -0.6168983 -0.11713693 0
1.178 -0.60900003 -0.148 0
1.2678339 -0.63676149 -0.14452304 0
1.3662183 -0.64471751 -0.14891465 0
1.4444747 -0.64834887 -0.15298049 0
1.5420663 -0.64549327 -0.15031591 0
1.6572204 -0.64248896 -0.14789623 0
1.7394079 -0.66185594 -0.14551222 0
1.8359107 -0.6386528 -0.14372575 0
1.9553964 -0.63406098 -0.13294478 0
2.0570529 -0.65613461 -0.13438338 0
2.1533647 -0.6500715 -0.1286335 0
2.2540612 -0.64189076 -0.13043772 0
2.3574355 -0.64543265 -0.12378817 0
2.4821885 -0.66811925 -0.12170575 0
-1.64 -0.51599997 -0.149 0
-1.5479532 -0.5495165 -0.14385977 0
-1.2591631 -0.58560038 -0.12249219 0
-1.1409733 -0.54919463 -0.11454213 0
-1.0705553 -0.56319869 -0.11000668 0
-0.98000002 -0.51099998 -0.108 0
1.2507704 -0.55242562 -0.15220049 0
1.3455796 -0.53955775 -0.15165722 0
1.4460089 -0.56168538 -0.15079328 0
1.56598 -0.54426193 -0.14989373 0
1.6680655 -0.53086734 -0.14776663 0
1.7500209 -0.5495618 -0.14522816 0
1.8395429 -0.54602373 -0.14385523 0
1.9567105 -0.54893911 -0.13934466 0
2.0424097 -0.54384565 -0.12787949 0
2.1487699 -0.55492431 -0.12423636 0
2.2410345 -0.54601461 -0.11366083 0
2.3531289 -0.53535855 -0.11690585 0
2.4550982 -0.56736845 -0.11073779 0
2.5341232 -0.54682386 -0.11163889 0
-1.549 -0.48699999 -0.162 0
-1.0432751 -0.48662448 -0.10596702 0
-0.98299998 -0.454 -0.107 0
1.2660762 -0.45250258 -0.15163249 0
1.3580748 -0.42917961 -0.14890607 0
1.4401729 -0.44830853 -0.15083951 0
1.5546079 -0.45634365 -0.15005456 0
1.6439025 -0.44962654 -0.14921704 0
1.7560967 -0.44110852 -0.14697088 0
1.8578398 -0.46367398 -0.13957693 0
1.9463241 -0.44751388 -0.13364801 0
2.0544007 -0.434517 -0.12632744 0
2.1576009 -0.4492158 -0.11919646 0
2.2550924 -0.46125624 -0.11834106 0
2.3656855 -0.46933073 -0.10972019 0
2.4466722 -0.4379614 -0.11493327 0
2.538878 -0.45416582 -0.11071246 0
-2.0120001 -0.30399999 -0.121 0
1.2490001 -0.35350001 -0.15149999 0
1.3546797 -0.34071001 -0.15204042 0
1.4576885 -0.35373005 -0.15094025 0
1.5494215 -0.34155658 -0.14917578 0
1.6396745 -0.3488965 -0.14880778 0
1.7432618 -0.34390152 -0.14682111 0
1.8442042 -0.36163747 -0.144941 0
1.9391918 -0.35438478 -0.13505106 0
2.050195 -0.34379148 -0.1287234 0
2.158241 -0.34897017 -0.1194493 0
2.2481792 -0.35112274 -0.11422046 0
2.3514211 -0.35070753 -0.11490822 0
2.4387295 -0.3540194 -0.11316808 0
2.5276785 -0.33657309 -0.10932174 0
-2.0209999 -0.206 -0.122 0
-1.9357567 -0.28981519 -0.11435087 0
-1.8595133 -0.27563035 -0.10770173 0
-1.7832699 -0.26144555 -0.1010526 0
1.284 -0.294 -0.154 0
1.3648459 -0.25016218 -0.14970873 0
1.4464084 -0.2486859 -0.15019597 0
1.5504589 -0.24174139 -0.14859411 0
1.6620041 -0.26109335 -0.1477246 0
1.7454668 -0.25040922 -0.14560793 0
1.844016 -0.24778956 -0.13998945 0
1.9532834 -0.25430936 -0.13237558 0
2.0504014 -0.25234064 -0.13134243 0
2.1614256 -0.25087854 -0.11647848 0
2.2446704 -0.24729539 -0.12116939 0
2.3449752 -0.23896797 -0.11246532 0
2.4218938 -0.26639384 -0.11372586 0
2.5200586 -0.24780783 -0.10951765 0
-1.9441237 -0.19622384 -0.11533444 0
-1.867891 -0.17014922 -0.10786283 0
-1.7903713 -0.1766715 -0.1020033 0
1.284 -0.198 -0.153 0
1.3562378 -0.14456619 -0.15152891 0
1.4527152 -0.14291881 -0.15096799 0
1.5448917 -0.15091476 -0.14842272 0
1.64991 -0.1492316 -0.14618285 0
1.7346369 -0.16189487 -0.14438346 0
1.8502911 -0.15675852 -0.14175153 0
1.9640309 -0.14732873 -0.12996759 0
2.0645704 -0.14084268 -0.1230416 0
2.1610749 -0.15572488 -0.11671672 0
2.2721605 -0.15590417 -0.11615629 0
2.3511069 -0.12170658 -0.11732234 0
2.4396935 -0.12695037 -0.11308268 0
2.5250001 -0.132 -0.109 0
1.2906667 -0.063666664 -0.15266667 0
1.3773483 -0.058799159 -0.14967307 0
1.4500213 -0.050950304 -0.1520175 0
1.5485342 -0.045354657 -0.14936046 0
1.6417506 -0.051579554 -0.14771615 0
1.7216086 -0.053414349 -0.14583483 0
1.8179744 -0.062060546 -0.14489532 0
1.9399633 -0.048483238 -0.13752237 0
2.0540316 -0.048391353 -0.13378459 0
2.1747251 -0.050709315 -0.11839357 0
2.2619116 -0.06198569 -0.11486114 0
2.3455784 -0.053118691 -0.11406742 0
2.4315872 -0.054559499 -0.10721923 0
2.52 -0.072999999 -0.109 0
1.276 0.024 -0.153 0
1.3470215 0.048705466 -0.15344398 0
1.449095 0.045215718 -0.15195696 0
1.5422963 0.053281277 -0.15002711 0
1.6328049 0.045366045 -0.14873539 0
1.7370148 0.050690744 -0.14685303 0
1.854327 0.050282579 -0.14281334 0
1.9758962 0.051246934 -0.13222021 0
2.0638947 0.053139344 -0.12570316 0
2.1518934 0.055031747 -0.11918609 0
2.239892 0.056924153 -0.11266902 0
2.3305879 0.065469645 -0.11756073 0
2.4193864 0.067393884 -0.11356939 0
2.5070317 0.078865536 -0.10981905 0
1.2843333 0.15666667 -0.15466666 0
1.3707408 0.15169294 -0.15393507 0
1.4648014 0.14970255 -0.15175001 0
1.5459087 0.15245906 -0.1496042 0
1.6563646 0.14883429 -0.14542392 0
1.7602346 0.14814682 -0.14555046 0
1.8541996 0.14665568 -0.13962269 0
1.9433355 0.15367639 -0.13577481 0
2.0324717 0.16069709 -0.13192692 0
2.1367099 0.16423634 -0.12429229 0
2.2333648 0.16538939 -0.11909819 0
2.3383029 0.1483788 -0.11966201 0
2.4688478 0.15761071 -0.11678262 0
2.5814736 0.16881326 -0.11948349 0
2.6340001 0.17200001 -0.118 0
1.26425 0.23300001 -0.15525001 0
1.34147 0.24664493 -0.15338697 0
1.4406167 0.25492939 -0.15102339 0
1.5492942 0.25636068 -0.14910461 0
1.6534728 0.25674051 -0.14886934 0
1.7504122 0.26251155 -0.14868508 0
1.8495383 0.25507337 -0.14562206 0
1.9418162 0.25324231 -0.1424206 0
2.0382247 0.2444056 -0.14403778 0
2.1246035 0.23954384 -0.14264844 0
2.2469549 0.25566655 -0.14249387 0
2.3599598 0.23296665 -0.13021238 0
2.4618168 0.25005448 -0.12918416 0
2.5539615 0.25266641 -0.12654303 0
2.6648974 0.28207743 -0.1332777 0
2.727 0.27900001 -0.13699999 0
1.2484 0.3502 -0.15459999 0
1.3464495 0.35961798 -0.15359682 0
1.456738 0.35376146 -0.15123568 0
1.5612993 0.3435103 -0.14880668 0
1.6345326 0.34225538 -0.14550993 0
1.7245674 0.36079931 -0.14711353 0
1.8467573 0.35430261 -0.14458476 0
1.9502207 0.35183418 -0.14459473 0
2.0472836 0.34849846 -0.14198811 0
2.1583354 0.34968671 -0.13631454 0
2.2776415 0.36445025 -0.13201731 0
2.3754418 0.34802151 -0.13206136 0
2.4653931 0.35350418 -0.14533797 0
2.533 0.36299998 -0.145 0
-1.8003784 0.48662201 -0.11104596 0
-1.7205677 0.46693301 -0.10506894 0
-1.681 0.46799999 -0.103 0
-1.421 0.47 -0.103 0
1.2654063 0.44012997 -0.15422983 0
1.3574506 0.44822332 -0.151453 0
1.4506363 0.45023963 -0.14973621 0
1.556679 0.46043035 -0.14727847 0
1.6598262 0.44499668 -0.1470567 0
1.7641157 0.45097083 -0.14626974 0
1.8599799 0.44065803 -0.14633584 0
1.9711754 0.45406985 -0.14508423 0
2.0629232 0.4539322 -0.14408299 0
2.1570654 0.45269045 -0.14372376 0
2.2487259 0.4488914 -0.14312448 0
2.3404126 0.44327134 -0.14235123 0
2.4403832 0.45853901 -0.1423039 0
2.5181408 0.4706212 -0.13995703 0
2.6170001 0.45199999 -0.13500001 0
-1.96 0.52600002 -0.123 0
-1.8801893 0.506311 -0.11702298 0
-1.692 0.514 -0.105 0
1.0622274 0.5668757 -0.10723801 0
1.1950001 0.50700003 -0.15700001 0
1.2592541 0.53777564 -0.15320866 0
1.3563142 0.54289788 -0.15178336 0
1.4420096 0.54401773 -0.14987142 0
1.5456452 0.55320221 -0.14753975 0
1.6392164 0.54649442 -0.14635587 0
1.7426962 0.54838908 -0.14528164 0
1.84158 0.55143994 -0.14467563 0
1.9432272 0.54770809 -0.14423123 0
2.0345826 0.55251676 -0.14412573 0
2.1265798 0.54350138 -0.14416482 0
2.2396398 0.5508219 -0.14377704 0
2.3451643 0.56391817 -0.14349031 0
2.4542511 0.54520959 -0.14245841 0
2.5496998 0.54128617 -0.13532467 0
2.6040001 0.49999997 -0.148 0
-1.734 0.63499999 -0.116 0
-1.6627302 0.61084074 -0.1065779 0
-1.5779999 0.68000001 -0.101 0
-1.4346114 0.69836575 -0.15439749 0
-1.3558801 0.63526005 -0.12429707 0
-1.276 0.61500001 -0.123 0
-1.1339999 0.66399997 -0.17 0
-1.0835739 0.66146237 -0.1011077 0
-0.89300001 0.62199998 -0.101 0
0.91500002 0.66399997 -0.114 0
1.1414547 0.6122514 -0.10147601 0
1.2833554 0.62534165 -0.1513629 0
1.3412313 0.65252173 -0.12901418 0
1.4428099 0.63867748 -0.14507656 0
1.5648789 0.65165836 -0.14811982 0
1.6513492 0.6356321 -0.14864661 0
1.7602211 0.65060484 -0.14674662 0
1.8606853 0.64621884 -0.14514439 0
1.9528283 0.65189636 -0.14418353 0
2.068289 0.65488338 -0.1423936 0
2.1571476 0.63349688 -0.14150795 0
2.2568882 0.64933378 -0.14170925 0
2.3796515 0.65848362 -0.14155386 0
2.4638302 0.6431905 -0.14285882 0
2.5155001 0.61899996 -0.14300001 0
-1.5354029 0.75134146 -0.17434937 0
-1.2434093 0.7620427 -0.16220929 0
-1.1464891 0.74485934 -0.14587821 0
0.77966738 0.77526975 -0.10158223 0
0.95727623 0.74770367 -0.10615087 0
1.4860027 0.72007662 -0.14227623 0
1.563922 0.73363161 -0.14763582 0
1.6660323 0.71941662 -0.14535315 0
1.753944 0.74147779 -0.14681764 0
1.8505011 0.74081612 -0.14714862 0
1.9497482 0.75264722 -0.1460613 0
2.0463827 0.74170399 -0.14474328 0
2.1495368 0.74645817 -0.14334241 0
2.2481518 0.74938416 -0.14056785 0
2.3392155 0.7470752 -0.14085169 0
2.4382124 0.75054687 -0.13719986 0
2.5009999 0.70700002 -0.147 0
-1.5194763 0.89075077 -0.17632793 0
-1.4455795 0.87345284 -0.14751154 0
-1.3560477 0.84157014 -0.16109738 0
-1.256585 0.83413661 -0.16649163 0
-1.1471431 0.87343752 -0.17309985 0
-0.82669902 0.85183465 -0.11212923 0
0.73901373 0.84247863 -0.11092992 0
0.86866713 0.86404359 -0.1223639 0
1.0398378 0.87274337 -0.12720786 0
1.8720965 0.80837667 -0.14509775 0
1.9547457 0.84384584 -0.14499718 0
2.0431693 0.84393656 -0.14584248 0
2.154901 0.84649926 -0.14476386 0
2.2462568 0.83343172 -0.14443466 0
2.3623586 0.86561412 -0.14187075 0
2.4349866 0.84690017 -0.14361481 0
-1.6553593 0.97104013 -0.15782706 0
-1.5399281 0.93945467 -0.14366403 0
-1.4480522 0.92939121 -0.13276112 0
-1.3707646 0.94380301 -0.14590549 0
-1.263715 0.96318769 -0.15349923 0
-1.183 0.97399998 -0.112 0
-0.92549539 0.95517325 -0.12064615 0
-0.66853011 0.95957315 -0.10564372 0
-0.39899999 0.97399998 -0.106 0
0.77879798 0.94414526 -0.11555216 0
0.85167122 0.96882617 -0.13830997 0
0.95766681 0.95281738 -0.14314556 0
1.1339999 0.954 -0.148 0
2.0983651 0.9122647 -0.14435208 0
2.1619272 0.93223161 -0.14474978 0
2.2586851 0.93772936 -0.14447483 0
2.3457379 0.96594447 -0.14472643 0
2.4365001 0.93449998 -0.14050001 0
-1.8526192 1.0867171 -0.18179674 0
-1.7509379 1.0271436 -0.16630657 0
-1.344 1.025 -0.14 0
-0.97600001 1.008 -0.125 0
-0.73199999 1.051 -0.12 0
-0.41988319 1.0375872 -0.10221782 0
0.43122044 1.0534819 -0.10682497 0
0.82058454 1.0447127 -0.11482813 0
0.90799999 1.0319999 -0.152 0
1.017 1.012 -0.15700001 0
2.3496642 1.0169497 -0.1440744 0
2.4170001 1.045 -0.14399999 0
-0.4525888 1.1190581 -0.11147854 0
0.46504307 1.1363188 -0.11719331 0
0.87454224 1.1371064 -0.13441406 0
-0.51800001 1.2819999 -0.13 0
-0.4852944 1.200529 -0.12073927 0
0.48444092 1.2233307 -0.12780224 0
0.54095131 1.2666821 -0.13463368 0
0.71499997 1.25 -0.11 0
0.8271656 1.2555349 -0.10306665 0
0.55583167 1.3569528 -0.14479323 0
0.86299998 1.3099999 -0.106 0
0.56698751 1.4487896 -0.15482824 0
0.63499999 1.457 -0.15899999 0
-0.24743773 1.8699514 -0.17665215 0
-0.12899999 1.851 -0.17 0
-0.24694517 1.9591217 -0.17188181 0
-0.13564748 1.9564732 -0.17044318 0
-0.14314747 2.0754733 -0.17094317 0
1.472 -1.638 -0.0080000004 0
1.4124271 -1.5705963 -0.0031429678 0
0.18099999 -1.416 -0.089000002 0
0.16991873 -1.3296165 -0.081570521 0
0.54299998 -1.365 -0.098999999 0
0.76362854 -1.3520128 -0.022276161 0
0.9376986 -1.3514755 -0.0042491928 0
1.0565796 -1.3186705 -0.003626504 0
1.1362479 -1.3905315 -0.0043254765 0
0.15883747 -1.243233 -0.074141033 0
0.47909343 -1.203712 -0.078965805 0
0.51104671 -1.284356 -0.088982902 0
0.68810284 -1.2201084 -0.0034960434 0
0.74963391 -1.2551332 -0.059929442 0
0.86710286 -1.2481558 -0.011055781 0
0.98664284 -1.2551241 -0.0050761998 0
1.0154965 -1.2430491 -0.0093951859 0
1.1050011 -1.2616271 -0.095023617 0
0.1477562 -1.1568495 -0.066711552 0
0.44714016 -1.1230681 -0.068948708 0
0.55167997 -1.1143222 -0.036700517 0
0.64386928 -1.1532072 -0.058156814 0
0.73838359 -1.1416329 -0.073099285 0
0.8266018 -1.1526728 -0.054035377 0
0.93473762 -1.1400988 -0.056678247 0
1.0455017 -1.1944407 -0.088035434 0
-1.367 -1.015 -0.039999999 0
-0.41800001 -1.013 -0.067000002 0
-0.37960607 -1.0565579 -0.065361805 0
-0.25946993 -1.0488797 -0.067706227 0
0.13667494 -1.070466 -0.059282064 0
0.43932629 -1.0459874 -0.024013625 0
0.56915563 -1.0220274 -0.054924831 0
0.66330796 -1.0390553 -0.060163613 0
0.74693018 -1.0484676 -0.058536656 0
0.84935069 -1.0392796 -0.044279736 0
0.92963529 -1.0691506 -0.055770341 0
-1.3512537 -0.9384461 -0.042208217 0
-1.2424173 -0.92098832 -0.042298574 0
-0.34691247 -0.93254495 -0.039868571 0
-0.23087971 -0.93451887 -0.054824926 0
0.12559368 -0.98408258 -0.051852584 0
0.37213659 -0.96509439 -0.020974362 0
0.46365288 -0.93668246 -0.028416529 0
0.56003493 -0.93084455 -0.040991131 0
0.64585596 -0.94429755 -0.041007664 0
0.75270414 -0.93658823 -0.045907818 0
0.82605362 -0.96802074 -0.051867422 0
1.1720001 -0.912 -0.083999999 0
1.2362572 -0.94739532 -0.091630101 0
1.3278363 -0.92465973 -0.094412297 0
2.3892012 -0.90824246 -0.084019087 0
2.4849882 -0.94588637 -0.075198233 0
-1.4571185 -0.87489223 -0.037287913 0
-1.3811187 -0.82589227 -0.038287915 0
-1.2571819 -0.84568405 -0.045835603 0
-1.1533985 -0.82797945 -0.056915581 0
-1.0403708 -0.80384934 -0.0035910625 0
-0.91576576 -0.81562102 -0.050382826 0
-0.84459227 -0.81998998 -0.0098922709 0
-0.76411116 -0.83306193 -0.096097335 0
-0.6507014 -0.82240224 -0.073823638 0
-0.5167098 -0.81036371 -5.2763149e-05 0
-0.33559355 -0.84916401 -0.053011056 0
-0.24708083 -0.84138274 -0.026515199 0
0.10897178 -0.85450733 -0.040708356 0
0.33771124 -0.86629808 -0.018075559 0
0.46294692 -0.84488416 -0.032033071 0
0.55638039 -0.85457838 -0.032050285 0
0.64777613 -0.84722501 -0.046297688 0
0.74571812 -0.85661757 -0.039482273 0
0.84406847 -0.85405135 -0.048092809 0
0.92735755 -0.83522576 -0.033795882 0
1.0896614 -0.81160319 -0.06894353 0
1.1703172 -0.84284115 -0.078584 0
1.2543089 -0.87326968 -0.085814349 0
2.2236509 -0.84318185 -0.099264316 0
2.306426 -0.87571216 -0.091641702 0
2.4960001 -0.81900001 -0.072999999 0
-1.7066004 -0.79431188 -0.09827061 0
-1.5345873 -0.73386931 -0.042832188 0
-1.4342436 -0.78110379 -0.053453844 0
-1.3364892 -0.76784557 -0.065320976 0
-1.2361429 -0.75443852 -0.056905173 0
-1.1428622 -0.74113387 -0.05374743 0
-1.0578541 -0.73083264 -0.049102195 0
-0.96938241 -0.73718655 -0.032888465 0
-0.84204775 -0.7493946 -0.035333391 0
-0.75683028 -0.74219251 -0.041304898 0
-0.64396775 -0.73484069 -0.04337915 0
-0.55832803 -0.73638332 -0.041267499 0
-0.48532748 -0.72627079 -0.009833348 0
-0.32793501 -0.73022324 -0.038849991 0
-0.2666162 -0.75282103 -0.033964809 0
-0.18537971 -0.75251889 -0.034324929 0
0.093000002 -0.73000002 -0.030000001 0
0.1629951 -0.75637347 -0.012845716 0
0.28393561 -0.74176091 -0.024431221 0
0.31067008 -0.76871085 -0.027088014 0
0.45234081 -0.78752655 -0.037535045 0
0.55310374 -0.78482765 -0.045603406 0
0.64240885 -0.75158137 -0.044891376 0
0.747154 -0.74909729 -0.05874946 0
0.85285205 -0.74291158 -0.059067983 0
0.97134709 -0.74810481 -0.053176329 0
1.0510918 -0.72672808 -0.053415235 0
1.1121271 -0.75824475 -0.048809227 0
2.2474618 -0.73427856 -0.097158849 0
2.3312054 -0.76282495 -0.089018665 0
2.4149489 -0.79137135 -0.080878474 0
-1.739 -0.65899998 -0.081 0
-1.6667445 -0.63212448 -0.069324575 0
-1.5944891 -0.60524899 -0.05764915 0
-1.4491496 -0.69191879 -0.051283754 0
-1.3346403 -0.68314236 -0.041464243 0
-1.2585825 -0.63887733 -0.058360536 0
-1.1535122 -0.64724749 -0.071485922 0
-1.0387866 -0.64826906 -0.068828277 0
-0.93688244 -0.65192592 -0.057585299 0
-0.84533679 -0.63612908 -0.061975326 0
-0.75681931 -0.66335315 -0.046307486 0
-0.64742839 -0.6552608 -0.047674771 0
-0.55569035 -0.64802015 -0.043436185 0
-0.45882526 -0.63862687 -0.034845859 0
-0.31280619 -0.64254427 -0.04827752 0
0.66386604 -0.66378939 -0.061563499 0
0.76621366 -0.66504037 -0.071387 0
0.83270353 -0.66847068 -0.082147263 0
0.95579565 -0.65708393 -0.070488341 0
1 -0.67299998 -0.052999999 0
2.455615 -0.63084215 -0.083450936 0
2.533793 -0.67811841 -0.093659028 0
2.615 -0.69999999 -0.088 0
-1.6504214 -0.55749226 -0.075325541 0
-1.5424904 -0.54405147 -0.072526731 0
-1.430335 -0.53448588 -0.041617308 0
-1.2180748 -0.57845938 -0.074141875 0
-1.1303663 -0.56646299 -0.071185872 0
-1.0397193 -0.54889894 -0.081715204 0
-0.96249998 -0.54610002 -0.080700003 0
-0.84305263 -0.5763728 -0.064129755 0
-0.73153895 -0.57582241 -0.064947687 0
-0.6572538 -0.56180632 -0.06761951 0
-0.54915351 -0.57729506 -0.065063216 0
-0.46879369 -0.56377435 -0.065370381 0
2.2667723 -0.56781578 -0.094741911 0
2.3506377 -0.55303389 -0.086554013 0
2.4719322 -0.54419643 -0.079412468 0
2.5400252 -0.51915526 -0.078873582 0
-1.5190001 -0.498 -0.094999999 0
-1.3789999 -0.498 -0.054000001 0
-0.98166662 -0.472 -0.096666671 0
-0.61199999 -0.495 -0.067000002 0
2.266314 -0.45630771 -0.098237589 0
2.3353846 -0.444657 -0.092961565 0
2.444864 -0.4561826 -0.082616098 0
2.5339999 -0.45300001 -0.074000001 0
2.3459947 -0.34230176 -0.091830231 0
2.4454772 -0.3410739 -0.08726529 0
2.5271657 -0.34485477 -0.079820171 0
-1.7070265 -0.24726072 -0.094403468 0
-1.668 -0.23999999 -0.090999998 0
2.2729759 -0.26714024 -0.096782282 0
2.3731761 -0.25259423 -0.087866791 0
2.4494064 -0.22489865 -0.085599504 0
2.5241787 -0.22669545 -0.077799529 0
-1.7601153 -0.16363178 -0.098059006 0
-1.675 -0.162 -0.092 0
2.2521114 -0.157493 -0.098218627 0
2.3404634 -0.16482516 -0.090671733 0
2.4251063 -0.14295304 -0.08340691 0
2.5193098 -0.1495986 -0.075478882 0
2.2602811 -0.024818499 -0.097773954 0
2.3509881 -0.056238249 -0.091502771 0
2.4385376 -0.058766589 -0.08274249 0
2.5172329 -0.049966983 -0.082995228 0
2.3251929 0.052163482 -0.094743207 0
2.438967 0.044656411 -0.082764775 0
2.5096877 0.065949395 -0.075807244 0
2.2977004 0.18647867 -0.096912548 0
2.384984 0.19389179 -0.088064641 0
2.4722674 0.2013049 -0.079216726 0
2.5039999 0.204 -0.075999998 0
-1.6876746 0.37023255 -0.042232532 0
-1.5242343 0.37024981 -0.030867817 0
-1.465 0.35699999 -0.041000001 0
-1.3006597 0.39782086 -0.044726603 0
-1.244 0.38100001 -0.035999998 0
-1.1601298 0.39351863 -0.015309133 0
-1.060654 0.38254362 -0.015322605 0
-0.96899998 0.36000001 -0.017000001 0
2.4611742 0.37569666 -0.098135121 0
2.5501962 0.38953376 -0.091652013 0
-1.6272711 0.46343276 -0.096018352 0
-1.5468118 0.43553272 -0.087808236 0
-1.4490087 0.46575886 -0.077640392 0
-1.3511817 0.44526497 -0.055929609 0
-1.2527956 0.45056933 -0.047628012 0
-1.146122 0.44154719 -0.033985626 0
-1.0309745 0.40795282 -0.006264057 0
2.654109 0.40568542 -0.084084451 0
-1.5430949 0.54645288 -0.080244169 0
-1.4452492 0.53661209 -0.069465756 0
-1.33805 0.55270666 -0.061934948 0
-1.2540061 0.54585427 -0.069574364 0
-1.1723334 0.51666665 -0.070666671 0
-0.22600001 0.58562499 -0.0495 0
-0.199 0.59899998 -0.052000001 0
-0.060572598 0.56278038 -0.030213702 0
0.046528112 0.57471085 -0.033277109 0
0.17585327 0.55443603 -0.038795467 0
0.28566667 0.55316669 -0.0385 0
0.31240126 0.58119339 -0.044987768 0
0.43113181 0.5551222 -0.035985447 0
0.51323289 0.58926117 -0.0560566 0
0.74599999 0.58999997 -0.028999999 0
0.86299998 0.58399999 -0.089000002 0
1.0265682 0.58222067 -0.06088328 0
1.1584599 0.56746674 -0.075252131 0
-1.5362586 0.6563952 -0.044848125 0
-1.4412223 0.64169991 -0.053836334 0
-1.348857 0.62700856 -0.046349645 0
-1.2079999 0.667 -0.056000002 0
-1.1420726 0.68933606 -0.058111295 0
-1.0312134 0.62885475 -0.086213775 0
-0.95403433 0.66527432 -0.095997185 0
-0.23816684 0.65509933 -0.046611913 0
-0.15754579 0.64662999 -0.030617489 0
-0.051798187 0.64111209 -0.021426726 0
0.056631953 0.64570725 -0.015872408 0
0.15719058 0.63399035 -0.01793698 0
0.23707008 0.63333911 -0.036693521 0
0.34388375 0.6393097 -0.022112908 0
0.45173013 0.64223528 -0.023488846 0
0.53915447 0.64962637 -0.039472792 0
0.64473933 0.65668291 -0.063150972 0
0.75176024 0.64806861 -0.038775444 0
0.85624248 0.6404891 -0.031275012 0
0.95396024 0.65422755 -0.040291656 0
1.0439519 0.64051688 -0.027579168 0
1.1246476 0.63656586 -0.059804671 0
1.225173 0.6670785 -0.070744932 0
-1.709 0.74699998 -0.020999998 0
-1.6184585 0.74935913 -0.016610764 0
-1.5662388 0.71347493 -0.034816783 0
-1.444031 0.74844182 -0.028179403 0
-1.3447998 0.76487601 -0.055741094 0
-1.255185 0.74621373 -0.049440559 0
-1.1583333 0.77666664 -0.062000003 0
-1.0455859 0.73018587 -0.08849296 0
-0.31326056 0.77564919 -0.046595275 0
-0.25292748 0.74238354 -0.03707942 0
-0.15616557 0.74292821 -0.025649788 0
-0.048436187 0.74404114 -0.024557177 0
0.053440306 0.7508471 -0.018608604 0
0.15367754 0.72964877 -0.018760009 0
0.25026187 0.74740487 -0.029105252 0
0.33879066 0.75047523 -0.02796478 0
0.44367453 0.74413419 -0.026945338 0
0.55202663 0.74684107 -0.032923333 0
0.64052993 0.75781274 -0.051994119 0
0.75433415 0.74841964 -0.044332143 0
0.85372359 0.74344283 -0.04844822 0
0.95590979 0.75190347 -0.035300866 0
1.0565593 0.75023103 -0.05486463 0
1.1476635 0.75550365 -0.059589058 0
1.2774407 0.73289317 -0.063170113 0
-1.542078 0.84688824 -0.0086609982 0
-1.4235693 0.86308932 -0.052437156 0
-1.3552291 0.85248154 -0.05409319 0
-1.2493844 0.84501451 -0.054171909 0
-1.143 0.8398 -0.055199999 0
-1.0368744 0.85094398 -0.071974576 0
-0.95999998 0.81699997 -0.068999998 0
-0.83834708 0.85285455 -0.021378558 0
-0.792 0.824 -0.012000001 0
-0.60506022 0.8681463 -0.091287434 0
-0.56400001 0.80900002 -0.082000002 0
-0.33108968 0.84050637 -0.055790864 0
-0.2516894 0.81351244 -0.036298033 0
-0.1535427 0.83760256 -0.034893591 0
-0.065740615 0.85195208 -0.029723439 0
0.043092713 0.8657831 -0.0012153581 0
0.12824078 0.84579593 -0.0039642951 0
0.3500669 0.85577172 -0.081204772 0
0.49544254 0.86022133 -0.027407542 0
0.57056731 0.84624976 -0.036119875 0
0.64732468 0.84199935 -0.020994935 0
0.74076915 0.86296201 -0.055562954 0
0.85635656 0.86263627 -0.036916446 0
0.97618568 0.83077419 -0.049708243 0
1.0421585 0.88298529 -0.058450978 0
1.1660525 0.84565026 -0.032025002 0
1.2357188 0.84585887 -0.084221549 0
-1.6617117 0.99270147 -0.045322277 0
-1.5403311 0.95672071 -0.024223011 0
-1.4536203 0.95395631 -0.030378306 0
-1.3573276 0.95661873 -0.028435521 0
-1.2591349 0.93506747 -0.040071636 0
-1.1635203 0.95214731 -0.051634457 0
-1.0943929 0.93264562 -0.062675625 0
-0.95326847 0.96199536 -0.047245372 0
-0.8664791 0.90070713 -0.028869197 0
-0.36690548 0.94176292 -0.066411696 0
-0.111 0.96399999 -0.02 0
-0.096000001 0.949 -0.059999999 0
0.38588187 0.97366154 -0.097104475 0
0.42042994 0.96461195 -0.095160969 0
0.54836893 0.94676721 -0.022411764 0
0.64204091 0.94116271 -0.046762414 0
0.74489802 0.92814159 -0.060749918 0
0.815 0.90200001 -0.044 0
0.90799999 0.90799999 -0.027000001 0
-1.6478335 1.0309062 -0.01472643 0
-1.5574771 1.0413489 -0.015413661 0
-1.4524339 1.0435058 -0.021130741 0
-1.3291317 1.0515673 -0.031251792 0
-1.2419893 1.0354781 -0.033506289 0
-1.0395 1.0545001 -0.064500004 0
-0.97282636 1.0102358 -0.052956399 0
0.58357483 1.0204237 -0.041209027 0
0.64243162 1.0434455 -0.027719136 0
0.72049922 1.0846467 -0.051631004 0
-1.5575713 1.1502366 -0.0060655288 0
-1.3631786 1.1639369 -0.050026886 0
-1.2959821 1.1061141 -0.053189073 0
0.6716696 1.1745094 -0.099075347 0
0.75910664 1.1526527 -0.093353093 0
-1.4639733 1.2506711 -0.045283612 0
0.81374431 1.2356972 -0.097825646 0
-1.5549999 1.329 -0.041000001 0
-0.565 -1.648 0.052999999 0
-0.5317502 -1.551128 0.045966387 0
1.352854 -1.5031925 0.0017140647 0
-0.487737 -1.4228972 0.036655903 0
1.1383333 -1.403 0.033333331 0
1.2699586 -1.4276667 0.033433158 0
-1.2286022 -1.3895501 0.049963959 0
-1.1686839 -1.3217902 0.044535123 0
-0.45839489 -1.3374101 0.030448917 0
0.51450002 -1.3464999 0.02 0
0.64205062 -1.3569512 0.015673637 0
0.84865016 -1.3262123 0.042212818 0
0.93319815 -1.3788555 0.031560935 0
1.0831076 -1.3632362 0.020130133 0
1.1591188 -1.3514259 0.034995731 0
1.233708 -1.3683852 0.01142813 0
-1.1091635 -1.2544801 0.039142329 0
-0.42905274 -1.2519228 0.024241928 0
0.48694032 -1.2757578 0.014978564 0
0.56773418 -1.2026017 0.0032315142 0
0.60391772 -1.2777522 0.0092893932 0
0.78420609 -1.2441953 0.036230102 0
0.84514338 -1.246244 0.02375426 0
1.0555141 -1.252273 0.024262279 0
1.1212542 -1.255368 0.023844237 0
-1.049643 -1.1871701 0.033749539 0
-0.99012256 -1.1198602 0.028356746 0
-0.39971063 -1.1664357 0.018034941 0
0.44180822 -1.1598804 0.0067349956 0
0.66753578 -1.1272016 0.010501969 0
0.75406682 -1.169629 0.018046154 0
0.80005515 -1.1499897 0.015998716 0
0.94601738 -1.1502593 0.0085151121 0
1.0331433 -1.1561397 0.017181708 0
-1.3267041 -1.0211827 0.050075609 0
-1.234 -1.0549999 0.041999999 0
-1.178853 -1.0071224 0.034229301 0
-0.93380105 -1.035275 0.031981979 0
-0.83499998 -1.008 0.034000002 0
-0.65963727 -1.0342047 0.025934046 0
-0.37036848 -1.0809486 0.011827951 0
0.38592744 -1.0447692 0.0012078742 0
0.56525719 -1.0057708 0.024259891 0
0.63499016 -1.0466577 0.0070639993 0
0.72580343 -1.0900126 0.0093474528 0
0.96562958 -1.0650685 0.033284776 0
-1.349475 -0.96687615 0.0557689 0
-1.2512269 -0.93933386 0.041609146 0
-1.1275793 -0.94858319 0.019327827 0
-1.0569415 -0.95109463 0.033446636 0
-0.94976616 -0.97006178 0.03570069 0
-0.850245 -0.95582378 0.028330142 0
-0.77707624 -0.91646951 0.021111969 0
-0.65665495 -0.95611632 0.01603291 0
-0.34102637 -0.99546146 0.0056209639 0
0.53100002 -0.94599998 0.032000002 0
0.87363505 -0.96098143 0.040785164 0
-1.3614321 -0.89064336 0.009350352 0
-1.2501527 -0.86899495 0.024358802 0
-1.1467623 -0.85590065 0.023708105 0
-1.0505687 -0.89574826 0.016152866 0
-0.95160931 -0.84595871 0.013483755 0
-0.83498394 -0.85105193 0.01729146 0
-0.74638069 -0.84785241 0.014945356 0
-0.61699998 -0.87300003 0.012 0
-0.5792225 -0.84942693 0.006663518 0
0.18899021 -0.8692469 0.0063085668 0
0.28009313 -0.82833421 0.012569537 0
0.30199999 -0.88700002 0.0070000002 0
-1.7777131 -0.70220375 0.057199985 0
-1.525 -0.80000001 0.028000001 0
-1.4464741 -0.75910103 0.02047459 0
-1.3495896 -0.70864046 0.011189837 0
-1.1474352 -0.79766333 0.007239202 0
-1.0552508 -0.78267562 0.0075610168 0
-0.84319651 -0.75226063 0.004194146 0
-0.72548479 -0.75948954 0.011017148 0
-0.67460012 -0.75527197 0.0048001963 0
-0.53117567 -0.74591398 0.0037476607 0
-0.45635355 -0.73244381 0.010631612 0
0.25059316 -0.74933422 0.020069536 0
-1.7045697 -0.67155564 0.043549981 0
-1.6357131 -0.64270371 0.030699987 0
-1.5384283 -0.63842595 0.029924996 0
-1.4637772 -0.64222383 0.035557792 0
-1.285 -0.67500001 0.0049999999 0
-0.42899999 -0.68900001 0.0049999999 0
-1.498 -0.58499998 0.0049999999 0
-1.360587 -0.59584218 0.021175882 0
-1.2573967 -0.54946053 0.0067939707 0
-1.4443884 0.36550659 0.0056671398 0
-1.3384221 0.35750267 0.022281326 0
-1.2412835 0.35049611 0.0091141853 0
-1.056981 0.37965274 0.021977255 0
-0.97043961 0.36291021 0.0087907296 0
-1.1419536 0.47462749 0.015862893 0
-1.0454233 0.44429302 0.020007655 0
-0.9885 0.43199998 0.022 0
-1.4443724 0.58019876 0.0077811158 0
-1.3494304 0.55760753 0.011410339 0
-1.2693125 0.53798181 0.010158893 0
-1.1844897 0.51605064 0.012567594 0
-1.6498954 0.66336644 0.0012968526 0
-1.5512908 0.64123297 0.005593705 0
-1.4563488 0.61864173 0.0092229284 0
-1.3597282 0.6730814 0.041238636 0
-1.2856522 0.63222092 0.050992426 0
-0.060889363 0.66297561 0.010272569 0
0.040977914 0.66795474 0.020013448 0
0.17891602 0.66514719 0.0039515896 0
0.24226564 0.6756649 0.010297727 0
0.37588063 0.66330701 0.0075491094 0
0.44069698 0.66801095 0.0019424418 0
1.1147795 0.68152326 0.0022225901 0
-1.559 0.78299999 0.015 0
-1.4414369 0.75751334 0.042816721 0
-1.302 0.79900002 0.050000001 0
-1.283 0.79699999 0.037999999 0
-1.1792402 0.78181994 0.029893436 0
-0.13356264 0.74748945 0.009684559 0
-0.054567717 0.75854075 0.0047374121 0
0.051578399 0.7581467 0.0096760308 0
0.11586231 0.76644373 0.0064127184 0
0.23490192 0.7465145 0.010052728 0
0.35753441 0.75356591 0.0093239332 0
0.44104514 0.7541945 0.010266926 0
0.5334937 0.77261233 0.014153379 0
0.84798896 0.79636693 0.0018095961 0
0.93768251 0.73159349 0.010816922 0
1.0546716 0.75188422 0.0051214183 0
1.1743463 0.73459864 0.013224241 0
1.25026 0.76869059 0.010671506 0
-1.717 0.84299999 0.015000001 0
-1.6543067 0.85931921 0.015855853 0
-1.533887 0.84485745 0.040267654 0
-1.4412712 0.88125187 0.03787522 0
-1.3480414 0.84958512 0.030458393 0
-1.2532351 0.85184503 0.019520426 0
-1.1812313 0.82334805 0.028386537 0
-1.0451264 0.84674436 0.010799238 0
-0.991 0.81800002 0.020000001 0
-0.35620093 0.85307765 0.0047168653 0
-0.25815779 0.83393478 0.0076088873 0
-0.15213813 0.82691616 0.016128918 0
-0.031975619 0.854451 0.010689205 0
0.026937416 0.85378647 0.014899454 0
0.12676039 0.86287129 0.017017951 0
0.25894758 0.84789824 0.020111175 0
0.39700001 0.80500001 0.004999999 0
0.46247265 0.81531286 0.01132561 0
0.55176121 0.86259508 0.013676994 0
0.6346519 0.86233354 0.017803295 0
0.70372462 0.88091534 0.002114417 0
0.85500002 0.81599998 -8.3607276e-16 0
0.9269917 0.87052524 0.014107196 0
1.0491091 0.86127663 0.023114732 0
1.1511285 0.83294183 0.011352261 0
1.2390069 0.8720926 0.024991071 0
1.3341143 0.86442184 0.028622504 0
1.4374371 0.88730621 0.034647003 0
-1.702 0.93300003 0.014 0
-1.6534375 0.90685099 0.0071186721 0
-1.5517936 0.96100366 0.017263643 0
-1.4557477 0.9380815 0.011944751 0
-1.3557088 0.92046881 0.0077786404 0
-1.2174361 0.96752429 0.015833192 0
-1.1391499 0.92264187 0.0075420449 0
-0.94922191 0.99138707 0.022561708 0
-0.89681458 0.9355914 0.011041138 0
-0.419 0.99199998 0.025 0
-0.3864018 0.95015526 0.018767064 0
-0.28631562 0.93061948 0.018217774 0
-0.16599999 0.90499997 0.021 0
-0.043827653 0.94942826 0.021838555 0
0.029123617 0.97030783 0.012676683 0
0.32734016 0.95352352 0.01884779 0
0.5613535 0.93022364 0.015964512 0
0.66900003 0.90900004 0.025000002 0
0.71933335 0.92799997 0.0019999996 0
-1.7220001 1.0649999 0.012666666 0
-1.6643915 1.0305381 0.0096767237 0
-1.4516382 1.0614908 0.027018011 0
-1.3721206 1.060897 0.013930552 0
-1.2809148 1.0176991 0.019444255 0
-1.0128146 1.0590913 0.036541138 0
-0.028999999 1.0065 0.027500002 0
0.095556274 1.0592856 0.0035557761 0
0.33649999 1.0025001 0.026500002 0
0.60669768 1.0584879 0.0063558328 0
-1.5583138 1.1581287 0.027559089 0
-1.4954708 1.1146932 0.036338635 0
0.10374171 1.1483808 0.0060743685 0
0.66033113 1.1526194 0.0036842013 0
-1.6540391 1.2234602 0.010384105 0
0.11192712 1.237476 0.0085929614 0
0.69423258 1.211496 0.006118611 0
0.73007506 1.2742368 0.0054309256 0
0.12011255 1.3265712 0.011111554 0
0.12829798 1.4156665 0.013630146 0
0.14057612 1.5493093 0.017408036 0
0.149 1.641 0.02 0
