# .PCD v0.7 - Point Cloud Data file format
VERSION 0.7
FIELDS x y z intensity
SIZE 4 4 4 4
TYPE F F F F
COUNT 1 1 1 1
WIDTH 265
HEIGHT 1
VIEWPOINT 0 0 0 1 0 0 0
POINTS 265
DATA ascii
-1.7013963 -0.55317545 -0.073057078 2
-1.7331862 -0.25260422 -0.071702443 2.2
-1.7604221 0.20467529 -0.056299828 2.5
-1.6131792 0.55090851 -0.082002871 2
-1.700315 1.0265689 -0.026003618 3
-1.7348928 -0.46569061 0.17999831 6.3000002
-1.7494743 -0.24563842 0.15819451 6.0666666
-1.7597804 0.205669 0.11511169 5.2857141
-1.7388147 1.2371019 0.009996051 3
-1.7121955 -0.42919958 0.45833164 11
-1.7428874 -0.25239098 0.46569803 11.2
-1.7517325 0.15429986 0.4349975 11
-1.7817694 -0.25531855 0.97212291 18.5
-1.7830122 -0.1144143 1.4789977 25
-1.8517497 1.3215145 1.5744959 22
-1.7990341 -0.20880926 1.8096645 27.333334
-1.8487793 1.3035108 1.6501623 22.666666
-1.6772856 -0.98776108 2.3555372 30.166666
-1.7619717 -0.68317175 2.3519061 30.666666
-1.8602771 0.66166997 2.3151968 29.666666
-1.7276257 1.0029175 2.3475692 29.6
-1.7452379 1.3708255 2.3555377 28
-1.7443041 1.6690861 2.3563392 26.5
-1.4705249 -0.91894281 -0.045600731 2.8
-1.4246578 -0.63945675 -0.031334378 2.3333333
-1.3503911 0.36328945 -0.028502272 2.5
-1.2890964 0.63459331 -0.053752553 2
-1.3628116 1.0751985 -0.021003235 3
-1.4292591 -0.90437466 0.074749306 4.5
-1.5278199 -0.59144139 0.16164877 6.3000002
-1.3360505 0.33171874 0.15501925 6.8000002
-1.2314569 0.7756511 0.029997336 4
-1.4657037 1.0505481 0.047996663 4
-1.5259528 -1.1134118 2.3601997 31
-1.5636487 1.2426761 2.3649962 30
-1.5877291 1.6504319 2.3599956 28
-1.3392785 2.0200579 2.3759954 27
-1.3801916 -1.7339381 2.5529006 29
-1.5443075 1.4790254 2.4749959 29
-1.4268441 1.7246809 2.5344124 28.833334
-1.382941 2.0178173 2.4408288 27.333334
-0.89789188 -0.83852255 -0.013000079 3
-0.97338164 -0.59758031 -0.070556059 1.3333334
-0.97576421 0.85442257 -0.065627433 1.6666666
-1.0239162 -0.99707913 0.024999967 4
-0.86862063 -0.41959959 0.36424941 15
-0.83447331 -0.37755775 0.26599941 12
-1.1353201 0.35310361 0.14694248 7
-1.0254561 0.42012855 0.16658141 8
-0.92176914 0.81778777 0.17387465 7.5454545
-0.84764922 -0.40368372 0.40699941 16
-0.91107005 -0.36247477 0.4463326 17
-0.97589743 0.81559634 0.50911069 15
-0.85431927 0.81816596 0.83349776 22.333334
-1.1104634 1.9557073 2.5604403 29
-0.71705055 -0.83015734 -0.096999854 0
-0.65793371 -0.63873672 -0.050194468 1.3333334
-0.59661955 0.81813341 -0.061748736 1.3
-0.44783339 1.7921937 -0.17500296 0
-0.78908855 -1.9579613 0.026001552 3
-0.61905152 -0.45129117 0.22323309 12.4
-0.68960816 -0.38984674 0.2871663 14.666667
-0.63487923 0.82176369 0.19277689 8.8214283
-0.53351724 1.9978639 0.037996639 4
-0.49961749 -0.47800869 0.45856246 22
-0.56732303 -0.33786747 0.49594417 24
-0.57738024 0.82053256 0.49821785 17.333334
-0.79650432 0.81827164 0.83799785 23
-0.46691433 -1.815158 2.5565021 28.666666
-0.16610913 0.61079222 -0.032441031 1.8
-0.29621142 0.83138669 -0.032193165 2
-0.22683716 4.0420351 -0.048005663 3
-0.21733752 0.32181016 0.36299929 26.5
-0.16828208 0.43507925 0.22049919 17
-0.25868064 0.83013248 0.1089669 6.9047618
-0.29582995 0.82675099 0.79499853 26
-0.19064189 -2.0389581 2.5634191 28.333334
-0.3124375 -1.9371771 2.5604901 28.666666
0.29291171 -1.0235611 -0.049664922 1
0.24639843 -0.73748505 -0.029255811 1.6363636
0.19425918 0.62999362 -0.034602161 1.6666666
0.067144454 2.0519581 -0.16400264 1
0.24966374 -0.72709996 0.17111324 9.5818186
0.33420858 0.31422117 0.34107146 22.285715
0.19333483 0.5352096 0.12079121 10.25
0.29504052 0.9133361 0.080290847 5.625
0.2133069 -0.70679647 0.57437122 23
0.30538154 0.29958859 0.43024999 26.5
0.01239423 -2.1197701 2.567122 28.5
0.54331994 -0.85448509 -0.025748143 2.5
0.54692942 -0.76704729 -0.034136277 1.4
0.52634436 0.62334722 -0.049000129 1.3333334
0.71773225 0.95211965 -0.037541974 2.25
0.51334918 1.5302539 -0.15933469 0
0.66254491 -1.3631151 0.016002689 4
0.52727866 -0.85205305 0.18615581 9.6000004
0.54360914 -0.70534658 0.21615818 10.939394
0.5084359 0.7935214 0.010999622 4
0.67829579 0.90500784 0.11775897 6.2222223
0.5763194 -0.80824095 0.66955858 24.5
0.54992712 -0.6590538 0.5562197 21.911112
0.64718282 0.90672243 0.56549966 17.5
0.68448573 -0.61709929 0.91102338 26.888889
0.60046464 -2.0796952 2.5693889 29.5
1.0179482 -1.355346 -0.11224685 1.25
0.99582487 -0.95769936 -0.12259741 0.60000002
0.96850926 -0.70759624 -0.050997775 2
1.0681986 0.59261411 -0.065499365 1.5
0.94268382 0.91109431 -0.073453523 1.5
0.93212891 -1.3793986 0.045003068 4
0.88538682 -0.95994824 0.041002449 4
0.88816214 -0.66186732 0.22263749 9.5
0.99710083 0.71658069 0.011333707 3.6666667
0.98191679 0.90057284 0.21034437 7.9047618
0.92688853 -0.69692189 0.54340214 16.4
1.0684415 0.89559221 0.50509542 13.571428
0.85458112 -0.63579088 0.90310198 24.5
0.89491916 -1.7887661 2.3763371 29.333334
0.93053085 -1.7671597 2.4290035 30
0.91034847 2.1052606 2.5536234 28.5
1.4852914 -1.6410168 -0.0079958523 3
1.4041874 -1.4587562 -0.1514962 1
1.59176 -1.1794441 -0.14599632 1
1.3834684 -0.72520828 -0.073782913 1.7142857
1.3509107 -0.22863995 -0.14974789 0
1.2744089 0.20875677 -0.15391524 0
1.3207394 0.52033365 -0.12287393 1
1.4033386 -0.76753235 0.04337788 4
1.3252991 0.8987363 0.21895058 7.2727275
1.5016804 -0.88961357 0.47022539 11
1.2855601 0.90017372 0.50375056 12.5
1.4174725 -1.686018 2.5212541 29
1.3742408 -1.3625504 2.4542491 30.25
1.529045 -1.1498832 2.4108784 30.5
1.824713 -0.8598997 -0.14699644 1
1.8007066 -0.5933513 -0.14699683 1
1.7295835 -0.19487467 -0.14474745 1
1.7298255 0.21400161 -0.14724799 1
1.6849948 0.42899504 -0.14699833 1
1.7417787 -1.2512037 2.4173791 28.5
1.9517345 -0.88770223 2.5849681 29.5
1.9458488 -0.43215939 2.589503 30.5
1.9311002 -0.20387602 2.5878074 31
1.9631217 0.26004052 2.5899429 30.666666
1.9162955 0.57900965 2.5857685 30.5
1.8748837 0.92545539 2.5827789 30
2.3611948 1.3978891 2.3980012 25
2.1874602 -0.93303943 2.585254 28
2.1832752 -0.60519576 2.5912356 28.700001
2.2156627 -0.21795264 2.5916181 28.888889
2.2305288 0.21158895 2.5942383 28.75
2.2376714 0.59084326 2.5687604 28.125
2.2199209 1.0030065 2.5438898 27.285715
2.2038655 1.3788352 2.5404978 26.285715
2.5848958 -2.5696249 -0.086993158 3
2.5936112 -2.3643818 -0.064993419 3
2.6826136 -1.9698715 -0.073993824 3
2.5088172 -1.016783 -0.083645321 2.5
2.5390453 -0.60786027 -0.060141657 2.5
2.5205331 -0.21764486 -0.062946364 2.5
2.6268578 0.18846799 -0.065788433 2.5
2.5659895 0.53068829 -0.11916398 2
2.4240854 0.95106757 -0.14549805 2
2.6137779 -2.5343471 0.2585068 5
2.6070423 -2.1501064 0.14750631 4.5
2.563637 -0.97267544 0.16988327 5
2.5684066 -0.58384699 0.21601024 5.7272725
2.5062575 -0.1963391 0.18452314 5.5384617
2.4980886 0.15699014 0.14419755 5
2.7075183 -1.2340075 0.62988025 9.5
2.6056643 -1.0129212 0.57633817 9.333333
2.5074451 -0.60405171 0.48302698 9
2.5015969 -0.20217456 0.48877442 9
2.4791911 0.13441801 0.4904753 9.333333
2.7944441 -1.5704961 0.86950582 11.5
2.5527968 -0.94406456 0.92000467 13
2.7728376 -0.87642372 1.357505 16.5
2.5673964 -0.61016488 1.3124043 16.799999
2.7276576 -1.663394 2.3920057 23
2.7240021 -1.3969308 2.3985054 23
2.6546412 -0.915892 2.3916714 24.333334
2.6623182 -0.6577121 2.3914211 24.666666
2.5590544 -0.14170831 2.3975036 25.666666
2.6556342 0.18694985 2.3926344 25
2.7942402 0.52266973 2.313503 24
2.5715344 1.0534391 2.3910019 24.5
2.6726866 1.3792818 2.3007514 23
2.7782714 1.7355043 2.2080014 21
2.7786219 -1.6944526 2.4150059 22
2.6600528 -1.4057714 2.4289219 23.5
2.5447438 -1.043178 2.5189333 25.285715
2.5250101 -0.5995903 2.4729428 26
2.4594834 -0.17919834 2.4762235 26.799999
2.5237899 0.19603236 2.4920032 26.333334
2.4218054 0.60652459 2.4758358 26.5
2.4724352 0.98530209 2.4673631 25.333334
2.4545164 1.4039099 2.4010015 24
2.6073785 1.6313094 2.4140012 23
2.9287431 0.4760628 -0.027996747 3
2.9176102 0.49310055 0.12200323 4.5
2.9013376 -1.6438838 0.61683935 9
2.8685868 -0.12929009 0.95037895 12.75
2.9131613 0.096317746 1.0314038 13.6
2.8163288 -0.88995147 1.2190049 15
2.8910925 0.21529898 1.3719412 16.5
2.9977636 -0.59256577 1.8497548 19.75
2.9684117 -0.10373104 1.933254 20.5
2.9144011 0.15712307 1.7622371 19.4
2.9746461 -1.6763448 2.244606 20.6
2.8951182 -1.2600631 2.2805831 22
2.905163 -1.0006702 2.2792554 22.5
2.8738296 -0.61781454 2.232471 22.714285
2.8788345 -0.2055157 2.2308931 23
2.8532994 0.26367891 2.2533784 23.25
2.8893676 0.51308376 2.1845031 22.5
2.8147941 1.2628475 2.2400019 22.5
2.8709154 1.8027384 2.2255571 20.333334
2.8229334 -1.246658 2.4130056 23
2.8577802 -1.1484693 2.4130054 23
2.8190222 -0.47105315 2.4130044 24
3.9408305 2.3877416 0.27700207 5
3.9381361 2.3616991 0.55266875 7
3.8735044 2.4127705 0.54900199 7
3.9955497 1.487144 0.94750333 9.5
3.9315321 2.3250139 0.9808771 9.5
3.9915607 1.3949649 1.3970034 13
3.9730248 2.2790694 1.4695023 12.5
3.9904485 1.4145031 1.9890035 16
3.9533215 2.3061113 1.728502 14
3.9353881 0.62457949 2.1993792 18
3.9388423 1.0183289 2.2035036 18
3.9925172 1.4024754 2.1005034 17
3.9652133 1.8000439 2.1265652 16.5
3.9626825 2.135324 2.1068773 16.25
4.1868138 0.94103801 -0.073995695 3
4.0243607 1.3513752 -0.077496454 3
4.1480145 1.7246004 -0.10899678 3
4.0388761 0.99856985 0.22527279 5
4.0245152 1.3514181 0.20792022 4.8333335
4.2235961 1.7506508 0.1668366 4.3333335
4.1691856 2.1450272 0.22011381 4.6666665
4.0537405 0.73115295 0.61622661 8
4.0374293 0.98855859 0.62624007 8
4.0183225 1.3476861 0.66823691 8.1999998
4.2674866 1.7094107 0.44933674 6.3333335
4.1606922 2.1760223 0.55234432 6.9000001
4.0027952 2.42381 0.66000211 7
4.1330838 0.65593523 1.0270047 10.666667
4.0741329 1.017699 0.99027067 10.2
4.1014509 1.3755262 1.0108036 10.2
4.1038618 2.2235575 1.0162691 9.8000002
4.0830727 0.6291914 1.4204109 13.125
4.0355563 0.99929541 1.3757874 13
4.0226865 1.3350123 1.3817118 12.833333
4.2026443 2.2223337 1.4525026 12.333333
4.1556692 0.63288635 1.7927549 15.333333
4.1076465 0.99239433 1.8449668 15.5
4.0895944 1.3664325 1.7963607 15
4.1256852 1.8210297 1.8785031 15
4.1282706 2.1983676 1.7673359 14.166667
4.0484753 0.62524623 2.0336297 17
4.0303249 0.99818528 2.0625541 17
4.0170951 1.4264005 2.1046283 17
4.013135 1.8029063 2.0591695 16.333334
4.479166 2.193979 1.492003 12
