# .PCD v0.7 - Point Cloud Data file format
VERSION 0.7
FIELDS x y z intensity
SIZE 4 4 4 4
TYPE F F F F
COUNT 1 1 1 1
WIDTH 89
HEIGHT 1
VIEWPOINT 0 0 0 1 0 0 0
POINTS 89
DATA ascii
-43.20863 -12.044899 10.581282 10
-41.516155 -15.234093 9.3549538 10
-40.192543 -17.692093 8.1889801 9
-8.1089849 -28.803957 22.243742 22
-7.8722711 7.7457352 9.4600878 25
-7.4345665 -2.0328455 0.44676268 5
-7.5341315 -1.9077146 0.66955197 6
-7.3814979 -2.4494247 0.26605156 4
-6.3136864 7.7061157 9.3536539 26
-6.2090569 -29.238983 10.734838 14
-6.0199189 7.6756163 9.5911245 27
-5.5199533 1.9824314 0.27977681 5
-5.4277382 7.6732311 9.3880796 27
-5.2694077 7.6375413 9.7193213 28
-4.8023353 -2.2291529 0.019143084 3
-4.418819 -15.913661 3.9953287 10
-4.0126853 -15.679924 4.2651501 11
-3.6433856 -15.892981 3.2588081 9
-2.884661 -2.1880178 0.14545725 4
-2.9352241 -28.779989 12.241254 15
-2.71293 1.8870025 0.10450784 4
-2.6799769 2.4712319 0.16385235 5
-2.7363102 1.837029 0.2314408 5
-2.5455527 -2.1634703 -0.062930338 2.5
-2.4909036 -2.180732 0.25469762 5.5
-2.3099477 -2.1927807 0.058568005 4
-2.258301 -29.420298 9.7520838 13
-2.1482427 -28.901501 10.739359 14
-1.9237244 -2.3092163 -0.048464969 3
-1.994153 -2.1542635 0.12116011 5
-1.9833058 -2.1464343 0.58117312 9
-1.8448225 -2.186718 0.60752547 10
-1.7227093 -2.1845317 0.36878803 7
-1.6046335 -2.1926074 0.55206609 9
-1.4630107 -2.2715914 0.13752402 5
-1.4216074 -2.2551045 0.28559574 6
-1.5131599 -2.2110019 0.61930674 10
-0.91407663 1.6361451 0.080637783 5
-0.82845294 1.6052016 0.26477873 7.5
-0.65777141 1.6460245 0.10375202 5
-0.4925088 1.6768367 0.079361245 5
-0.44342348 1.7047912 0.25844187 7.5
-0.2173533 -15.914759 3.3179731 9
-0.26635796 -16.134167 3.7282748 10
-0.27046674 9.4350786 3.9278967 15
-0.0084207365 9.4139252 1.1181052 7
0.10098727 9.4058762 0.56518805 5
0.080917001 9.4118795 0.80517322 6
0.043800313 9.4158831 2.0931454 10
0.28071636 9.3197355 1.5093178 8
0.71096575 1.3552859 0.17247432 7
0.65653861 1.8144232 0.038814913 4
0.85797989 1.2885449 0.17745629 6.5
0.97028857 9.380249 0.59475338 5
0.80169201 9.3813639 0.99565697 6
0.93020982 9.3802319 1.2337308 7
1.1122557 -2.5985286 0.71391875 10
1.0902505 -15.901839 3.9859755 11
1.2805114 -2.2860894 0.35196653 7.5
1.284234 -2.275075 0.53196108 9
1.2548255 -2.5101244 0.72934115 11
1.3188123 -16.106184 3.6133187 10
1.5389293 -2.244297 0.11351601 4.5
1.5944239 -2.237762 0.30725256 6
1.4538184 -2.2342503 0.61062181 10
1.6180958 -2.2314103 0.35334572 7
1.6833422 7.3720012 7.4720163 27
1.8421271 7.3376751 7.3650599 26
1.9405463 -26.264656 11.125118 15
2.0996213 -26.229546 9.8266563 14
3.5373993 -2.2529743 0.596277 7
3.9017112 -26.480333 5.5424089 9
3.826133 7.1378531 6.7679911 24
4.2298965 -26.375416 3.2584991 7
4.2839575 -26.356613 9.0187407 13
4.5366096 -26.381998 2.5487673 6
4.902544 7.3949909 9.4566402 28
5.8960881 7.2075887 7.5779638 24
6.364882 7.2972608 9.5706692 27
6.7197232 7.3553538 9.3284235 26
6.9505959 -26.334856 21.037998 23
7.4183059 7.132544 9.6886759 26
8.0685148 1.2334268 0.79376125 6
8.0315914 0.94070864 0.909284 7
10.37618 7.0030088 7.7683907 20
10.480881 7.0010118 7.2802639 19
11.265115 6.9658942 5.2952647 15
20.036459 -27.311522 14.353041 15
43.047485 5.340663 17.102955 15
