# .PCD v0.7 - Point Cloud Data file format
VERSION 0.7
FIELDS x y z intensity
SIZE 4 4 4 4
TYPE F F F F
COUNT 1 1 1 1
WIDTH 1274
HEIGHT 1
VIEWPOINT 0 0 0 1 0 0 0
POINTS 1274
DATA ascii
-4.631 -3.05 -0.233 0
-4.5563374 -2.9997606 -0.22157773 0
-4.4816747 -2.9495213 -0.21015549 0
-4.414 -2.2420001 -0.245 0
-4.3409472 -2.2042286 -0.24624522 0
-4.2620788 -2.16345 -0.24758957 0
-4.1832104 -2.1226714 -0.24893391 0
-4.104342 -2.0818927 -0.25027826 0
-4.0254736 -2.0411143 -0.25162262 0
-3.9466052 -2.0003357 -0.25296697 0
-3.8677368 -1.9595572 -0.25431129 0
-3.7888684 -1.9187785 -0.25565565 0
-2.0420001 -1.928 -0.208 0
-3.71 -1.878 -0.257 0
-2.4624772 -0.95293027 -0.21868986 0
-2.3345973 -0.9353621 -0.21581559 0
-2.2501976 -0.9018774 -0.21361385 0
-2.503 -0.86799997 -0.219 0
-2.4343865 -0.844289 -0.21722168 0
-2.3523343 -0.84747344 -0.21538371 0
-2.2711296 -0.84869933 -0.21379371 0
-2.1760182 -0.84275234 -0.2116158 0
-2.0813982 -0.83490807 -0.2092104 0
-1.9969985 -0.80142337 -0.20700866 0
-2.2629092 -0.7850312 -0.21277735 0
-2.1392589 -0.77046347 -0.21020022 0
-2.0539439 -0.73985529 -0.20810203 0
-1.9220818 -0.74514425 -0.20535189 0
-1.8281991 -0.73445404 -0.20260519 0
-1.7437994 -0.70096934 -0.20040347 0
-2.0056932 -0.69614446 -0.20611084 0
-1.9199545 -0.66651559 -0.20388867 0
-1.8404447 -0.66382444 -0.20279457 0
-1.7617824 -0.65917486 -0.20194842 0
-4.3513155 -0.24389845 -0.22636718 0
-4.2413383 -0.23804167 -0.22831944 0
-4.1520457 -0.23328647 -0.2299045 0
-4.0627537 -0.22853126 -0.23148958 0
-3.9734614 -0.22377604 -0.23307465 0
-3.8841691 -0.21902084 -0.23465972 0
-3.7502308 -0.21188802 -0.23703733 0
-3.6162922 -0.20475522 -0.23941493 0
-3.527 -0.2 -0.241 0
-4.4330139 -0.043983597 -0.23101203 0
-4.3420248 -0.042470478 -0.23212166 0
-4.2520218 -0.040973756 -0.23321925 0
-4.1620193 -0.039477035 -0.23431684 0
-4.0720167 -0.037980318 -0.23541443 0
-3.9820137 -0.036483597 -0.23651204 0
-3.8470097 -0.034238517 -0.23815842 0
-3.7120056 -0.031993438 -0.2398048 0
-3.6220028 -0.030496718 -0.24090241 0
-3.5320001 -0.028999999 -0.242 0
-2.0150001 0.96100003 -0.20200001 0
-1.9408836 0.92451787 -0.20071992 0
-3.4379225 1.3737769 -0.23922695 0
-3.3599999 1.341 -0.23999999 0
-3.9235938 1.4757645 -0.23828821 0
-3.8599453 1.4488235 -0.23121616 0
-3.6716905 1.4721079 -0.23690782 0
-3.5548067 1.4229424 -0.23806739 0
-4.0469999 1.528 -0.252 0
-3.985297 1.5018823 -0.2451441 0
-3.845768 1.5453309 -0.23518088 0
-3.7496133 1.5048848 -0.23613478 0
-3.4480748 1.5743886 -0.24072979 0
-3.3665373 1.5371943 -0.2388649 0
-3.2850001 1.5 -0.237 0
-3.6519182 1.6673744 -0.24539202 0
-3.5296121 1.6115829 -0.24259469 0
-3.9372988 1.7975544 -0.25191915 0
-3.8557615 1.76036 -0.25005427 0
-3.7742243 1.7231658 -0.24818937 0
-4.0454178 1.8468742 -0.25439203 0
-2.2820001 2.346 -0.204 0
-2.4085579 2.463244 -0.20947869 0
-2.345279 2.4046218 -0.20673934 0
-2.5351155 2.580488 -0.21495739 0
-2.4718366 2.5218658 -0.21221803 0
-2.6616731 2.6977317 -0.22043608 0
-2.5983944 2.6391098 -0.21769673 0
-2.7344761 2.7651768 -0.22358772 0
-3.187 3.323 -0.212 0
-2.0866623 -3.8107715 -0.10996617 0
1.868 -3.825 -0.101 0
-2.0462184 -3.7343097 -0.12447181 0
1.8415794 -3.7702413 -0.10430258 0
-2.0057747 -3.6578476 -0.13897744 0
1.7677196 -3.6171608 -0.11353505 0
1.8046495 -3.693701 -0.10891882 0
-1.9451092 -3.5431547 -0.16073591 0
1.7307897 -3.5406206 -0.11815129 0
-1.8844436 -3.428462 -0.18249436 0
-0.32600001 -3.411 -0.171 0
-0.169 -3.4619999 -0.168 0
-0.08839564 -3.4382496 -0.16604316 0
1.6938598 -3.4640806 -0.12276752 0
-1.931 -3.326 -0.197 0
-1.844 -3.352 -0.197 0
-1.6380773 -3.3336487 -0.193 0
-1.4488537 -3.3235679 -0.19096792 0
-1.363741 -3.3363178 -0.189 0
-1.1767917 -3.3062983 -0.186 0
-0.55226582 -3.3272955 -0.17498824 0
-0.40200001 -3.3840001 -0.17200001 0
-0.34631041 -3.3498538 -0.17134725 0
-0.16527189 -3.3784182 -0.168 0
-0.085963942 -3.3225706 -0.16621685 0
1.6384649 -3.3492703 -0.12969188 0
-1.9156308 -3.2979939 -0.19703415 0
-1.8721677 -3.2187946 -0.19713074 0
-1.5979152 -3.2463756 -0.193 0
-1.4063691 -3.2193685 -0.19081883 0
-1.3324219 -3.2538061 -0.189 0
-1.1489285 -3.2209399 -0.186 0
-0.912 -3.26 -0.182 0
-0.89731771 -3.2007558 -0.182 0
-0.63638848 -3.2575834 -0.17632906 0
-0.53780591 -3.2346365 -0.17475688 0
-0.34830418 -3.2414563 -0.17158076 0
-0.15942791 -3.2474 -0.168 0
-0.08413662 -3.235642 -0.16634738 0
-1.8287046 -3.139595 -0.19722731 0
-1.5606757 -3.1654537 -0.193 0
-1.3371961 -3.1547892 -0.18985093 0
-1.1222738 -3.1392832 -0.186 0
-1.0549999 -3.112 -0.185 0
-0.93849999 -3.1245 -0.1805 0
-0.85622704 -3.1478024 -0.1805 0
-0.75788486 -3.1786911 -0.176 0
-0.63021356 -3.1730967 -0.17680451 0
-0.55793774 -3.1260769 -0.17465255 0
-0.49700001 -3.1329999 -0.175 0
-0.33925867 -3.1540008 -0.17164063 0
-0.15358394 -3.1163819 -0.168 0
-0.082309298 -3.1487136 -0.1664779 0
-1.7852416 -3.0603957 -0.1973239 0
-1.5234363 -3.0845318 -0.193 0
-1.486197 -3.0036097 -0.193 0
-1.3396922 -3.0558348 -0.19058488 0
-1.2547712 -3.0492325 -0.189 0
-1.117 -3.059 -0.186 0
-1.076425 -3.0404708 -0.18554856 0
-0.95102811 -3.0346451 -0.18082699 0
-0.85324192 -3.0722978 -0.18031935 0
-0.76444501 -3.0462976 -0.17760748 0
-0.63995999 -3.0758121 -0.17829867 0
-0.54323238 -3.0382802 -0.17448789 0
-0.44466248 -3.060585 -0.17430897 0
-0.36327934 -3.0474992 -0.17246096 0
-0.27540901 -3.0273259 -0.171 0
-0.14968796 -3.0290363 -0.168 0
-0.080481976 -3.0617852 -0.16660842 0
-1.7417785 -2.9811964 -0.19742049 0
-1.6983154 -2.9019971 -0.19751708 0
-1.4489576 -2.9226878 -0.193 0
-1.3063538 -2.9740677 -0.19046791 0
-1.2081808 -2.9264884 -0.189 0
-1.0485405 -2.9600723 -0.18536037 0
-0.9535116 -2.9293876 -0.18281201 0
-0.84695393 -2.9538095 -0.18036401 0
-0.74357802 -2.9598215 -0.17766355 0
-0.64582437 -2.9428003 -0.17709954 0
-0.56042528 -2.9301941 -0.17454842 0
-0.45989707 -2.9541194 -0.17413568 0
-0.34818622 -2.9163327 -0.17264064 0
-0.27321416 -2.9379852 -0.171 0
-0.15531051 -2.949327 -0.16843976 0
-0.078654647 -2.9748569 -0.16673894 0
-4.4070125 -2.899282 -0.19873323 0
-4.3323498 -2.8490427 -0.18731096 0
-1.6548523 -2.8227975 -0.19761366 0
-1.4117181 -2.8417659 -0.193 0
-1.256346 -2.8514175 -0.19029245 0
-1.1771206 -2.8446589 -0.189 0
-1.0319492 -2.8471584 -0.18550552 0
-0.95488799 -2.8361011 -0.185 0
-0.84439451 -2.854501 -0.1805526 0
-0.74890888 -2.8381026 -0.17943925 0
-0.63888049 -2.8328285 -0.17649999 0
-0.5447402 -2.8425555 -0.17443874 0
-0.45096767 -2.8779392 -0.17395948 0
-0.33812416 -2.8288884 -0.17276043 0
-0.27605793 -2.8669343 -0.171 0
-0.16214795 -2.8570459 -0.1690497 0
-0.041735865 -2.8517704 -0.16580033 0
0.13440697 -2.8601558 -0.16220349 0
0.2 -2.8580141 -0.16 0
0.32995319 -2.845212 -0.15700391 0
-4.2576871 -2.7988033 -0.17588872 0
-4.1830244 -2.7485638 -0.16446646 0
-1.6113892 -2.7435982 -0.19771025 0
-1.3744787 -2.7608438 -0.193 0
-1.2063384 -2.7287669 -0.19011697 0
-1.1460602 -2.7628295 -0.189 0
-1.0077727 -2.7490673 -0.18395199 0
-0.95850003 -2.7465 -0.1855 0
-0.87368536 -2.7764301 -0.180218 0
-0.77232403 -2.7621524 -0.18019402 0
-0.65700883 -2.7347255 -0.176 0
-0.52905512 -2.7549167 -0.17432906 0
-0.46231437 -2.7508864 -0.17354903 0
-0.32806206 -2.7414443 -0.1728802 0
-0.23451449 -2.7632337 -0.171 0
-0.138 -2.767 -0.168 0
0.1360631 -2.7305622 -0.16303155 0
0.2 -2.7547569 -0.16 0
0.32395321 -2.7442122 -0.1575039 0
0.51852071 -2.7695031 -0.15235418 0
0.70805657 -2.7278149 -0.1492016 0
2.6911318 -2.7515156 -0.10174751 0
-4.7670002 -2.664 -0.142 0
-4.6924105 -2.6202881 -0.12992842 0
-4.1083622 -2.6983244 -0.15304419 0
-4.0336995 -2.6480851 -0.14162195 0
-1.5679262 -2.6643989 -0.19780684 0
-1.3372394 -2.6799219 -0.193 0
-1.1440001 -2.664 -0.1895 0
-0.97766227 -2.6636293 -0.18338743 0
-0.83501405 -2.6473227 -0.17991349 0
-0.73659062 -2.656981 -0.17924406 0
-0.63725662 -2.6477942 -0.176 0
-0.5133701 -2.6672778 -0.17421937 0
-0.44172573 -2.6189544 -0.17321961 0
-0.31799999 -2.654 -0.17299999 0
-0.25999999 -2.6919999 -0.171 0
0.13703156 -2.6547811 -0.16351578 0
0.31799999 -2.6440001 -0.15800001 0
0.49601382 -2.6106689 -0.15556946 0
0.50602764 -2.6813376 -0.15413891 0
0.68833482 -2.6394725 -0.15055241 0
0.85447311 -2.6526089 -0.14480983 0
1.051 -2.605 -0.142 0
2.5750792 -2.6225095 -0.1054485 0
2.6331055 -2.6870124 -0.10359801 0
-4.6178207 -2.5765762 -0.11785683 0
-4.543231 -2.5328646 -0.10578524 0
-4.04 -2.5139999 -0.118 0
-3.9590368 -2.5978458 -0.1301997 0
-3.8556871 -2.5283031 -0.11438872 0
-1.5244631 -2.5851994 -0.19790341 0
-1.4809999 -2.506 -0.198 0
-1.3 -2.599 -0.193 0
-0.94755185 -2.578191 -0.18282285 0
-0.77038479 -2.5398202 -0.17911372 0
-0.65023398 -2.5704517 -0.17788786 0
-0.46284252 -2.5553193 -0.17355484 0
0.138 -2.579 -0.164 0
0.486 -2.54 -0.15700001 0
0.67155659 -2.5643148 -0.15170161 0
0.79024065 -2.5404024 -0.14765994 0
0.85420012 -2.5404963 -0.14611825 0
0.9927693 -2.5638525 -0.14265971 0
1.0583082 -2.5453892 -0.14190705 0
1.135 -2.5339999 -0.14300001 0
2.5170527 -2.5580063 -0.107299 0
2.8775549 -2.5524318 -0.10168047 0
-3.9691772 -2.4765384 -0.10383546 0
-0.91744149 -2.4927528 -0.18225828 0
-0.88733113 -2.4073145 -0.18169372 0
-0.74558985 -2.453547 -0.17890914 0
-0.64999092 -2.4510102 -0.17994393 0
-0.59775221 -2.4739316 -0.176 0
-0.48199999 -2.4920001 -0.17399999 0
0.64638913 -2.4515786 -0.1534254 0
0.76916045 -2.4639351 -0.14910664 0
0.81982863 -2.4254265 -0.14821042 0
0.95173848 -2.4480968 -0.1445618 0
1.0226021 -2.4468894 -0.14341903 0
1.134321 -2.454881 -0.14282703 0
2.4300132 -2.4612515 -0.11007475 0
2.8239999 -2.4960001 -0.105 0
-0.85722077 -2.3218765 -0.18112914 0
-0.7447809 -2.3460717 -0.179203 0
-0.68490446 -2.3452377 -0.17810307 0
-0.57800001 -2.3870001 -0.176 0
0.75733155 -2.3490603 -0.15071951 0
0.96406388 -2.3549106 -0.14513962 0
1.0504494 -2.3458333 -0.14465787 0
1.1233933 -2.3589389 -0.14285505 0
1.2308329 -2.3626277 -0.14246394 0
1.3 -2.3510001 -0.141 0
1.6979899 -2.3525469 -0.13114645 0
1.711 -2.3710001 -0.131 0
-0.82711035 -2.2364383 -0.18056458 0
-0.71899998 -2.26 -0.17900001 0
0.77399999 -2.2720001 -0.15099999 0
0.88335389 -2.2551706 -0.14773194 0
0.95421267 -2.2425039 -0.14598447 0
1.0699289 -2.2472925 -0.14390336 0
1.141921 -2.2555811 -0.14396892 0
1.2341795 -2.2562995 -0.14179492 0
1.593992 -2.2050376 -0.13231716 0
1.645991 -2.2787921 -0.13173181 0
-2.2669735 -2.1422606 -0.16514793 0
-0.79699999 -2.151 -0.18000001 0
0.8821075 -2.1420748 -0.14810191 0
0.96512836 -2.1559522 -0.14633082 0
1.0582869 -2.1535525 -0.1447295 0
1.1738387 -2.1477664 -0.14194572 0
1.2579153 -2.1641326 -0.14095891 0
1.5539414 -2.1615856 -0.1312453 0
1.6345 -2.1234999 -0.12800001 0
1.7874568 -2.1441011 -0.12703645 0
-2.2062101 -2.0843906 -0.17672189 0
-2.1514735 -2.0322604 -0.18714792 0
0.86105794 -2.0321798 -0.14704458 0
0.96421432 -2.067477 -0.14610039 0
1.0678997 -2.0496016 -0.14372432 0
1.1367755 -2.047904 -0.14308488 0
1.2537138 -2.0442448 -0.14125007 0
1.3150001 -2.0574999 -0.13850001 0
1.4742048 -2.0446324 -0.13370228 0
1.5474738 -2.0563722 -0.13064063 0
1.6564045 -2.0415347 -0.12912257 0
1.7270041 -2.0328233 -0.11965975 0
1.858 -2.029 -0.127 0
-2.0967367 -1.9801302 -0.19757396 0
0.82679343 -1.9481349 -0.14778343 0
1.0413898 -1.9368441 -0.1431759 0
1.1540896 -1.9645019 -0.14238699 0
1.2509984 -1.942059 -0.13779728 0
1.3746653 -1.9060063 -0.13621952 0
1.4534707 -1.9595546 -0.12801045 0
1.5555872 -1.9688812 -0.11288635 0
1.6391391 -1.9266027 -0.12386463 0
1.7256384 -1.9360381 -0.1289589 0
1.8386755 -1.9422162 -0.12668404 0
0.79252899 -1.8640898 -0.14852229 0
0.94314396 -1.8511217 -0.14692837 0
1.024789 -1.8432928 -0.14326215 0
1.1423663 -1.8457044 -0.14138032 0
1.2032162 -1.8363807 -0.13719188 0
1.3490021 -1.8491768 -0.13677846 0
1.4525977 -1.855902 -0.12609646 0
1.5529337 -1.8587507 -0.12072754 0
1.643343 -1.839251 -0.13136256 0
1.7540884 -1.8447102 -0.12926979 0
1.8659607 -1.8420186 -0.12451911 0
1.925 -1.8279999 -0.124 0
-1.163619 -1.7398545 -0.18959592 0
0.75826448 -1.7800449 -0.14926115 0
0.88351083 -1.7297838 -0.14781623 0
0.96968347 -1.7741892 -0.14739323 0
1.0789441 -1.7565076 -0.14246827 0
1.1626081 -1.7676904 -0.13759594 0
1.2709014 -1.7602432 -0.13808863 0
1.3663861 -1.744656 -0.13055862 0
1.4580808 -1.7334865 -0.13049594 0
1.540399 -1.7598082 -0.13361639 0
1.6465183 -1.7491611 -0.13228697 0
1.7417678 -1.7684768 -0.12875983 0
1.8675057 -1.7257098 -0.12518503 0
1.9380831 -1.7635173 -0.12336697 0
0.72399998 -1.696 -0.15000001 0
0.86182499 -1.6331441 -0.14876959 0
0.94886649 -1.6546502 -0.14811522 0
1.0174161 -1.6902614 -0.14695242 0
1.1516232 -1.6438838 -0.13952176 0
1.2487717 -1.6584046 -0.13553225 0
1.3518157 -1.6647902 -0.13347055 0
1.4295001 -1.6605 -0.13749999 0
1.5439739 -1.655176 -0.13602154 0
1.6246043 -1.643381 -0.132681 0
1.7462435 -1.6389194 -0.12876834 0
1.8201829 -1.6611915 -0.12674786 0
1.9667683 -1.6396185 -0.12532568 0
2.0276949 -1.652932 -0.12337416 0
0.81949997 -1.5534999 -0.14950001 0
0.92847204 -1.5367538 -0.14898415 0
1.1490455 -1.5321393 -0.14314699 0
1.2439653 -1.5554345 -0.13835001 0
1.364084 -1.5476381 -0.13766362 0
1.4675778 -1.5596288 -0.13743384 0
1.5453112 -1.569273 -0.1351524 0
1.6658206 -1.5395806 -0.13181104 0
1.7737607 -1.5464587 -0.12981534 0
1.8533535 -1.5403068 -0.12845473 0
1.9284108 -1.5650909 -0.12646842 0
2.0435951 -1.5300229 -0.12442344 0
2.1074133 -1.5306909 -0.12112696 0
0.884 -1.46 -0.15000001 0
0.99746746 -1.4071629 -0.14839134 0
1.0499349 -1.4773257 -0.14678267 0
1.1405165 -1.4498426 -0.14284001 0
1.346 -1.4205 -0.139 0
1.4590937 -1.4603536 -0.13822898 0
1.5592537 -1.4484245 -0.13459626 0
1.6303568 -1.4721576 -0.13260028 0
1.739759 -1.4402894 -0.13133509 0
1.8518223 -1.4491211 -0.1284841 0
1.9602176 -1.4287421 -0.12577921 0
2.0481234 -1.4568996 -0.12356109 0
2.124855 -1.4473553 -0.11977039 0
0.94499999 -1.337 -0.15000001 0
1.0577583 -1.3494213 -0.14542001 0
1.3731093 -1.3285537 -0.13923974 0
1.4638683 -1.3650513 -0.13849223 0
1.5249879 -1.3719751 -0.13771439 0
1.656724 -1.3607359 -0.13403215 0
1.7351913 -1.3910264 -0.1323557 0
1.8617468 -1.3414434 -0.12768939 0
1.9705629 -1.33087 -0.12397963 0
2.0633364 -1.3447614 -0.12264352 0
2.1452043 -1.3519844 -0.1199219 0
0.97500002 -1.249 -0.148 0
1.2588531 -1.2576752 -0.14213565 0
1.3431857 -1.2431026 -0.14154829 0
1.4674789 -1.2366388 -0.13975368 0
1.5441451 -1.2687885 -0.13726602 0
1.6728264 -1.2311188 -0.13212803 0
1.7478137 -1.2560422 -0.13025258 0
1.8259468 -1.2544681 -0.12818885 0
1.938666 -1.2454129 -0.12531932 0
2.0459163 -1.2519197 -0.12264204 0
2.133425 -1.2381051 -0.11966401 0
2.204 -1.245 -0.117 0
2.414 -1.21 -0.111 0
1.1343656 -1.1384323 -0.14434385 0
1.2501237 -1.1540684 -0.14303219 0
1.3386526 -1.1244259 -0.14150245 0
1.4235328 -1.1797662 -0.13881403 0
1.5541487 -1.1468806 -0.13439752 0
1.6445509 -1.1470772 -0.13277513 0
1.7698473 -1.149977 -0.12933318 0
1.8617116 -1.158007 -0.12696539 0
1.950266 -1.1647208 -0.12491375 0
2.0571628 -1.1371449 -0.12161011 0
2.1470532 -1.1644602 -0.11974664 0
2.2388599 -1.1406109 -0.11661581 0
2.3626041 -1.1839132 -0.11249581 0
1.041 -1.049 -0.146 0
1.1570619 -1.0650342 -0.1445161 0
1.2420328 -1.040266 -0.14281404 0
1.4649999 -1.0595 -0.13500001 0
1.5370947 -1.0533941 -0.13523959 0
1.6411188 -1.0329947 -0.13250169 0
1.7451069 -1.0698228 -0.1298466 0
1.8536714 -1.063223 -0.12700659 0
1.9467592 -1.067346 -0.12465981 0
2.0458384 -1.0379623 -0.12182865 0
2.1462884 -1.051617 -0.11961607 0
2.2718225 -1.0418787 -0.11709702 0
1.064 -0.97600001 -0.146 0
1.1454132 -0.95610642 -0.14412561 0
1.489 -0.949 -0.134 0
1.5476904 -0.94796085 -0.13455634 0
1.6608588 -0.94479322 -0.13228303 0
1.7522985 -0.95078129 -0.12972887 0
1.8518333 -0.95355493 -0.12670802 0
1.9412298 -0.95635974 -0.12457792 0
2.0212901 -0.95340031 -0.12277102 0
2.1411457 -0.94626296 -0.120153 0
2.2649519 -0.94103098 -0.11573574 0
2.3583415 -0.96539569 -0.11208925 0
1.081 -0.89999998 -0.145 0
1.5522497 -0.84430313 -0.13412315 0
1.6502262 -0.8365978 -0.13170996 0
1.7625291 -0.85362881 -0.12907805 0
1.8682386 -0.84784871 -0.12648715 0
1.953617 -0.84214634 -0.12369896 0
2.0398521 -0.8456971 -0.1217777 0
2.1337831 -0.855048 -0.11962129 0
2.2172608 -0.84839725 -0.1174669 0
2.3064232 -0.85233617 -0.11509611 0
1.544 -0.75749999 -0.1345 0
1.6400187 -0.75452048 -0.13146034 0
1.7582437 -0.74181479 -0.12861241 0
1.8640693 -0.74949366 -0.1256097 0
1.9597317 -0.75980806 -0.12343332 0
2.0484219 -0.74136513 -0.12114748 0
2.1482282 -0.74562651 -0.11800689 0
2.2394872 -0.74411964 -0.11564326 0
2.3288157 -0.77373391 -0.11346599 0
-1.7484773 -0.60725778 -0.19944432 0
-1.6681454 -0.64753604 -0.19908798 0
-1.575 -0.634 -0.19599999 0
1.5476665 -0.65149999 -0.133 0
1.6310006 -0.64909977 -0.130787 0
1.7449973 -0.65691894 -0.12841244 0
1.8610668 -0.64528352 -0.12516145 0
1.9550391 -0.6511184 -0.12274309 0
2.0619297 -0.64931548 -0.11986633 0
2.1455705 -0.65130788 -0.11768139 0
2.2423253 -0.64683276 -0.11444873 0
2.3248196 -0.65167546 -0.11114091 0
-1.6627387 -0.57762885 -0.19722216 0
-1.5845001 -0.57200003 -0.1965 0
1.5526667 -0.55033332 -0.133 0
1.6413374 -0.55213106 -0.13088766 0
1.7435927 -0.55616546 -0.12815276 0
1.8532883 -0.53867394 -0.12516147 0
1.9689454 -0.55901974 -0.12167429 0
2.0627499 -0.55053818 -0.11878062 0
2.1487567 -0.5636043 -0.11669645 0
2.2500222 -0.58394659 -0.11213864 0
2.3239999 -0.51099998 -0.113 0
1.5606667 -0.44650003 -0.13266666 0
1.6415292 -0.45326629 -0.1308295 0
1.7495884 -0.44818103 -0.12805869 0
1.8449123 -0.45298257 -0.12479224 0
1.9430317 -0.44525698 -0.12178537 0
2.0533385 -0.44199663 -0.11896762 0
2.1537516 -0.45210359 -0.11592524 0
2.2582619 -0.46327567 -0.11320928 0
2.3196666 -0.43900001 -0.11166667 0
1.5527999 -0.3436 -0.1332 0
1.6418362 -0.34156355 -0.13021362 0
1.7369454 -0.35178635 -0.12804496 0
1.8440088 -0.3442688 -0.12515177 0
1.9536403 -0.34658656 -0.12151559 0
2.0624461 -0.35054955 -0.11896636 0
2.1633313 -0.34925625 -0.11648058 0
2.2747681 -0.34615755 -0.11278819 0
2.302 -0.37200001 -0.111 0
1.5625 -0.25433332 -0.13316667 0
1.6498506 -0.24537407 -0.13120797 0
1.7446725 -0.25370577 -0.12818618 0
1.8395929 -0.25578594 -0.12565158 0
1.9455924 -0.23781508 -0.12274545 0
2.0554483 -0.24141723 -0.1192944 0
2.1494727 -0.25258225 -0.11668962 0
2.26861 -0.2379847 -0.1129417 0
2.323 -0.237 -0.113 0
1.5611666 -0.16250001 -0.1345 0
1.6431214 -0.14371118 -0.13133021 0
1.740384 -0.15653153 -0.12865794 0
1.8512338 -0.15256374 -0.12545836 0
1.9654899 -0.14931853 -0.12227976 0
2.0515194 -0.15622623 -0.11975163 0
2.1535797 -0.16467021 -0.11672375 0
1.54775 -0.052250002 -0.1345 0
1.6465008 -0.033961512 -0.1324771 0
1.7480513 -0.045516148 -0.12953292 0
1.8475003 -0.052136246 -0.12662271 0
1.9496258 -0.054036859 -0.12333015 0
2.0361042 -0.057620287 -0.12069561 0
2.1438055 -0.062182833 -0.11743721 0
2.277 -0.097000003 -0.114 0
1.494 0.063000001 -0.13500001 0
1.5654155 0.056181978 -0.1331851 0
1.6513982 0.058552247 -0.13085361 0
1.7376596 0.047389548 -0.12829943 0
1.8412726 0.050845686 -0.12537262 0
1.9537072 0.043769456 -0.12255885 0
2.0543172 0.052440722 -0.11982453 0
2.1355121 0.05927112 -0.11783278 0
2.2434525 0.060993753 -0.11501329 0
1.529 0.14950001 -0.132 0
1.6409916 0.16695827 -0.12954549 0
1.7533331 0.14632773 -0.12760518 0
1.8490651 0.13084841 -0.12568969 0
1.9530725 0.13041322 -0.12303286 0
2.061677 0.14571814 -0.12023087 0
2.1330578 0.15928359 -0.11867986 0
1.4671326 0.27627248 -0.13436377 0
1.5386001 0.25666398 -0.13218665 0
1.6470736 0.22907107 -0.12978059 0
1.7489016 0.24986371 -0.12743491 0
1.8538226 0.25443155 -0.12477466 0
1.9501327 0.23232925 -0.12225141 0
2.0351593 0.24159509 -0.12030168 0
2.1168497 0.24180806 -0.11871287 0
1.4711405 0.37233761 -0.13556898 0
1.5422735 0.37726367 -0.13240454 0
1.6655474 0.34234726 -0.12824228 0
1.749321 0.35827088 -0.12611344 0
1.8490012 0.33127964 -0.12373284 0
1.9504572 0.32508528 -0.12165317 0
2.0603743 0.3427512 -0.1186919 0
1.454127 0.44271612 -0.13499381 0
1.5386848 0.45386928 -0.13253877 0
1.6507398 0.4634771 -0.12815508 0
1.7331097 0.48521566 -0.12623262 0
1.8171881 0.4171094 -0.12423633 0
1.9425087 0.44340041 -0.12094995 0
2.0550001 0.46700001 -0.118 0
1.488 0.54000002 -0.134 0
1.5687721 0.56707197 -0.1322248 0
1.6495441 0.59414393 -0.13044958 0
1.8566644 0.51782346 -0.12334894 0
1.9802194 0.55043131 -0.12046526 0
2.043 0.56699997 -0.119 0
-1.436 0.676 -0.192 0
1.36 0.68300003 -0.13600001 0
1.462 0.63199997 -0.1345 0
1.539192 0.66501313 -0.13218746 0
1.6349676 0.67797941 -0.13053344 0
1.7303162 0.62121588 -0.12867437 0
1.8514742 0.66182375 -0.12601155 0
-1.6690233 0.79070055 -0.19602458 0
-1.5525117 0.73335028 -0.19401228 0
-1.4590719 0.77551925 -0.19415256 0
1.298 0.75199997 -0.138 0
1.3492999 0.7748 -0.13668461 0
1.4274679 0.7536369 -0.13484992 0
1.5537742 0.75804913 -0.12992068 0
1.6737002 0.75410974 -0.12682457 0
1.7516623 0.74535817 -0.12626661 0
1.8704188 0.76794863 -0.12383361 0
1.9607673 0.75018501 -0.12247454 0
2.0339999 0.72299999 -0.122 0
-1.8243721 0.86716759 -0.19870764 0
-1.7466977 0.82893407 -0.19736612 0
-1.6444316 0.87811542 -0.19491535 0
-1.5702877 0.83707696 -0.19461024 0
-1.4451661 0.88445497 -0.19272342 0
-1.3647543 0.85707217 -0.19176102 0
-1.266 0.83599997 -0.18849999 0
1.2545 0.85350001 -0.139 0
1.33644 0.85083884 -0.13379028 0
1.415 0.80400002 -0.13500001 0
1.5599457 0.82297021 -0.13323747 0
1.6626209 0.85536212 -0.1287161 0
1.7410567 0.87463927 -0.12470455 0
1.8215647 0.86243439 -0.12011172 0
1.9311334 0.84673983 -0.11988305 0
-1.7556473 0.93967307 -0.19537303 0
-1.6044195 0.95842963 -0.19564217 0
-1.5381509 0.95148993 -0.19391429 0
-1.4559219 0.96564651 -0.19354792 0
-1.3533781 0.94259465 -0.18994831 0
-1.2309999 0.95099998 -0.182 0
1.1884999 0.96450001 -0.138 0
1.2400281 0.93465954 -0.13646203 0
1.338424 0.95561039 -0.13652983 0
1.7319465 0.93318731 -0.13077851 0
1.8403153 0.94461751 -0.12448248 0
1.9299999 0.986 -0.124 0
-1.908 1.024 -0.19599999 0
-1.844851 1.046545 -0.19705752 0
-1.7373047 1.0678413 -0.19705099 0
-1.653666 1.0430156 -0.19602199 0
-1.5462592 1.0529394 -0.19414568 0
-1.4597561 1.0181893 -0.19189663 0
-1.3670869 1.0566609 -0.18614899 0
-1.2706423 1.0311713 -0.18218184 0
-1.1414791 1.0540093 -0.17818336 0
-1.0239999 1.0565 -0.176 0
1.1654999 1.049 -0.14050001 0
1.2565234 1.0200744 -0.13678527 0
1.3314017 1.055312 -0.13532974 0
1.4310081 1.049089 -0.13441592 0
1.5191306 1.0799611 -0.13407958 0
1.8819196 1.015281 -0.12816775 0
1.949 1.052 -0.127 0
-1.869 1.1505001 -0.199 0
-1.7582 1.1496415 -0.19777761 0
-1.6370529 1.1441805 -0.19514382 0
-1.5031738 1.1623218 -0.19029798 0
-1.4351304 1.1094913 -0.18822348 0
-1.3401028 1.1417805 -0.18372291 0
-1.2334028 1.1569892 -0.18137538 0
-1.1369373 1.1460283 -0.17905003 0
-1.0605986 1.1476591 -0.17704183 0
-0.97100002 1.158 -0.177 0
1.1437082 1.1542082 -0.14137374 0
1.2381027 1.1400875 -0.13889626 0
1.3525784 1.1531076 -0.13621449 0
1.4546047 1.1343564 -0.13340174 0
1.5733467 1.1521484 -0.13235988 0
1.6636959 1.1794415 -0.13211937 0
-1.829 1.2180001 -0.199 0
-1.7682154 1.2373877 -0.19754606 0
-1.6392608 1.2679828 -0.19444697 0
-1.5372114 1.2478566 -0.19090915 0
-1.4379644 1.2250488 -0.18715665 0
-1.3258057 1.2429785 -0.18375079 0
-1.2471581 1.2457954 -0.1812086 0
-1.1525666 1.2286297 -0.17903233 0
-1.052319 1.2532029 -0.17774378 0
-0.95259011 1.2546475 -0.17408653 0
0.94599998 1.2869999 -0.14300001 0
1.0669999 1.2453333 -0.14266668 0
1.1560724 1.2536137 -0.14033273 0
1.2534169 1.2638922 -0.13867737 0
1.3679795 1.2570746 -0.13579555 0
1.451766 1.2383943 -0.13364545 0
1.5286164 1.242372 -0.1319264 0
1.6438876 1.2623712 -0.13024491 0
1.7359786 1.2291818 -0.13113926 0
1.8160871 1.2843074 -0.13005306 0
-1.7151521 1.3269067 -0.19676073 0
-1.633 1.391 -0.19400001 0
-1.5684466 1.336073 -0.19173497 0
-1.4313166 1.3729 -0.18610907 0
-1.3588066 1.3356075 -0.18387856 0
-1.2678357 1.3512379 -0.1810133 0
-1.1336383 1.3484057 -0.17848755 0
-1.0541805 1.3423771 -0.17563455 0
-0.97923613 1.356004 -0.17181794 0
-0.84749997 1.373 -0.169 0
-0.73900002 1.334 -0.169 0
-0.68300003 1.3839999 -0.168 0
0.45699999 1.374 -0.149 0
0.52533185 1.3521163 -0.14872172 0
0.88999999 1.3380001 -0.14300001 0
0.97899997 1.393 -0.14399999 0
1.000061 1.357268 -0.14175332 0
1.1372318 1.3463558 -0.1406175 0
1.2510108 1.3654407 -0.1375528 0
1.3394151 1.3494151 -0.13573229 0
1.4380372 1.3511338 -0.13433935 0
1.5666897 1.3573279 -0.13103302 0
1.6646631 1.3535206 -0.12949696 0
1.7682314 1.3587245 -0.1282295 0
1.8931476 1.3392626 -0.1285875 0
1.966295 1.3915251 -0.12717499 0
-1.5203056 1.4239784 -0.18875077 0
-1.4623537 1.4587325 -0.18595006 0
-1.371562 1.4489626 -0.182845 0
-1.2420638 1.4753429 -0.17947924 0
-1.1510378 1.4390616 -0.17719311 0
-1.0554208 1.4349297 -0.1740427 0
-0.94845951 1.453694 -0.17199685 0
-0.83620834 1.4647801 -0.16882786 0
-0.75167435 1.4359928 -0.16812651 0
-0.63557112 1.4578691 -0.1651049 0
-0.5765 1.4660001 -0.1655 0
0.44386524 1.4408066 -0.14985704 0
0.56832737 1.4514652 -0.14788684 0
0.74300003 1.4663334 -0.14533333 0
0.95314616 1.4527582 -0.14223586 0
1.0421104 1.4477866 -0.14160882 0
1.1529299 1.4512681 -0.13971405 0
1.2327733 1.4729308 -0.13806862 0
1.3347893 1.4444549 -0.13533089 0
1.438542 1.4487305 -0.13369344 0
1.5420566 1.4523666 -0.13158578 0
1.6632161 1.4596877 -0.12771781 0
1.7380422 1.4248567 -0.1280895 0
2.0394425 1.4437878 -0.12576249 0
2.1125901 1.4960504 -0.12434998 0
-1.39 1.506 -0.183 0
-1.2508552 1.5613623 -0.17819501 0
-1.1622804 1.5269667 -0.17587252 0
-1.013919 1.5503879 -0.17299369 0
-0.93371499 1.5873753 -0.16968983 0
-0.86096781 1.5484257 -0.16881174 0
-0.78058296 1.5453309 -0.16775055 0
-0.65401745 1.5498939 -0.16554394 0
-0.54616362 1.5436524 -0.16501267 0
-0.472 1.572 -0.16599999 0
0.24633332 1.5693334 -0.15233333 0
0.35570657 1.5396943 -0.15309361 0
0.43645787 1.5574236 -0.15158799 0
0.55466086 1.544191 -0.14772519 0
0.64000005 1.54225 -0.147 0
0.75206286 1.5741032 -0.14533482 0
0.84839892 1.5511459 -0.14384137 0
0.97538054 1.5361248 -0.14276893 0
1.0698788 1.5644497 -0.14037655 0
1.1376221 1.561036 -0.13900661 0
1.2594697 1.5472972 -0.13683042 0
1.3452387 1.5539669 -0.13503104 0
1.4672884 1.5491208 -0.13198742 0
1.5737791 1.5428376 -0.12861858 0
1.6560024 1.5568336 -0.12724324 0
1.7408175 1.5610666 -0.12039498 0
2.1857376 1.548313 -0.12293748 0
-1.236521 1.666036 -0.16687626 0
-1.1533965 1.6312172 -0.17194098 0
-1.0687793 1.6314253 -0.17382912 0
-0.9522723 1.6593643 -0.17075062 0
-0.8478207 1.6558027 -0.16787753 0
-0.71842641 1.6372141 -0.16562928 0
-0.64256543 1.6458893 -0.16533874 0
-0.56182706 1.631034 -0.16463244 0
-0.44507498 1.6485283 -0.16544619 0
-0.36127588 1.6749282 -0.16452925 0
0.15176332 1.6602911 -0.15287203 0
0.25744107 1.6487795 -0.15255661 0
0.38182619 1.6587775 -0.15337448 0
0.47245789 1.6639235 -0.151088 0
0.55535144 1.631302 -0.14559238 0
0.64557791 1.6381493 -0.14453298 0
0.77397656 1.6702571 -0.14515513 0
0.82442421 1.6271049 -0.14369869 0
0.92707676 1.6583291 -0.14239512 0
1.0555385 1.6517475 -0.14036371 0
1.1526778 1.6501741 -0.13912597 0
1.2114562 1.6642953 -0.13699651 0
1.345071 1.6487725 -0.1347352 0
1.4429327 1.6643105 -0.13248469 0
1.5628058 1.648118 -0.12944697 0
1.652817 1.638499 -0.12012634 0
1.7370644 1.6690845 -0.10999314 0
1.8208423 1.642154 -0.10954707 0
1.9070176 1.6929096 -0.11539648 0
2.2588849 1.6005757 -0.12152497 0
2.3320324 1.6528382 -0.12011247 0
-1.3380215 1.7617736 -0.1538896 0
-1.2433192 1.7584314 -0.15526056 0
-0.92700005 1.706 -0.16949999 0
-0.86299998 1.732 -0.168 0
-0.74985713 1.7533997 -0.16650419 0
-0.65492159 1.7649852 -0.1642503 0
-0.55849397 1.7367513 -0.1644741 0
-0.46356469 1.7620631 -0.16402464 0
-0.35713899 1.7602481 -0.16240923 0
-0.25472873 1.7499861 -0.16293995 0
-0.162 1.779 -0.162 0
0.15383072 1.7613993 -0.15340096 0
0.24728902 1.7307783 -0.15198758 0
0.35515392 1.7306434 -0.15396312 0
0.4888877 1.7514628 -0.15256798 0
0.5504626 1.7464688 -0.14114097 0
0.65649533 1.725813 -0.14019275 0
0.75488716 1.7520834 -0.14533147 0
0.84779859 1.7241766 -0.14352497 0
0.94059253 1.7732644 -0.14169873 0
1.0416435 1.7584691 -0.1403195 0
1.160973 1.7442814 -0.13770771 0
1.2527574 1.7450567 -0.13630487 0
1.3419261 1.7549326 -0.13406326 0
1.4573768 1.7673841 -0.13124707 0
1.5265 1.7290001 -0.12899999 0
1.6686325 1.7619321 -0.11270317 0
1.7515118 1.7129972 -0.10433691 0
1.9732211 1.7520915 -0.11227577 0
2.4417539 1.7312322 -0.11799371 0
-1.4172344 1.8690377 -0.14002335 0
-1.3423164 1.858969 -0.14348835 0
-1.2727578 1.8396068 -0.14329168 0
-0.75375366 1.8715582 -0.16834192 0
-0.62855172 1.8683414 -0.16473557 0
-0.53204262 1.8384134 -0.1632483 0
-0.47180438 1.8486814 -0.16228864 0
-0.31559062 1.8085437 -0.16106823 0
-0.2506575 1.8461723 -0.15987989 0
-0.15493402 1.8610272 -0.15676376 0
-0.057999998 1.814 -0.15700001 0
0.086999997 1.855 -0.156 0
0.14151199 1.8644145 -0.15489149 0
0.24943662 1.8479881 -0.15257546 0
0.33211988 1.8439608 -0.15463792 0
0.44223928 1.8644996 -0.15356171 0
0.51749748 1.8307767 -0.15113847 0
0.65451491 1.8506436 -0.12383187 0
0.74841422 1.8568329 -0.14502877 0
0.85347664 1.8295072 -0.14340515 0
0.95351255 1.8603249 -0.14120188 0
1.0324922 1.8400111 -0.13984907 0
1.1487238 1.8518554 -0.13824446 0
1.2619458 1.8497586 -0.13599473 0
1.342718 1.8567026 -0.13389461 0
1.452 1.854 -0.131 0
1.5349278 1.8478969 -0.12399399 0
2.0394247 1.8112735 -0.10915507 0
2.105628 1.8704554 -0.10603437 0
2.5450001 1.8049999 -0.116 0
-1.4446046 1.95418 -0.13038127 0
-1.3501366 1.94891 -0.12793753 0
-0.78650439 1.9558699 -0.1690103 0
-0.65496063 1.9504719 -0.16466945 0
-0.52311367 1.9224356 -0.16266215 0
-0.22846544 1.9314122 -0.15191355 0
-0.13493544 1.9658244 -0.1377195 0
-0.061335493 1.9436918 -0.14405043 0
0.075966313 1.9546165 -0.15561725 0
0.15452282 1.9263632 -0.15375 0
0.23764268 1.9271313 -0.15219048 0
0.34836066 1.9627872 -0.15416677 0
0.45535228 1.9458309 -0.15235968 0
0.554905 1.94696 -0.14669794 0
0.65799999 1.9299999 -0.116 0
0.74538863 1.9602709 -0.13023628 0
0.85416335 1.93107 -0.14352782 0
0.94098651 1.9576566 -0.14161782 0
1.0568451 1.9400803 -0.13951695 0
1.1430666 1.9861002 -0.13732253 0
1.2368929 1.9415815 -0.13582548 0
1.3573742 1.9637867 -0.13367119 0
1.4208696 1.9307415 -0.13242754 0
1.5931379 1.9161513 -0.11609531 0
1.6566978 1.9716563 -0.13005653 0
2.1700001 1.928 -0.103 0
2.404 1.9680001 -0.122 0
-1.5492558 2.0478115 -0.11691295 0
-1.4489574 2.0492945 -0.11678169 0
-0.81925511 2.0401814 -0.16967869 0
-0.70783746 2.0328012 -0.16500001 0
-0.6549015 2.0324035 -0.1642067 0
-0.55804735 2.0563481 -0.16127591 0
-0.24148645 2.0472655 -0.13154325 0
-0.14165315 2.0467365 -0.12557924 0
-0.064670987 2.0733838 -0.13110086 0
0.080196023 2.0446601 -0.15483022 0
0.17733932 2.0326095 -0.15149999 0
0.25605944 2.0467565 -0.15017268 0
0.32621503 2.0223463 -0.15453631 0
0.42555365 2.0387716 -0.15114933 0
0.53110373 2.0346229 -0.14967081 0
0.61108214 2.0846288 -0.14363843 0
0.83398199 2.0480299 -0.14370209 0
0.95294583 2.0542655 -0.14139843 0
1.0514085 2.0222123 -0.14039887 0
1.1445984 2.0620446 -0.13749821 0
1.2606941 2.0380237 -0.13511385 0
1.3420825 2.0369649 -0.13365829 0
1.4537501 2.0440302 -0.13209087 0
1.5184788 2.0849667 -0.13071014 0
1.7157849 2.0401132 -0.12881359 0
2.4706187 2.0219963 -0.11582901 0
2.5372372 2.0759923 -0.10965803 0
2.6689999 2.063 -0.111 0
-1.6284689 2.1550756 -0.1030467 0
-1.5472493 2.1492193 -0.10747502 0
-1.4791014 2.1310823 -0.10234725 0
-1.312389 2.1979241 -0.17475805 0
-1.266 2.1259999 -0.18099999 0
-0.85200584 2.1244931 -0.17034706 0
-0.75339246 2.1692276 -0.16500001 0
-0.68777585 2.1386518 -0.16403724 0
-0.58932817 2.170377 -0.16257854 0
-0.25450745 2.1631188 -0.11117295 0
-0.14837086 2.1276488 -0.11343898 0
-0.06689465 2.1598449 -0.12246782 0
0.064053632 2.143707 -0.15438284 0
0.1458355 2.1384661 -0.15190117 0
0.2401507 2.1617093 -0.15117268 0
0.31629017 2.1330774 -0.15221784 0
0.44410729 2.1270432 -0.15079865 0
0.56587982 2.1425934 -0.1480516 0
0.63789856 2.1707544 -0.14236613 0
0.86772895 2.1314518 -0.14315242 0
0.97965664 2.1544192 -0.14067805 0
1.0562567 2.1337092 -0.13971129 0
1.1412227 2.1681607 -0.13883647 0
1.2394204 2.1331754 -0.13541652 0
1.3567829 2.1668172 -0.13302836 0
1.4667344 2.1480083 -0.13160469 0
1.5831742 2.1696041 -0.12931883 0
1.7748721 2.1085703 -0.12757066 0
1.802 2.1400001 -0.127 0
2.6038558 2.1299884 -0.10348703 0
2.7237186 2.1108124 -0.100375 0
-1.3587781 2.2698483 -0.1685161 0
-0.91750729 2.2931163 -0.17168383 0
-0.88475657 2.2088048 -0.17101544 0
-0.61365634 2.2577541 -0.16415709 0
-0.24836096 2.2452931 -0.10452499 0
-0.14194667 2.242655 -0.10676959 0
-0.069118321 2.2463062 -0.11383478 0
0.066580452 2.2335608 -0.15357426 0
0.1434487 2.2475462 -0.151969 0
0.25052667 2.2507412 -0.15123025 0
0.32893527 2.219116 -0.15182674 0
0.46266091 2.2153149 -0.15044798 0
0.53213012 2.2630436 -0.14912586 0
0.64004505 2.2639608 -0.14341402 0
0.87604356 2.2266669 -0.14295612 0
0.94427764 2.2446475 -0.14195251 0
1.0468376 2.2341363 -0.1390823 0
1.1388766 2.2607133 -0.13808644 0
1.2577688 2.2463303 -0.1354982 0
1.41 2.2460001 -0.132 0
1.533976 2.2489305 -0.1300741 0
-1.4051671 2.3417726 -0.16227415 0
-0.93300003 2.3329999 -0.17200001 0
-0.63798451 2.3451312 -0.16573563 0
-0.071341984 2.3327675 -0.10520173 0
0.069107264 2.3234143 -0.15276568 0
0.14065582 2.3570883 -0.1515265 0
0.26090264 2.3397732 -0.15128779 0
0.34790286 2.3481741 -0.15124011 0
0.46319568 2.3545632 -0.15116636 0
0.55191267 2.3505545 -0.14840734 0
0.6650002 2.3496542 -0.14236963 0
0.94772816 2.3549082 -0.14183748 0
1.0368544 2.3627508 -0.14040394 0
1.1350677 2.33444 -0.13877988 0
1.238 2.313 -0.13600001 0
-1.4747506 2.4496591 -0.15291123 0
-0.66231263 2.4325085 -0.16731419 0
0.071634084 2.4132679 -0.15195709 0
0.15888935 2.472436 -0.15082076 0
0.2383194 2.4155843 -0.152 0
0.33555412 2.4596291 -0.15067211 0
0.48959422 2.4880843 -0.15088849 0
0.57169521 2.4380655 -0.14768879 0
0.63898027 2.466506 -0.14532724 0
0.71834785 2.4291317 -0.13854918 0
-1.665 2.559 -0.103 0
-1.5443342 2.5575454 -0.14354831 0
-0.6866408 2.5198855 -0.16889273 0
0.075424306 2.5480483 -0.15074423 0
0.16512653 2.5623226 -0.15043801 0
0.25338784 2.5509238 -0.152 0
0.34722984 2.5465674 -0.15053412 0
0.53687549 2.5684011 -0.14904529 0
0.66055548 2.5528824 -0.14445853 0
0.74808216 2.5246286 -0.13713843 0
-1.5837201 2.6451435 -0.12524347 0
-0.72313309 2.6509511 -0.17126054 0
0.079214528 2.6828287 -0.14953135 0
0.14039356 2.667099 -0.14911051 0
0.23539506 2.6617913 -0.15149999 0
0.34888348 2.6389005 -0.15064032 0
0.55542916 2.6566725 -0.14869463 0
0.65651131 2.6664345 -0.14471121 0
0.7143752 2.6365418 -0.14223421 0
-1.6109999 2.7479999 -0.112 0
-0.75962532 2.7820168 -0.17362836 0
0.081741348 2.7726822 -0.14872277 0
0.14766309 2.7776661 -0.1481725 0
0.23329186 2.7622864 -0.15133332 0
0.5423913 2.7551267 -0.15033273 0
0.63219142 2.7545872 -0.14545172 0
-2.7653818 2.8710079 -0.1027987 0
-0.78395349 2.8693938 -0.1752069 0
0.083999999 2.8529999 -0.148 0
0.55999041 2.8441408 -0.15014747 0
-2.825613 2.9355781 -0.11839888 0
-0.80828166 2.9567709 -0.17678545 0
0.574 2.915 -0.15000001 0
-2.9460754 3.0647187 -0.14959925 0
-2.8858442 3.0001483 -0.13399908 0
-0.82700002 3.0239999 -0.178 0
-3.036422 3.1615744 -0.17299953 0
-3.1267688 3.2584295 -0.19639981 0
-2.1702747 -3.9688478 -0.079977445 0
-2.127106 -3.8872335 -0.095460527 0
-2.0639999 -3.1010001 -0.018999999 0
-2.01526 -3.0281911 -0.011177544 0
-1.9665201 -2.9553821 -0.0033550877 0
2.8399999 -2.9170001 -0.097000003 0
-2.2205 -2.862 -0.037 0
2.7491584 -2.8160188 -0.099897005 0
2.8071847 -2.880522 -0.098046504 0
-2.1586316 -2.7727087 -0.027014464 0
3.05211 -2.7363639 -0.090860955 0
-2.0852661 -2.6583629 -0.018627077 0
2.9578874 -2.6370797 -0.09670119 0
-2.0340216 -2.5884838 -0.0071694404 0
-4.4686413 -2.4891527 -0.093713656 0
-4.3567567 -2.4235849 -0.075606272 0
-3.8629432 -2.4203463 -0.082588643 0
-4.2448721 -2.358017 -0.057498887 0
-4.1799998 -2.3199999 -0.046999998 0
-3.7567093 -2.3641541 -0.061341837 0
-3.6729434 -2.3198462 -0.044588648 0
1.7920001 -2.313 -0.079999998 0
1.7363771 -2.2429283 -0.085382864 0
1.8431916 -2.2364216 -0.080280088 0
1.926 -2.266 -0.077 0
1.6521597 -2.1368344 -0.093532935 0
1.7306463 -2.1352215 -0.088623904 0
1.8190804 -2.1408052 -0.089813545 0
1.5960147 -2.0661051 -0.098966315 0
1.6442381 -2.0312412 -0.097337335 0
1.7616403 -2.0735474 -0.09669733 0
1.8349414 1.7473453 -0.091590963 0
1.9237407 1.7651607 -0.072153926 0
-1.5643109 1.8665174 -0.010925185 0
-1.4534986 1.8565339 -0.0073385611 0
-1.3543772 1.8652021 -0.0023268033 0
0.75999999 1.821 -0.0020000001 0
0.81599998 1.829 -0.0040000002 0
1.758265 1.8588643 -0.096406356 0
1.8828864 1.8281107 -0.084410205 0
1.9580678 1.8669091 -0.069058605 0
2.0466113 1.8797411 -0.043730892 0
-1.6405778 1.9613794 -0.028981296 0
-1.5504833 1.9693003 -0.02488281 0
-1.4363697 1.927026 -0.017880451 0
-1.2422291 1.99734 -0.011845833 0
-1.155475 1.9565333 -0.0065703299 0
-1.0729096 1.9143349 -0.0013078637 0
-0.91742665 1.9460849 -0.00029207021 0
1.6459978 1.9971552 -0.086336732 0
1.8478976 1.9557965 -0.080109529 0
1.9990237 1.9609944 -0.076673821 0
2.0487227 1.9594331 -0.05031848 0
-1.641 2.059 -0.035 0
-1.5742737 2.0560837 -0.048514344 0
-1.4732295 2.0367005 -0.027054468 0
-1.2851145 2.0701699 -0.020422917 0
-1.1503032 2.0627782 -0.018435955 0
-1.0908636 2.0794835 -0.012703379 0
-0.93123347 2.0525503 -0.0088049127 0
-0.85311651 2.0763772 -0.0068461094 0
-0.75627482 2.0453534 -0.0057989047 0
1.7033304 2.065207 -0.071782321 0
1.9375302 2.0527287 -0.06381271 0
2.1099999 2.0339999 -0.033 0
-1.626 2.1240001 -0.061000001 0
-1.3708397 2.1361058 -0.031071492 0
-1.265 2.152 -0.027999997 0
-1.1605 2.1455002 -0.026500002 0
-1.017 2.177 -0.024 0
-0.96540445 2.1295142 -0.019048678 0
-0.852 2.1440001 -0.020500001 0
-0.75300002 2.112 -0.017999999 0
-0.5946244 2.1298511 -0.0036188252 0
-0.289 2.1849999 -0.0080000004 0
-0.17028378 2.1958117 -0.093058281 0
1.760663 2.1332586 -0.057227902 0
1.9972851 2.1173501 -0.052948169 0
2.0570402 2.1819715 -0.042083621 0
2.6704745 2.1839845 -0.097316042 0
2.7784374 2.1586249 -0.089750007 0
-1.7029999 2.256 -0.090000004 0
-1.6487923 2.2555492 -0.092924185 0
-1.5525446 2.2475002 -0.051098365 0
-1.4636397 2.2442381 -0.050660856 0
-1.327841 2.2602463 -0.043256205 0
-0.61699998 2.211 -0.016000001 0
-0.28032714 2.2560616 -0.087067761 0
-0.15989079 2.2580066 -0.071922325 0
1.8466618 2.2353363 -0.035396267 0
2.1070001 2.2360001 -0.033 0
2.7370932 2.2379808 -0.091145054 0
2.8372891 2.2471383 -0.078366362 0
-1.6255 2.3515 -0.053999998 0
-1.5307598 2.3491588 -0.068107232 0
-1.3931854 2.3728049 -0.05912016 0
-0.16434473 2.3720396 -0.05953395 0
1.9326608 2.3374138 -0.013564631 0
2.8746653 2.3494864 -0.078401536 0
-1.6202532 2.489053 -0.091369078 0
-1.5755064 2.4191058 -0.079738155 0
-1.4367483 2.4478438 -0.069696128 0
-0.17201708 2.4450591 -0.055300925 0
-0.074282825 2.4471142 -0.093784347 0
-1.5238742 2.5979218 -0.090848066 0
-1.4803112 2.5228829 -0.080272093 0
-0.178 2.5020001 -0.052000001 0
-2.6040001 2.698 -0.061000004 0
-0.163 2.668 -0.0060000001 0
-2.6449194 2.7418671 -0.071598321 0
-2.7051506 2.8064375 -0.087198511 0
1.58 -3.9419999 -8.4985743e-14 0
1.5484178 -3.8585544 0.011099164 0
1.631 -3.812 -1.8269561e-13 0
1.5562356 -3.7541296 0.015683444 0
1.4694624 -3.6499405 0.038847074 0
1.5602711 -3.6543009 0.018337119 0
1.4220891 -3.5247722 0.055495821 0
1.5249066 -3.5754511 0.027505677 0
1.390507 -3.4413266 0.066594988 0
1.4718599 -3.4571767 0.041258518 0
1.3589249 -3.3578813 0.077694148 0
1.4188133 -3.3389025 0.055011354 0
1.3572639 -3.248163 0.074324407 0
1.2957604 -3.1909902 0.099892475 0
-1.9378901 -2.8562865 0.007233683 0
-1.8700202 -2.8343821 0.019644912 0
-2.1012568 -2.7275264 0.0021673702 0
-2.0090001 -2.7650001 0.012 0
-1.9123464 -2.7603617 0.015623998 0
-1.8221991 -2.7614288 0.028982311 0
-1.7771959 -2.7128053 0.048704688 0
-2.0508854 -2.6632895 0.013751054 0
-1.9388001 -2.6632233 0.020089962 0
-1.8438659 -2.6559041 0.024059992 0
-1.7509271 -2.651927 0.043745883 0
-2.000514 -2.5990529 0.02533474 0
-1.9463066 -2.5184736 0.017735543 0
-1.8686 -2.5614462 0.028179925 0
-1.7491031 -2.5713918 0.034126591 0
-1.6787362 -2.5425692 0.056994509 0
-1.9232662 -2.469363 0.030372923 0
-1.8379436 -2.4537733 0.028120829 0
-1.7523661 -2.4537759 0.038543262 0
-1.6653919 -2.4526706 0.053751424 0
-1.5895875 -2.4204156 0.092114069 0
-1.8384293 -2.3589489 0.033401161 0
-1.74 -2.375 0.043000001 0
-3.120074 -2.2254102 0.034621079 0
-2.1589701 -2.2423253 0.023202209 0
-2.1078799 -2.1773016 0.035808839 0
-2.099 -2.1659999 0.037999999 0
-1.4117771 1.6767936 0.025187038 0
-1.3456016 1.6484894 0.030253505 0
-1.2415568 1.6456629 0.027915327 0
-1.199 1.641 0.029999997 0
-1.043 1.659 0.028000001 0
-0.95090961 1.6803348 0.025692135 0
-0.82868171 1.6461283 0.05435878 0
-0.7200473 1.6621323 0.059254665 0
-0.6505596 1.6539735 0.062323406 0
-0.58587933 1.6403043 0.069021419 0
-0.46700001 1.6670001 0.067000002 0
1.4822133 1.6269163 0.063348994 0
1.560316 1.6362634 0.06642855 0
-1.4497458 1.7673399 0.0099949874 0
-1.3439212 1.7565194 0.010051725 0
-1.2406046 1.7564747 0.044017978 0
-1.1507419 1.7325131 0.060887884 0
-1.0706875 1.7060202 0.022462498 0
-0.96091694 1.7736545 0.028151669 0
-0.85135978 1.7380708 0.030902931 0
-0.74841404 1.770053 0.045346949 0
-0.63737416 1.7347667 0.047005475 0
-0.4827463 1.7241067 0.058287047 0
1.439508 1.7649121 0.044847481 0
1.5493791 1.700629 0.05728709 0
1.6276298 1.7458181 0.054625582 0
1.707224 1.788895 0.050892822 0
2.241497 1.7841085 0.040055383 0
-1.5134664 1.8032762 0.0011122189 0
-1.2721746 1.8572028 0.057383057 0
-1.1564583 1.85168 0.0053083338 0
-1.0342128 1.8401132 0.0072561819 0
-0.96745431 1.8559341 0.027186487 0
-0.84531599 1.8601449 0.017975062 0
-0.75746596 1.8435084 0.035615563 0
-0.66819268 1.8345437 0.030876726 0
-0.51630974 1.84583 0.039715286 0
-0.23770535 1.8861101 0.0393489 0
0.78613013 1.8852742 0.0070104003 0
0.84268385 1.8921825 0.0061214608 0
1.5251141 1.8647418 0.041125469 0
1.6692843 1.8322217 0.046465315 0
1.7488785 1.8752986 0.042732559 0
2.3404369 1.8601469 0.038274474 0
-1.3224354 1.9294595 0.044185478 0
-1.0085907 1.9304506 0.013889864 0
-0.83139014 1.9634433 0.011531222 0
-0.75593299 1.9337748 0.013923417 0
-0.69791955 1.9565362 0.010680949 0
-0.54987311 1.9675533 0.021143528 0
-0.25105804 1.9639151 0.027023349 0
0.84081399 1.9524567 0.016131861 0
1.5842125 1.9336593 0.038555972 0
1.7891896 1.9638145 0.035643548 0
1.860464 1.9481053 0.034687482 0
2.387753 1.9113746 0.032881923 0
2.4572864 1.9562448 0.040769596 0
2.5310946 1.9977953 0.033899695 0
-1.4229568 2.0739729 0.017790321 0
-1.3726962 2.0017161 0.0309879 0
-1.0497271 2.004967 0.00059324317 0
-0.87669826 2.0050881 0.003169775 0
-0.57224876 2.0487022 0.0087623503 0
-0.26370537 2.0376101 0.015348899 0
-0.12983665 2.0525272 0.066179059 0
0.86048061 2.0224569 0.026465192 0
0.903 2.0350001 0.028999999 0
1.643311 2.0025768 0.035986476 0
1.7024094 2.0714946 0.033416983 0
1.8491422 2.0296109 0.030232659 0
1.9307514 2.0695195 0.024893025 0
2.5574441 2.0543427 0.057734326 0
2.6032453 2.0516627 0.029083077 0
-1.4732176 2.1462297 0.004592739 0
-0.27635267 2.111305 0.0036744494 0
-0.1352914 2.1537609 0.05430695 0
1.7615077 2.1404121 0.030847486 0
1.9690474 2.1612036 0.019410886 0
2.0443521 2.1391578 0.015241069 0
2.6673274 2.1228271 0.048456118 0
2.7373412 2.1783543 0.051018283 0
-0.13990949 2.2394674 0.044255793 0
1.8501555 2.2437882 0.026993239 0
2.029 2.227 0.014 0
2.7950118 2.254498 0.092527688 0
2.8557734 2.2401989 0.012224923 0
-0.1445276 2.3251739 0.034204636 0
1.9388031 2.3471646 0.023138992 0
2.964 2.3210001 0.0049999999 0
-0.15145475 2.4537339 0.019127896 0
1.9939475 2.410774 0.010779645 0
2.0537755 2.4811723 0.017181404 0
-0.15838189 2.5822935 0.0040511591 0
0.97607863 4.6526747 0.057499744 0
0.99486798 4.7587624 0.048249617 0
1.0085787 4.836175 0.041499745 0
1.0291446 4.9522939 0.031374939 0
1.267 -3.115 0.11 0
-1.5426854 -2.3473182 0.10296641 0
-1.4953916 -2.2736106 0.11390938 0
2.8749442 2.3218427 0.10423432 0
