# .PCD v0.7 - Point Cloud Data file format
VERSION 0.7
FIELDS x y z intensity
SIZE 4 4 4 4
TYPE F F F F
COUNT 1 1 1 1
WIDTH 88
HEIGHT 1
VIEWPOINT 0 0 0 1 0 0 0
POINTS 88
DATA ascii
-42.59391 -19.323294 7.7129221 8
-42.455109 -19.483896 8.4143715 9
-41.654755 -20.304888 15.723921 13
-39.488483 -23.643614 13.567414 12
-39.401474 -23.783886 15.342788 13
-37.657734 -45.140656 18.179008 12
-14.177999 -27.615488 14.735368 17
-9.6535187 -2.8980355 0.27343553 4
-9.6770172 -3.1900935 0.88455206 6
-9.5926018 -2.9710896 0.46759838 5
-7.2220964 -30.202755 15.012498 17
-6.0091815 0.76407611 1.1471386 9
-5.8776741 0.76964086 0.42540175 5
-5.9400239 0.77158457 0.60827851 6
-5.5286431 1.7682389 0.26854634 5
-5.4599833 1.761717 0.49068487 6
-3.6291864 1.4564698 0.056327436 4
-3.6226699 -2.4585176 0.20977437 5
-3.4392526 -2.7098391 0.16752121 4
-3.5874462 -2.4471912 0.14784136 4
-3.5347075 -2.4515262 0.40596825 6
-3.3750775 -2.6747577 0.26062799 5
-3.220855 1.6130058 0.27430332 6
-3.0538566 1.7608422 0.075766273 4
-3.0088723 1.9011656 0.1559608 5
-2.9619045 2.0515118 0.27516565 6
-1.6313655 9.5248966 0.94659567 6
-1.5079142 9.5588617 1.6547533 8
-1.4802028 9.5619631 2.9487877 12
-1.3702714 9.5566778 0.59192097 5
-1.3514265 9.5807295 1.2929454 7
-1.3754575 9.5668154 2.158916 10
-1.2589514 9.7168303 3.160064 13
-1.0427116 1.3773918 0.27901709 8
-0.85928124 9.6307011 1.8255099 9
-0.6358394 -2.0459166 -0.04775285 3
-0.65104938 -2.0291026 0.11215185 5
-0.61129302 -2.0297754 0.29230168 7
-0.73565793 1.5065814 0.32543194 9
-0.65099728 9.6197577 0.43672898 5
-0.61315548 9.6377935 0.77476853 6
-0.62115222 9.630806 1.6707598 8
-0.51587081 -2.0153966 -0.11287833 1.5
-0.5923661 -2.0407765 0.095397323 5
-0.54870886 1.7063251 0.18021244 6
-0.51952255 2.0638907 0.076345012 4
-0.58204973 -2.0204172 0.35888821 8.5
-0.56567627 1.6772566 0.31517187 8.5
-0.2572456 -1.9880781 -0.11241893 1
-0.24909618 -1.9930326 0.0096293706 3
-0.33424303 9.8120689 2.843049 12
-0.17547797 -1.9775227 -0.065102555 2
-0.14209831 -1.9863141 0.045064934 4
-0.073296607 -1.95328 0.53928393 11.5
0.14601511 2.3685868 0.11926018 5
0.17655519 -1.9354554 0.61537242 13
0.29598266 -1.9488816 0.14297222 5
0.37979645 2.0988069 0.13544853 5
0.29483789 2.1469262 0.30638719 7
0.40718001 2.0731096 0.17046605 6
0.49835235 2.0365891 0.36151516 8.5
0.48565167 7.7012796 7.5886679 27
0.69343215 -1.9025079 0.15685554 5
0.76617491 -1.8830172 0.2651886 7
0.67435497 2.0001538 0.28858221 7
0.69009358 -1.8727984 0.57276541 11.5
0.67331529 -1.8654978 0.64165896 13
0.89282036 2.0187905 0.16410773 5.5
0.90724134 -1.850196 0.38285837 9
0.97538799 -1.8603179 0.53025752 10.5
0.96704859 -1.8338677 0.62014371 12
1.3902934 2.1822801 0.54650289 10
1.7531449 -1.7437114 0.73333091 12
1.9048367 -1.7723823 0.12826556 5
1.8962369 7.8259854 7.9018326 26.5
2.6731255 2.7350688 0.32269171 6
4.7703652 8.0767727 9.57374 27
4.8753099 4.6226897 1.4835612 10
5.1215439 8.3225307 9.0146141 26
5.3723955 2.2934217 0.27085692 5
5.3924913 2.0844405 0.44446278 6
5.2711554 2.4067872 0.51323038 6
5.3531184 2.2134356 0.71775967 7
5.7519965 8.0196486 10.145981 27
20.611692 5.0566263 1.4950935 5
20.71459 4.442378 2.0205617 6
20.723185 4.3112273 3.1632612 8
20.647169 5.197341 3.7833276 9
