# .PCD v0.7 - Point Cloud Data file format
VERSION 0.7
FIELDS x y z intensity
SIZE 4 4 4 4
TYPE F F F F
COUNT 1 1 1 1
WIDTH 85
HEIGHT 1
VIEWPOINT 0 0 0 1 0 0 0
POINTS 85
DATA ascii
-42.148533 -22.337225 13.987652 12
-41.973652 -22.658691 15.342457 13
-41.925888 -22.705784 17.650629 14
-25.101362 -31.000713 14.109454 13
-25.02062 -30.944679 14.521562 14
-11.427116 -3.1728275 0.40028012 4
-11.441399 -3.3255904 0.680408 5
-9.8459244 6.8440404 11.016052 26
-5.7603989 0.72189993 0.59249747 6
-5.7935085 0.70685625 0.64443928 7
-5.4663367 7.8110456 4.0606952 15
-5.30129 -2.6028256 0.034320645 3
-5.290761 -2.5124602 0.18023483 4
-5.2651787 -2.4931097 0.34026611 5
-5.2840233 -2.766582 0.87456006 8
-5.1922493 -2.6789329 0.45064503 6
-5.1173787 -3.7071772 0.77517951 7
-5.1795621 -2.7736926 0.63679028 7
-4.8859568 1.6571437 0.21680354 5
-2.6094794 1.3996222 0.13570538 5
-2.7481954 9.4893618 4.0179744 15
-2.5124657 -2.1205571 0.23620602 5.5
-2.5688603 1.3770245 0.39180133 7
-2.5275376 1.4030842 0.30288041 6
-2.3232253 -2.0695567 -0.070943765 3
-2.3774116 -2.0804679 0.064950414 4
-2.2133284 1.8114141 0.13641126 5
-2.2124476 1.8165168 0.22141132 6
-2.3337426 1.5610265 0.4042424 8
-2.1996567 1.817741 0.38643906 7
-1.92614 -2.0577545 -0.18304807 1
-1.7632408 -2.0579748 0.026338421 4
-1.5833677 -2.0211995 0.18771079 5
-1.5526801 -2.0059845 0.25575989 6
-1.2296677 -1.9687803 0.45149904 9
-1.1069521 9.0739965 3.5461092 14
-0.89642143 -1.9354361 0.43830881 9.5
-0.96086311 9.0644684 3.8423567 15
-0.74240673 9.092907 3.940691 16
-0.42752632 -1.8942896 0.13804877 5.5
-0.5801543 -1.8872747 0.34509113 9
-0.57985049 -1.8947794 0.59310859 12
-0.58007866 -1.8966169 0.67461216 13.5
-0.21103002 1.9368395 0.18155608 6
-0.26235455 -1.855912 0.33946922 8.5
-0.31088167 1.9265845 0.21737932 7
-0.28039485 -1.8723108 0.41394857 10
-0.19493997 1.9439108 0.21658038 7
0.052572835 2.3694274 0.041701995 4
0.17339799 9.1340742 3.5950756 15
0.3704994 -1.7911497 -0.036812358 3
0.28617692 -1.8220122 0.074215882 4
0.2149149 -1.8120047 0.32726821 9
0.38774747 -1.7914469 0.37917799 9
0.28047109 -2.0342097 0.44607306 10
0.40520167 -1.8031844 -0.10883968 1
0.41516066 -1.7892318 -0.074835427 2
0.79573971 -1.755093 0.031026019 4
0.78801531 9.2048941 3.5299082 14
0.80661064 -1.7430874 -0.026469156 2.5
0.89517796 -1.7348284 0.13450959 5.5
0.86947423 -1.7478625 0.2985079 7.5
0.94044232 2.5843201 0.34175834 7
0.96452504 2.6322787 0.21275283 6
0.84141976 -1.7495047 0.67351544 13.5
0.82492065 9.2390423 3.6769354 15
1.1947916 -1.7619166 0.44791934 10
1.5991799 9.8071995 2.3765666 10
1.9678771 9.8177814 2.5840235 11
2.0835168 7.7969527 7.7775502 26
2.2839727 7.805222 7.9647713 27
2.4469109 9.8560753 3.825573 14
3.1775479 9.282918 4.1107621 15
3.5848022 2.2524936 0.052462883 4
3.5626836 2.251538 0.26345721 5
3.6940901 1.6904829 0.37349418 6
3.7001967 1.6575006 0.50349295 7
4.7564116 7.9584928 9.6719704 27
5.4709015 8.1676254 9.2713747 26
5.9168015 8.0300207 10.027729 27
6.1764669 8.0849438 9.6408625 26
6.620822 -9.2455311 0.22945197 4
19.042961 4.0343003 2.0870905 6
19.034876 4.0573573 2.4950986 7
24.979383 -23.368692 7.2774282 10
