# .PCD v0.7 - Point Cloud Data file format
VERSION 0.7
FIELDS x y z intensity
SIZE 4 4 4 4
TYPE F F F F
COUNT 1 1 1 1
WIDTH 1225
HEIGHT 1
VIEWPOINT 0 0 0 1 0 0 0
POINTS 1225
DATA ascii
-2.2611508 0.051168278 -0.20182204 0
-2.4437256 0.16859064 -0.20109397 0
-2.345634 0.16312085 -0.20145862 0
-2.2404084 0.1310302 -0.20186466 0
-2.2 0.155 -0.20200001 0
-2.141 0.35600001 -0.20100001 0
-3.8522093 0.48386365 -0.21095455 0
-3.7740641 0.48004547 -0.20968182 0
-3.6610322 0.47452274 -0.20784092 0
-3.5480001 0.46900001 -0.206 0
-3.7479229 0.65174162 -0.20894834 0
-3.6662767 0.64158666 -0.20691733 0
-3.5469229 0.62674165 -0.20394833 0
-3.4329693 0.65221775 -0.20105532 0
-3.7049999 0.73500001 -0.208 0
-3.6789236 0.73084736 -0.20732825 0
-3.5586467 0.71169317 -0.20422977 0
-3.5765133 0.88894206 -0.20665964 0
-3.4560595 0.86255944 -0.20346175 0
-3.3356054 0.83617681 -0.20026386 0
-3.2595482 0.89966154 -0.20080382 0
-3.6240001 0.94449997 -0.2085 0
-3.5777411 0.9783079 -0.20801908 0
-3.4584188 0.94881552 -0.20531335 0
-3.3390965 0.91932315 -0.20260763 0
-3.365977 1.0950699 -0.20213354 0
-3.2887328 1.0713024 -0.20060015 0
-3.4516106 1.1214186 -0.20383346 0
-3.1129999 1.1799999 -0.206 0
-3.4161272 1.2910695 -0.2106279 0
-3.3403454 1.2633021 -0.20947093 0
-3.2645636 1.2355347 -0.20831394 0
-3.1690059 1.2428917 -0.20755342 0
-3.0739999 1.248 -0.207 0
-3.506 1.324 -0.212 0
-3.4710293 1.3584585 -0.21176711 0
-3.3749199 1.3680639 -0.21079949 0
-3.2620749 1.32304 -0.2093747 0
-3.1639366 1.3695476 -0.20912588 0
-3.050734 1.3203869 -0.20753147 0
-3.4545 1.4475 -0.21250001 0
-3.3526077 1.4514823 -0.2117832 0
-3.2394052 1.4023215 -0.21018881 0
-3.1738973 1.4636505 -0.20475113 0
-3.0937476 1.426542 -0.20195928 0
-3.358098 1.5489336 -0.21116742 0
-3.2540467 1.5007589 -0.20754299 0
-3.0384691 1.5785613 -0.20167732 0
-3.227 1.678 -0.208 0
-3.1553364 1.6402017 -0.20559664 0
0.226 -3.5599999 -0.17299999 0
-1.7202761 -3.4747076 -0.18788174 0
-1.4087296 -3.4210844 -0.1819734 0
0.21830472 -3.4464111 -0.17199627 0
-1.675097 -3.3786736 -0.18708712 0
-1.3750267 -3.3332725 -0.18157843 0
-1.1172595 -3.355577 -0.17874588 0
0.20946518 -3.3159316 -0.17084327 0
0.45075548 -3.3296347 -0.16898119 0
0.70599997 -3.358 -0.17 0
1.8453641 -3.3469403 -0.1769293 0
-1.6366417 -3.296932 -0.18641078 0
-1.5981865 -3.2151904 -0.18573444 0
-1.3435943 -3.2513766 -0.18121009 0
-1.0795792 -3.2322595 -0.1779303 0
-0.017999999 -3.2176533 -0.167 0
0.20357214 -3.2289453 -0.17007463 0
0.44192579 -3.2442243 -0.16830198 0
0.54188859 -3.2640707 -0.17096168 0
0.68436944 -3.2501726 -0.16886155 0
1.7957555 -3.2606926 -0.17617275 0
-1.5597312 -3.1334488 -0.18505809 0
-1.3121619 -3.1694803 -0.18084174 0
-1.0536393 -3.1473653 -0.17736882 0
-0.017999999 -3.1222551 -0.167 0
0.15386623 -3.1484318 -0.16776866 0
0.43334061 -3.1611795 -0.1676416 0
0.52649945 -3.1681275 -0.17043102 0
0.62317818 -3.1666288 -0.1691581 0
0.90212166 -3.171803 -0.16598362 0
1.039 -3.1029999 -0.167 0
1.7282963 -3.1434104 -0.17514396 0
-1.5212761 -3.0517075 -0.18438174 0
-1.2650133 -3.0466361 -0.18028921 0
-1.0276995 -3.0624712 -0.17680734 0
-0.57300001 -3.0250001 -0.171 0
-0.153 -3.063 -0.168 0
-0.061638065 -3.0510945 -0.16744404 0
0.0040000007 -3.013 -0.16599999 0
0.15873787 -3.0571127 -0.16776866 0
0.42475545 -3.0781345 -0.16698119 0
0.55769783 -3.0616751 -0.16945998 0
0.64857882 -3.0390797 -0.1668237 0
0.86711973 -3.0444047 -0.16533142 0
1.0542371 -3.0300837 -0.1664162 0
1.105 -3.062 -0.167 0
1.6608369 -3.0261283 -0.17411517 0
-1.4828209 -2.9699659 -0.18370539 0
-1.2178648 -2.9237921 -0.1797367 0
-1.0017595 -2.9775767 -0.17624588 0
-0.83499998 -2.9030001 -0.17299999 0
-0.74420816 -2.9725502 -0.17391667 0
-0.56381214 -2.9658785 -0.17139947 0
-0.48447716 -2.9254231 -0.16402972 0
-0.14930212 -2.9509082 -0.16776888 0
-0.054298989 -2.9524322 -0.16783309 0
0.052731652 -2.9553823 -0.16715889 0
0.14101866 -2.9600322 -0.16716771 0
0.273 -2.9119999 -0.16599999 0
0.45134145 -2.9495797 -0.16759539 0
0.55600601 -2.9200814 -0.16847579 0
0.65111941 -2.9384394 -0.16541703 0
0.83299619 -2.9202034 -0.16469558 0
0.99482 -2.9676719 -0.16549873 0
1.0578722 -2.9279001 -0.16550048 0
1.6158642 -2.9479403 -0.1734293 0
-1.425138 -2.8473535 -0.18269086 0
-1.1864324 -2.8418961 -0.17936835 0
-0.96284974 -2.8502355 -0.17540367 0
-0.82259095 -2.8569264 -0.17305937 0
-0.75101733 -2.8503032 -0.17334022 0
-0.67983162 -2.8473287 -0.17265522 0
-0.55000001 -2.8770001 -0.17200001 0
-0.47153223 -2.836868 -0.16476522 0
-0.28 -2.835 -0.161 0
-0.14520141 -2.8266053 -0.16751258 0
-0.050377119 -2.8646021 -0.1680219 0
0.024656797 -2.8439579 -0.16910593 0
0.14203453 -2.8501635 -0.16720934 0
0.26899156 -2.8546484 -0.16615416 0
0.35646439 -2.8386524 -0.16573168 0
0.46938857 -2.8120708 -0.16846168 0
0.5397194 -2.8314981 -0.16797926 0
0.63432556 -2.8592227 -0.16498178 0
0.74513173 -2.8270919 -0.16396862 0
0.81024712 -2.8374026 -0.16427168 0
0.95436502 -2.8437538 -0.16412404 0
1.0290601 -2.8459167 -0.16458373 0
1.5708914 -2.8697522 -0.17274344 0
-1.3674552 -2.7247415 -0.18167634 0
-1.155 -2.76 -0.17900001 0
-0.92393988 -2.7228942 -0.17456147 0
-0.75694919 -2.7380581 -0.17261268 0
-0.65086532 -2.717063 -0.17232417 0
-0.4591102 -2.7518899 -0.16547102 0
-0.27328673 -2.7622731 -0.16193239 0
-0.1424676 -2.743737 -0.16734172 0
-0.04853284 -2.7456889 -0.16676641 0
0.044 -2.7639999 -0.167 0
0.13662763 -2.7307308 -0.16776748 0
0.26349366 -2.7759862 -0.16636562 0
0.32354495 -2.7254682 -0.16639628 0
0.45511088 -2.7230568 -0.16796933 0
0.56901139 -2.7607963 -0.1657646 0
0.66399729 -2.7789884 -0.16379999 0
0.76495123 -2.7370875 -0.1628893 0
0.91391003 -2.7198358 -0.16274936 0
1.0002482 -2.7639334 -0.16366698 0
1.4809457 -2.713376 -0.17137173 0
1.5189593 -2.7517819 -0.1685288 0
-1.329 -2.6429999 -0.18099999 0
-0.898 -2.638 -0.17399999 0
-0.76477009 -2.6422422 -0.17333603 0
-0.63155442 -2.6302192 -0.17210348 0
-0.44668818 -2.6669121 -0.16617681 0
-0.26230419 -2.6432958 -0.16345775 0
-0.13973381 -2.6608686 -0.16717085 0
-0.078000002 -2.6240001 -0.16599999 0
0.13500001 -2.654 -0.168 0
0.25524682 -2.6579931 -0.16668281 0
0.31569663 -2.6459787 -0.16659752 0
0.44083315 -2.6340427 -0.167477 0
0.55178976 -2.6736281 -0.16519243 0
0.65448111 -2.6440876 -0.16365336 0
0.76615053 -2.6649597 -0.16233134 0
0.88694 -2.637224 -0.16183291 0
0.97143608 -2.6819501 -0.16275023 0
1.4578247 -2.6429534 -0.16774097 0
1.5736439 -2.6721921 -0.16597819 0
1.638 -2.641 -0.167 0
-0.74164176 -2.5563686 -0.17344669 0
-0.61224353 -2.5433755 -0.17188278 0
-0.43426612 -2.581934 -0.1668826 0
-0.25132167 -2.5243182 -0.16498309 0
-0.13699999 -2.5780001 -0.167 0
0.24699999 -2.54 -0.167 0
0.30784833 -2.5664892 -0.16679876 0
0.45870757 -2.5553889 -0.16673714 0
0.55697846 -2.5840418 -0.16527288 0
0.63876915 -2.5338757 -0.16352147 0
0.74295086 -2.5814793 -0.16224521 0
0.85997003 -2.5546119 -0.16091645 0
0.92821807 -2.5589752 -0.16137512 0
1.391 -2.5569999 -0.17 0
1.4616072 -2.5455165 -0.16496846 0
1.5463195 -2.5549121 -0.16586941 0
1.6557288 -2.567914 -0.16748863 0
-0.71851337 -2.4704947 -0.17355734 0
-0.5929327 -2.4565315 -0.17166209 0
-0.41563308 -2.4544668 -0.1679413 0
-0.244 -2.4449999 -0.16599999 0
0.30000001 -2.487 -0.167 0
0.44342542 -2.4665899 -0.16624272 0
0.54774064 -2.4464681 -0.1643113 0
0.67411649 -2.4338655 -0.16273111 0
0.72025144 -2.489799 -0.161742 0
0.85899997 -2.454 -0.16 0
1.3780065 -2.4579618 -0.16415462 0
1.4411645 -2.442934 -0.16511795 0
1.5542029 -2.4357419 -0.16626243 0
1.7803633 -2.4691954 -0.16693705 0
1.8427775 -2.4322426 -0.16876151 0
-0.69538504 -2.3846211 -0.17366801 0
-0.57362181 -2.3696878 -0.17144139 0
-0.39700001 -2.3269999 -0.169 0
0.398 -2.3670001 -0.16599999 0
0.45828658 -2.3885829 -0.16549654 0
0.53312194 -2.3345394 -0.16377339 0
0.65133739 -2.3490241 -0.16279833 0
1.3575639 -2.3553791 -0.16430411 0
1.4755659 -2.3656595 -0.16490136 0
1.5413414 -2.3569541 -0.16663457 0
1.6730905 -2.3174219 -0.16605294 0
1.747192 -2.3623042 -0.1671702 0
1.8658285 -2.3495114 -0.16619632 0
-4.5438156 -2.2564621 -0.11888194 0
-4.4230475 -2.2006996 -0.14100504 0
-0.66069251 -2.2558107 -0.173834 0
-0.55431092 -2.2828438 -0.1712207 0
0.463 -2.267 -0.1645 0
0.5649538 -2.2334037 -0.16311571 0
0.62855828 -2.2641826 -0.16286555 0
1.2763363 -2.2652054 -0.16351317 0
1.3509544 -2.2422822 -0.16419309 0
1.4578599 -2.26174 -0.16545478 0
1.6232723 -2.2469375 -0.16564235 0
1.7401125 -2.2504649 -0.16996352 0
1.8332769 -2.2572927 -0.16727224 0
1.918 -2.2480001 -0.1645 0
-4.3425355 -2.1635249 -0.15575379 0
-4.2620239 -2.1263499 -0.17050253 0
-0.62599999 -2.1270001 -0.17399999 0
-0.53500003 -2.1960001 -0.171 0
0.54400003 -2.1475 -0.163 0
0.62565029 -2.1531599 -0.1627484 0
1.1950001 -2.1110001 -0.163 0
1.2523341 -2.1665514 -0.1636283 0
1.3408264 -2.1372638 -0.16316055 0
1.4015853 -2.1387384 -0.16540866 0
1.5485452 -2.141211 -0.16502647 0
1.647185 -2.1488283 -0.17050767 0
1.7099143 -2.1780057 -0.17584817 0
1.8439755 -2.1420009 -0.16445112 0
1.955 -2.1359999 -0.163 0
-4.1412559 -2.0705876 -0.19262564 0
0.602 -2.069 -0.163 0
1.2959132 -2.061132 -0.16258027 0
1.355 -2.066 -0.16500001 0
1.4738181 -2.0354843 -0.16441059 0
1.5631585 -2.0575671 -0.16529229 0
1.6728115 -2.026602 -0.17348856 0
1.7645432 -2.0645585 -0.16470063 0
1.8515283 -2.0303662 -0.16454436 0
1.9494826 -2.0656464 -0.16260163 0
2.013 -2.003 -0.161 0
-1.1221294 -1.9585409 -0.17888589 0
1.2647777 -1.939226 -0.16201021 0
1.4414999 -1.9414999 -0.164 0
1.5531527 -1.9667015 -0.17028263 0
1.6550215 -1.9337792 -0.16485031 0
1.75219 -1.9520036 -0.16541046 0
1.8426914 -1.918321 -0.16274965 0
1.9329706 -1.9674478 -0.16171852 0
2.04 -1.938 -0.161 0
-1.2149435 -1.8103728 -0.1799435 0
-1.1822643 -1.8542686 -0.1789239 0
-1.0547867 -1.8394263 -0.17810737 0
1.259403 -1.8489509 -0.1620961 0
1.3210653 -1.8301635 -0.16200204 0
1.4796203 -1.806815 -0.17282596 0
1.5505195 -1.8654928 -0.16812418 0
1.6471343 -1.8483047 -0.1659932 0
1.7850186 -1.8567407 -0.16306223 0
1.845718 -1.833663 -0.161 0
1.9426924 -1.8726872 -0.16087376 0
2.034384 -1.8438883 -0.15913911 0
-1.2582095 -1.7384791 -0.18046585 0
-1.1511558 -1.7587309 -0.17890054 0
-1.0937642 -1.7132684 -0.17792389 0
-0.99731469 -1.7377704 -0.17744295 0
1.1758887 -1.7691187 -0.16235375 0
1.2444298 -1.7508326 -0.16205727 0
1.355 -1.757 -0.162 0
1.4218174 -1.7374129 -0.1712794 0
1.561 -1.779 -0.16500001 0
1.6448364 -1.7637901 -0.1658437 0
1.7463311 -1.7601629 -0.16179161 0
1.8546761 -1.7339745 -0.16040573 0
1.9508069 -1.7709804 -0.15973186 0
-1.3308114 -1.6245328 -0.18199381 0
-1.2237899 -1.6482606 -0.18043393 0
-1.1576971 -1.6660557 -0.17937762 0
-1.0680519 -1.6299103 -0.17796686 0
-0.95899999 -1.67 -0.177 0
1.0844443 -1.6285594 -0.16267687 0
1.1562873 -1.6524453 -0.16233946 0
1.2435328 -1.6502268 -0.16216871 0
1.3538666 -1.6662785 -0.16457762 0
1.6389647 -1.6618328 -0.16249999 0
1.7527732 -1.6290445 -0.16069376 0
1.8228841 -1.6593882 -0.16063912 0
-1.3434348 -1.5383819 -0.18226103 0
-1.2585142 -1.535291 -0.18161726 0
-1.1404399 -1.5599397 -0.17955726 0
-1.0393333 -1.5453334 -0.17800002 0
1.0499606 -1.5356817 -0.16241923 0
1.1213984 -1.5608323 -0.16233435 0
1.2266799 -1.5441507 -0.16431984 0
1.3353409 -1.5676883 -0.16332105 0
1.4054999 -1.541 -0.16 0
1.5899827 -1.5274086 -0.1637401 0
1.6484547 -1.5674089 -0.16133873 0
-1.3638119 -1.465198 -0.1829261 0
-1.2519652 -1.4322242 -0.18176733 0
-1.1874057 -1.4475164 -0.18124691 0
-1.089 -1.464 -0.17900001 0
0.99299997 -1.488 -0.163 0
1.0455664 -1.4399161 -0.16261144 0
1.1619965 -1.4463712 -0.16277328 0
1.2589881 -1.4444923 -0.16172937 0
1.3333349 -1.4598832 -0.16046888 0
1.4246591 -1.4498734 -0.16001652 0
1.5266995 -1.4677787 -0.16334866 0
1.631 -1.492 -0.162 0
-1.3106991 -1.3852034 -0.183 0
-1.2480726 -1.3499323 -0.18262972 0
-1.1633333 -1.3513333 -0.18133332 0
1.0645001 -1.3405 -0.162 0
1.1392587 -1.3668473 -0.16277328 0
1.2473348 -1.3522838 -0.16090448 0
1.3316734 -1.3569281 -0.15962422 0
1.4366213 -1.3494555 -0.16019374 0
-2.0120001 -1.278 -0.191 0
-1.974643 -1.2550831 -0.1907077 0
-1.8994377 -1.2089477 -0.19011924 0
-1.211 -1.278 -0.183 0
1.0930001 -1.28 -0.162 0
1.1537577 -1.2406342 -0.16156827 0
1.2609042 -1.2496092 -0.16099836 0
1.3566242 -1.2736918 -0.16046534 0
1.4397614 -1.2723943 -0.15918158 0
-1.8242323 -1.1628122 -0.18953077 0
-1.7490269 -1.1166769 -0.18894231 0
1.142 -1.132 -0.161 0
1.2514958 -1.1558831 -0.16059558 0
1.3676271 -1.1512662 -0.15957561 0
1.467575 -1.1781273 -0.1590859 0
-1.6738216 -1.0705415 -0.18835385 0
-1.5986161 -1.0244061 -0.18776539 0
1.1700001 -1.0545 -0.161 0
1.2472091 -1.0477555 -0.16019186 0
1.3582872 -1.0355635 -0.15898046 0
1.4603326 -1.0619994 -0.15816668 0
1.511 -1.1 -0.15800001 0
2.3180001 -1.006 -0.156 0
-2.4030001 -0.95700002 -0.19400001 0
-2.3280563 -0.92758369 -0.19300437 0
-1.5234108 -0.97827077 -0.18717693 0
-1.4482054 -0.93213534 -0.18658847 0
1.197 -0.95599997 -0.16 0
1.2703332 -0.91949987 -0.15879166 0
1.3336663 -0.96699971 -0.15858333 0
1.4464233 -0.94848907 -0.15722987 0
1.5140001 -0.99400002 -0.15700001 0
2.1474771 -0.93381417 -0.15556775 0
2.2711728 -0.98617709 -0.1558813 0
-2.2443836 -0.89474106 -0.19189277 0
-2.1313553 -0.87644923 -0.19089058 0
-2.0681753 -0.85118341 -0.19008911 0
-1.9777737 -0.839522 -0.18957005 0
-1.8962346 -0.8057332 -0.18863147 0
-1.373 -0.88599998 -0.186 0
1.2458463 -0.85578418 -0.15838999 0
1.3549755 -0.84178758 -0.15705527 0
1.4599907 -0.8607673 -0.1562136 0
1.5239999 -0.852 -0.15549999 0
1.8588547 -0.81163424 -0.15483613 0
1.9413183 -0.84654284 -0.15504517 0
2.0237818 -0.88145137 -0.1552542 0
2.2884793 -0.80819893 -0.15667059 0
2.3570001 -0.83200002 -0.15700001 0
-2.1083028 -0.76047438 -0.18998934 0
-2.0376329 -0.72638595 -0.18936265 0
-1.9464126 -0.758717 -0.18841015 0
-1.8203571 -0.75123608 -0.18701383 0
-1.7331564 -0.73815548 -0.18675432 0
-1.6516173 -0.70436656 -0.18581574 0
1.2474277 -0.75873977 -0.15725844 0
1.3680342 -0.71952891 -0.155 0
1.4355513 -0.75629336 -0.155 0
1.5266302 -0.75362045 -0.15656602 0
1.6442103 -0.73240155 -0.15584737 0
1.7382263 -0.78516674 -0.15810837 0
2.0339863 -0.71979928 -0.15544705 0
2.1188173 -0.74926585 -0.1558549 0
2.2036483 -0.77873242 -0.15626274 0
2.372 -0.71399999 -0.15700001 0
-2.1229999 -0.6455 -0.19 0
-2.0722849 -0.63049406 -0.18926924 0
-1.9636402 -0.64039057 -0.18809097 0
-1.8544418 -0.65493184 -0.18705712 0
-1.7569 -0.67719841 -0.18685362 0
-1.6738818 -0.64581311 -0.18611231 0
-1.5725391 -0.65128887 -0.18393858 0
-1.4477695 -0.61989439 -0.1834693 0
1.233 -0.64600003 -0.155 0
1.3385538 -0.6465506 -0.155783 0
1.4731441 -0.67988729 -0.15734902 0
1.529 -0.67199999 -0.154 0
1.6540293 -0.61291885 -0.15526791 0
1.7463061 -0.64240772 -0.15673719 0
1.8643242 -0.6608662 -0.15463136 0
1.9491552 -0.69033277 -0.15503921 0
2.0283461 -0.61142272 -0.15460519 0
2.1145706 -0.63715982 -0.15520607 0
2.243907 -0.67576551 -0.15610737 0
-2.1400001 -0.51499999 -0.191 0
-1.9789691 -0.57702893 -0.18762428 0
-1.8477787 -0.55502045 -0.18600579 0
-1.737955 -0.55344909 -0.18460681 0
-1.6409138 -0.56568927 -0.1852587 0
-1.5585051 -0.53793877 -0.18442278 0
-1.442 -0.537 -0.18700001 0
1.242 -0.57700002 -0.155 0
1.5443783 -0.53809476 -0.15358426 0
1.6491021 -0.53856629 -0.15376122 0
1.7438366 -0.54260564 -0.1549013 0
1.8558974 -0.55994844 -0.15340346 0
1.9421217 -0.58568561 -0.15400434 0
2.222723 -0.50206542 -0.1552967 0
2.341094 -0.52897429 -0.15585439 0
-2.0660534 -0.49717754 -0.1906679 0
-1.9811888 -0.47672361 -0.19028677 0
-1.8538915 -0.44604269 -0.18971509 0
-1.7265943 -0.41536179 -0.18914339 0
-1.6509938 -0.4834058 -0.18232486 0
-1.569 -0.46000001 -0.18099999 0
-1.453038 -0.4622221 -0.18247433 0
1.5541122 -0.46986854 -0.15130043 0
1.6521006 -0.41150889 -0.15095858 0
1.7557735 -0.41570643 -0.15233706 0
1.8286875 -0.43918347 -0.15252183 0
1.9603269 -0.44241589 -0.15406044 0
2.0477922 -0.46229905 -0.15447251 0
2.1352577 -0.48218226 -0.15488461 0
-1.6417296 -0.39490786 -0.18876225 0
-1.5568647 -0.37445393 -0.18838112 0
-1.472 -0.354 -0.18799999 0
1.5435394 -0.35701048 -0.15068138 0
1.6505371 -0.35774148 -0.15190955 0
1.7655575 -0.33296084 -0.15065224 0
2.8742867 -0.30164325 -0.15599158 0
2.9638343 -0.31091714 -0.15649018 0
3.0533819 -0.32019103 -0.15698877 0
3.1429298 -0.32946488 -0.15748736 0
3.2337389 -0.33886939 -0.15799299 0
1.4955001 -0.26249999 -0.15000001 0
1.5713944 -0.24557444 -0.1519509 0
1.6597182 -0.24886517 -0.15086906 0
1.7551742 -0.24140033 -0.14971824 0
2.3369999 -0.24600001 -0.153 0
2.4265478 -0.25527388 -0.15349859 0
2.5160954 -0.26454777 -0.1539972 0
2.6504171 -0.2784586 -0.15474509 0
2.7847388 -0.2923694 -0.15549298 0
1.5355673 -0.15469632 -0.15358926 0
1.6528027 -0.14256853 -0.15310076 0
1.7653364 -0.1378518 -0.15034446 0
2.8516588 -0.10071765 -0.15604672 0
2.9414353 -0.10417059 -0.15655451 0
3.0312119 -0.10762353 -0.15706229 0
3.1589942 -0.11253823 -0.15778504 0
1.5628083 -0.045556881 -0.15443386 0
1.6702329 -0.050227519 -0.15273544 0
1.7609247 -0.054170638 -0.15130158 0
2.313 -0.079999998 -0.153 0
2.4476647 -0.085179411 -0.15376168 0
2.5823293 -0.090358824 -0.15452336 0
2.6721058 -0.093811765 -0.15503114 0
2.7618823 -0.097264707 -0.15553893 0
-2.425 0.052000001 -0.19599999 0
-2.3606033 0.051673114 -0.1982882 0
1.49 0.064000003 -0.153 0
1.5600519 0.040432852 -0.15454207 0
1.6521559 0.047298551 -0.15312618 0
1.7574934 0.04417913 -0.15217569 0
1.8715855 0.030531894 -0.15256263 0
1.962171 0.033063784 -0.15312529 0
2.0527565 0.035595678 -0.15368792 0
2.143342 0.038127571 -0.15425058 0
2.2639637 0.034329735 -0.15340661 0
2.3542342 0.035796475 -0.15408951 0
2.444505 0.037263215 -0.15477243 0
2.5552738 0.042748976 -0.15599149 0
2.6703391 0.041462641 -0.15641958 0
2.7453895 0.042503972 -0.15700793 0
2.8337348 0.030409532 -0.15681906 0
2.9236906 0.03081112 -0.15762223 0
3.0136466 0.031212708 -0.15842541 0
3.1468012 0.031807147 -0.15961429 0
-2.3615828 0.10814802 -0.19427797 0
-2.2720826 0.10514802 -0.19877797 0
1.483 0.13500001 -0.154 0
1.5562295 0.13952692 -0.15346742 0
1.6607294 0.13552691 -0.15446743 0
1.7458941 0.14552955 -0.15332215 0
1.8619881 0.14501582 -0.15512827 0
1.946982 0.15402374 -0.1546924 0
2.031976 0.16303164 -0.15425654 0
2.1169701 0.17203955 -0.15382066 0
2.2519879 0.18634915 -0.15312827 0
2.366524 0.19505724 -0.15392399 0
-2.2622356 0.26444894 -0.19179012 0
-2.1570001 0.25400001 -0.2 0
1.479 0.207 -0.155 0
1.5517069 0.2142707 -0.15446143 0
1.6698447 0.2197845 -0.15476905 0
1.7606153 0.22780247 -0.15470341 0
1.8564613 0.23420988 -0.15581365 0
1.9406919 0.24681482 -0.15522048 0
2.0249226 0.25941974 -0.15462731 0
2.1512685 0.27832717 -0.15373755 0
2.256 0.294 -0.153 0
2.456048 0.20111449 -0.15484796 0
2.545572 0.20717174 -0.15577196 0
2.6350961 0.21322899 -0.15669595 0
2.7246201 0.21928623 -0.15761994 0
2.8141441 0.22534347 -0.15854391 0
2.9484301 0.23442933 -0.1599299 0
3.0827162 0.24351521 -0.16131589 0
3.1489999 0.248 -0.162 0
-2.243891 0.34865108 -0.18963863 0
-2.1550293 0.34091333 -0.19449224 0
-2.0356808 0.38434589 -0.18704323 0
-1.971 0.37599999 -0.186 0
1.459 0.38800001 -0.15800001 0
1.684 0.33399999 -0.15899999 0
1.7667836 0.35202301 -0.15823631 0
1.8495673 0.37004599 -0.15747263 0
1.9323509 0.388069 -0.15670894 0
2.3449342 0.30388159 -0.15405123 0
2.4338684 0.31376317 -0.15510246 0
2.5228026 0.32364473 -0.15615369 0
2.6117368 0.33352631 -0.15720493 0
2.7451382 0.34834868 -0.15878177 0
2.8785396 0.36317107 -0.16035862 0
2.9674737 0.37305266 -0.16140985 0
3.0564079 0.38293421 -0.16246109 0
3.102 0.38800001 -0.163 0
-2.1570001 0.40000001 -0.189 0
-2.0646815 0.49073625 -0.18690974 0
-1.9644203 0.47068405 -0.18547744 0
1.5639629 0.40864843 -0.15670948 0
1.6613086 0.44643226 -0.15747298 0
1.725399 0.43583977 -0.15619248 0
1.829596 0.45735911 -0.15676996 0
1.911394 0.47903866 -0.15615493 0
2.0565262 0.4151035 -0.15556341 0
2.1807017 0.44213802 -0.15441787 0
2.2260001 0.45199999 -0.154 0
2.3136966 0.46743721 -0.15509483 0
2.4452415 0.49059305 -0.15673709 0
-2.1293504 0.53088486 -0.18788001 0
-2.0373187 0.56261647 -0.18641658 0
-1.949773 0.53237218 -0.18480553 0
-1.8870001 0.57300001 -0.18450001 0
-1.504182 0.58338726 -0.182 0
-1.424 0.55000001 -0.182 0
1.6461582 0.55182427 -0.15656562 0
1.7531147 0.57494855 -0.15678206 0
1.993192 0.50071818 -0.15553991 0
2.07499 0.52239776 -0.15492488 0
2.1773939 0.54953861 -0.15415493 0
2.5767863 0.51374888 -0.15837936 0
2.6644828 0.52918613 -0.15947419 0
2.7521794 0.54462332 -0.16056903 0
2.8398759 0.56006056 -0.16166387 0
2.9275725 0.57549775 -0.16275871 0
3.0211344 0.59196746 -0.16392678 0
-3.3530924 0.64088476 -0.19903281 0
-3.2780001 0.667 -0.197 0
-2.1125 0.6365 -0.18799999 0
-2.0643721 0.63165975 -0.18735826 0
-1.9520608 0.6506682 -0.18521969 0
-1.842 0.65549999 -0.18349999 0
-1.744728 0.68354905 -0.182 0
-1.664546 0.6501618 -0.182 0
-1.5843641 0.61677456 -0.182 0
-1.25 0.667 -0.17900001 0
1.3315001 0.64849997 -0.155 0
1.425879 0.65413934 -0.15450469 0
1.5513791 0.67313933 -0.1560047 0
1.6262083 0.64262569 -0.15641156 0
1.7534585 0.6771633 -0.15519789 0
1.8722295 0.61489707 -0.15556411 0
1.9516394 0.64152938 -0.15475215 0
2.0310493 0.66816175 -0.15394019 0
2.1167295 0.69689703 -0.1530641 0
2.575 0.60699999 -0.16 0
2.6444204 0.62987107 -0.15946186 0
2.7485509 0.66417766 -0.15865465 0
2.8329999 0.69199997 -0.15800001 0
-3.4711893 0.78782552 -0.19499999 0
-3.3841262 0.76855034 -0.19499999 0
-3.2535315 0.73963761 -0.19499999 0
-2.058414 0.73027045 -0.18444073 0
-1.9516068 0.75269824 -0.18233334 0
-1.8597765 0.73474628 -0.18266666 0
-1.791 0.75999999 -0.183 0
-1.4436946 0.77341598 -0.17986989 0
-1.3274778 0.70956641 -0.17934796 0
-1.2616725 0.75312507 -0.17917389 0
-1.1900001 0.79000002 -0.178 0
1.3401543 0.75721967 -0.15727815 0
1.440617 0.75387871 -0.15611266 0
1.5432813 0.76036799 -0.15509152 0
1.6625161 0.76855731 -0.15301873 0
1.8573607 0.71702671 -0.15469527 0
1.9568971 0.753407 -0.15339051 0
2.0580001 0.78600001 -0.15099999 0
2.454 0.76599997 -0.15800001 0
2.5206122 0.79172999 -0.15742823 0
-3.9065049 0.88420129 -0.19499999 0
-3.8194418 0.86492616 -0.19499999 0
-3.7323785 0.84565097 -0.19499999 0
-3.6453154 0.82637584 -0.19499999 0
-3.5582523 0.80710065 -0.19499999 0
-3.2553027 0.81858844 -0.19813192 0
-3.1775 0.8405 -0.19749999 0
-2.0289998 0.83000004 -0.1825 0
-1.9533138 0.85943794 -0.18200073 0
-1.8249931 0.85059243 -0.1825532 0
-1.7503333 0.84200001 -0.18300001 0
-1.6373889 0.87983203 -0.18073978 0
-1.5599113 0.83726561 -0.18039182 0
-1.4500347 0.86875057 -0.18004324 0
-1.3555125 0.85576648 -0.17931378 0
-1.2530838 0.85425818 -0.17823303 0
-1.16 0.85399997 -0.178 0
1.2690001 0.86400002 -0.15899999 0
1.3753924 0.84333223 -0.15794399 0
1.4487848 0.88966447 -0.15688798 0
1.54 0.81199998 -0.15700001 0
1.7413952 0.80669659 -0.15252341 0
1.8597138 0.86390555 -0.15178044 0
2.0424728 0.8009389 -0.155 0
2.1263673 0.83572668 -0.155 0
2.2102618 0.87051451 -0.155 0
2.3740001 0.86400002 -0.15700001 0
2.4375501 0.89163047 -0.15638599 0
2.5872242 0.81746006 -0.15685645 0
2.6704183 0.84959507 -0.15614234 0
-4.0139999 0.90799999 -0.19499999 0
-3.9935679 0.90347648 -0.19499999 0
-3.2417769 0.97415674 -0.19874761 0
-3.1329999 0.94499999 -0.198 0
-1.9400576 0.95946908 -0.18157822 0
-1.8654101 0.92329204 -0.18210429 0
-1.7559932 0.94822699 -0.18288963 0
-1.6443622 0.96312547 -0.18236937 0
-1.5253797 0.91500074 -0.18039098 0
-1.4460864 0.9633069 -0.17963111 0
-1.3336219 0.94989586 -0.17910026 0
-1.2378346 0.94285792 -0.17844553 0
-1.1594411 0.95963365 -0.1772344 0
-1.084 0.97299999 -0.177 0
1.196 0.94700003 -0.156 0
1.2417864 0.96905345 -0.15949483 0
1.3399961 0.91335922 -0.15778291 0
1.4109923 0.96271843 -0.15656585 0
1.5588733 0.95916277 -0.15530398 0
1.9810162 0.92255729 -0.15101874 0
2.2941563 0.90530229 -0.155 0
2.3780508 0.94009006 -0.155 0
2.4619455 0.97487783 -0.155 0
2.5489166 0.94005078 -0.15530998 0
-3.4235363 1.0228757 -0.19999681 0
-3.3505542 1.0033135 -0.19949523 0
-3.2114885 1.0475349 -0.19906676 0
-3.1342442 1.0237675 -0.19753338 0
-3.0569999 1 -0.19599999 0
-1.941797 1.0647032 -0.18497971 0
-1.8504252 1.0281993 -0.18344074 0
-1.7514145 1.0537513 -0.18143421 0
-1.6569347 1.0521195 -0.18189947 0
-1.541397 1.0545939 -0.18044417 0
-1.4374756 1.0605141 -0.18020648 0
-1.3483087 1.0452389 -0.17949124 0
-1.2353598 1.0581065 -0.17824455 0
-1.1226554 1.0579015 -0.17618518 0
-1.0420001 1.029 -0.175 0
-0.99800003 1.086 -0.17399999 0
0.86699998 1.068 -0.15899999 0
1.147 1.0526667 -0.15766667 0
1.2459747 1.0387524 -0.15645556 0
1.3332412 1.0511731 -0.15625741 0
1.4819884 1.0120776 -0.15534878 0
1.5529845 1.0614368 -0.1541317 0
1.6689619 1.0286611 -0.15371996 0
1.7423543 1.0749934 -0.15266396 0
2.5369999 1.006 -0.155 0
-1.8394377 1.1379099 -0.18198188 0
-1.7432801 1.1455008 -0.18180697 0
-1.654864 1.1662998 -0.18239227 0
-1.5685966 1.130697 -0.18169984 0
-1.4729171 1.171167 -0.18054894 0
-1.37922 1.1510537 -0.17938724 0
-1.2728565 1.1447128 -0.1782115 0
-1.1571342 1.1429881 -0.17571707 0
-1.0498832 1.1427397 -0.17420582 0
-0.96100003 1.152 -0.175 0
0.78500003 1.182 -0.15899999 0
0.84967029 1.1552361 -0.15899999 0
0.9194842 1.1347017 -0.15884875 0
1.0785 1.1700001 -0.1585 0
1.1537795 1.1652597 -0.15819333 0
1.2488959 1.135921 -0.15625244 0
1.371443 1.1496928 -0.15502502 0
1.4667604 1.1631802 -0.15278941 0
1.6594787 1.1354756 -0.15230608 0
1.8368733 1.1346629 -0.15130398 0
-2.7731495 1.2781085 -0.19079185 0
-2.6930001 1.2410001 -0.18799999 0
-1.818 1.215 -0.182 0
-1.7482971 1.2461884 -0.18354833 0
-1.6374851 1.2401543 -0.18235528 0
-1.5413558 1.2259712 -0.18122327 0
-1.4457998 1.2605176 -0.18035634 0
-1.3396345 1.2446407 -0.17890151 0
-1.2572123 1.260974 -0.17714925 0
-1.1606864 1.241376 -0.17556608 0
-1.0579851 1.2464913 -0.17544323 0
-0.93768418 1.239614 -0.17431468 0
-0.86900002 1.272 -0.17399999 0
0.69099998 1.293 -0.16 0
0.73900002 1.238 -0.16 0
0.82878804 1.2459979 -0.15922455 0
0.96254987 1.2437829 -0.15856583 0
1.0454504 1.2592286 -0.15850595 0
1.1609243 1.2522017 -0.15762037 0
1.2471311 1.2289121 -0.15677333 0
1.3121736 1.2624425 -0.15515171 0
1.4508507 1.2678207 -0.15301371 0
1.5344504 1.2172252 -0.15198676 0
1.6021405 1.2712703 -0.15118411 0
1.7799864 1.2192571 -0.15024024 0
-3.0135982 1.3894336 -0.19916742 0
-2.9334486 1.3523253 -0.19637556 0
-2.8532991 1.3152169 -0.19358371 0
-2.6489115 1.3730936 -0.18861289 0
-2.5710001 1.332 -0.186 0
-1.918 1.368 -0.18700001 0
-1.8675714 1.3301048 -0.18626276 0
-1.7399999 1.3513333 -0.18333332 0
-1.646018 1.3417435 -0.18216091 0
-1.5602932 1.3340073 -0.18092369 0
-1.4433459 1.363335 -0.1802914 0
-1.332247 1.3462731 -0.17790779 0
-1.2365986 1.3428763 -0.17646997 0
-1.1558976 1.3389764 -0.17619358 0
-1.0177367 1.3434556 -0.17525868 0
-0.91895181 1.3431355 -0.17452306 0
-0.88300002 1.363 -0.17399999 0
-0.79299998 1.362 -0.17399999 0
0.64600003 1.362 -0.162 0
0.75417155 1.3309761 -0.1601195 0
0.84660721 1.3387456 -0.15972455 0
0.95329714 1.357515 -0.15928687 0
1.0592054 1.3554572 -0.15875168 0
1.1371821 1.3285369 -0.15821588 0
1.2503974 1.3860538 -0.15658329 0
1.3485814 1.3381475 -0.15508719 0
1.436956 1.3820709 -0.15325284 0
1.5488009 1.3534276 -0.15201828 0
1.6698306 1.3253152 -0.15038146 0
1.702 1.351 -0.15000001 0
-2.8436904 1.4758275 -0.1951451 0
-2.7268231 1.4141872 -0.19122578 0
-1.6412675 1.4480336 -0.18284678 0
-1.5522397 1.4359736 -0.18210733 0
-1.4681807 1.4484347 -0.17977114 0
-1.3456993 1.4608216 -0.1779319 0
-1.2648402 1.4405503 -0.17728893 0
-1.1671671 1.4644638 -0.17718001 0
-1.0449802 1.4490449 -0.17572859 0
-0.94979739 1.4240382 -0.17481562 0
-0.83787233 1.4359788 -0.17440425 0
-0.74199998 1.426 -0.17399999 0
0.56099999 1.4400001 -0.16150001 0
0.65111399 1.4650469 -0.16102892 0
0.76604766 1.425409 -0.16047801 0
0.8500073 1.4529642 -0.15942925 0
0.94180763 1.468184 -0.15948199 0
1.0232016 1.4300996 -0.15964925 0
1.155663 1.4348598 -0.15816812 0
1.3081965 1.4494051 -0.1554444 0
1.4711622 1.4588209 -0.15275125 0
1.6315506 1.4257494 -0.15117732 0
-2.9605575 1.5374678 -0.19906443 0
-1.827 1.59 -0.186 0
-1.7459186 1.5930839 -0.18536696 0
-1.6408634 1.5190377 -0.18326512 0
-1.5423981 1.5451899 -0.18058343 0
-1.4601945 1.5588002 -0.17896675 0
-1.3348243 1.5552015 -0.17845523 0
-1.2367496 1.5503982 -0.17825973 0
-1.1489208 1.5505694 -0.17757335 0
-1.0474403 1.565979 -0.17592385 0
-0.95299971 1.5442734 -0.17519155 0
-0.85358346 1.5436018 -0.17482051 0
-0.78321111 1.501623 -0.17441627 0
-0.64620113 1.5686843 -0.17538035 0
0.44533333 1.5686668 -0.16366668 0
0.56254643 1.5534534 -0.16161768 0
0.65277112 1.570138 -0.1602101 0
0.75207049 1.5552078 -0.16008799 0
0.84303516 1.561322 -0.16048189 0
0.91299999 1.5140001 -0.16 0
1.214 1.5089999 -0.15800001 0
1.3659958 1.5127563 -0.1543055 0
1.4237949 1.5761077 -0.15316659 0
1.5614796 1.5362213 -0.15110332 0
-1.8950158 1.6502557 -0.18673037 0
-1.779 1.6645 -0.1855 0
-1.4412603 1.6390741 -0.17942233 0
-1.3433988 1.6417675 -0.17865938 0
-1.2519505 1.6470343 -0.17830168 0
-1.1505756 1.6455601 -0.1773355 0
-1.0458488 1.6584029 -0.17686522 0
-0.95324469 1.6684575 -0.17580852 0
-0.86563331 1.6528692 -0.17524882 0
-0.72460938 1.6614754 -0.17604278 0
-0.64599884 1.6509881 -0.17564711 0
-0.53649998 1.6575 -0.17550001 0
0.3655 1.653 -0.16599999 0
0.45081848 1.6571255 -0.16387327 0
0.53878844 1.6358871 -0.16270255 0
0.6851567 1.6507069 -0.15981516 0
0.78936917 1.6760988 -0.15981117 0
0.85366404 1.670995 -0.1604118 0
0.92749619 1.6226093 -0.15944964 0
1.4822971 1.6402295 -0.15201384 0
-2.0310473 1.7707669 -0.18819112 0
-1.9630316 1.7105112 -0.18746075 0
-1.8272161 1.7510154 -0.18570018 0
-1.7460001 1.757 -0.186 0
-1.3525 1.7344999 -0.17900001 0
-1.255478 1.7628394 -0.17847335 0
-1.1453013 1.752429 -0.17721842 0
-1.0544626 1.7454345 -0.17676565 0
-0.93904459 1.7365804 -0.17607757 0
-0.86500001 1.742 -0.178 0
-0.76970702 1.7561066 -0.17678209 0
-0.6667062 1.7606061 -0.17595424 0
-0.56233573 1.7409669 -0.17555714 0
-0.460789 1.7501101 -0.175 0
-0.39199999 1.7690001 -0.17399999 0
0.23933333 1.7646667 -0.16833334 0
0.33661923 1.7360964 -0.16658758 0
0.44803753 1.7263781 -0.16445011 0
0.54030192 1.7623949 -0.16370398 0
0.6196394 1.7183602 -0.16085304 0
0.71754229 1.7312759 -0.15942022 0
0.86026978 1.7528068 -0.15954378 0
0.9729923 1.7012185 -0.15889928 0
1.0292442 1.768914 -0.15817447 0
1.381 1.765 -0.153 0
-2.167079 1.891278 -0.18965186 0
-2.0990634 1.8310225 -0.1889215 0
-1.9576485 1.8750463 -0.18710053 0
-1.8583717 1.8388219 -0.18675762 0
-1.7458073 1.8432059 -0.18523517 0
-1.6900001 1.873 -0.185 0
-1.23 1.8315001 -0.178 0
-1.1354839 1.8606046 -0.1775316 0
-1.0388194 1.8307384 -0.17695862 0
-0.95660275 1.8532753 -0.17669304 0
-0.89874297 1.8089861 -0.17775005 0
-0.72974586 1.8436775 -0.17601986 0
-0.65533555 1.8819783 -0.17634283 0
-0.52892679 1.8647716 -0.175 0
-0.44229913 1.8379741 -0.17460477 0
-0.34115148 1.847617 -0.17265259 0
-0.26272884 1.8744351 -0.17262506 0
0.14049999 1.846 -0.16949999 0
0.25040963 1.8420691 -0.16839731 0
0.35825595 1.8607922 -0.16647308 0
0.46396828 1.8585163 -0.16465728 0
0.53200001 1.854 -0.163 0
0.66245914 1.8420404 -0.16027957 0
0.76612067 1.8521293 -0.15882781 0
0.86105371 1.8331482 -0.15871674 0
0.93949604 1.8604925 -0.15861771 0
1.0737165 1.8470236 -0.15789929 0
1.151 1.895 -0.15899999 0
1.299 1.836 -0.15700001 0
1.4368423 1.8360544 -0.153 0
-2.2350948 1.9515337 -0.19038223 0
-2.0554729 1.9680693 -0.18815078 0
-1.9366829 1.9464346 -0.1878725 0
-1.8382291 1.942824 -0.18594068 0
-1.7381157 1.9735622 -0.18511814 0
-1.6566666 1.9426666 -0.18433334 0
-1.126 1.911 -0.177 0
-1.0648915 1.9524071 -0.17757483 0
-0.9662289 1.9429581 -0.17725016 0
-0.7923125 1.9777377 -0.17647111 0
-0.68344742 1.965971 -0.17645711 0
-0.55139017 1.9474075 -0.175 0
-0.45589733 1.922159 -0.17431432 0
-0.2557185 1.9354631 -0.17128479 0
-0.034499999 1.962 -0.171 0
0.15123072 1.9528465 -0.17063551 0
0.25188327 1.9555272 -0.16839285 0
0.31668004 1.9633373 -0.16732745 0
0.42994547 1.9738394 -0.16516005 0
0.72763944 1.9808602 -0.16085304 0
0.86253166 1.9568852 -0.15846831 0
0.94242471 1.9467063 -0.15883516 0
1.0371602 1.9609876 -0.1590295 0
1.1511335 1.9524505 -0.15803033 0
1.3733152 1.9424241 -0.15619223 0
1.4926846 1.907109 -0.153 0
1.5485269 1.9781635 -0.153 0
-2.3371186 2.0419171 -0.19147779 0
-2.1532972 2.0610924 -0.18920104 0
-2.0320244 2.041152 -0.18880874 0
-1.9614582 2.0756481 -0.18688136 0
-1.8468155 2.0330131 -0.18613508 0
-1.7762458 2.0684974 -0.18557547 0
-1.6809851 2.0496914 -0.18480586 0
-1.5725 2.0679998 -0.18349999 0
-1.406 2.0309999 -0.184 0
-1.24 2.0910001 -0.184 0
-1.1237621 2.0615823 -0.18019088 0
-0.99998593 2.0099721 -0.17700011 0
-0.82477504 2.0618851 -0.17676534 0
-0.7115593 2.0499637 -0.17657138 0
-0.63539928 2.0948529 -0.17550001 0
-0.57385355 2.0300431 -0.175 0
-0.4511407 2.047806 -0.1733501 0
-0.037072409 2.0523641 -0.17023277 0
0.018999999 2.056 -0.17200001 0
0.17961192 2.0586381 -0.17186336 0
0.25627756 2.0523186 -0.16901526 0
0.33295336 2.0573916 -0.16705164 0
0.4761937 2.0551629 -0.16528641 0
0.75817466 2.0613556 -0.1601373 0
0.83399999 2.0209999 -0.15800001 0
0.92539382 2.0572023 -0.15938899 0
1.0585465 2.0426245 -0.15796803 0
1.1440581 2.0475407 -0.15739544 0
1.2196296 2.068372 -0.15763126 0
1.4476304 2.0488484 -0.15538445 0
1.6043692 2.0492179 -0.153 0
-2.6139743 2.1725643 -0.19499999 0
-2.507158 2.1925561 -0.19330372 0
-2.4391422 2.1323004 -0.19257334 0
-2.2511215 2.1541157 -0.19025131 0
-2.1591463 2.1674416 -0.1900571 0
-2.0230727 2.14206 -0.1873517 0
-1.9495043 2.1727731 -0.18719779 0
-1.8500352 2.1275601 -0.18553361 0
-1.7664629 2.1512287 -0.18601462 0
-1.6492795 2.1547937 -0.18432449 0
-1.5161203 2.1670504 -0.18411559 0
-1.4581203 2.1040504 -0.1846156 0
-1.2542562 2.1742883 -0.18157263 0
-1.1676455 2.139596 -0.18032467 0
-0.85723752 2.1460326 -0.17705956 0
-0.73967111 2.1339564 -0.17668566 0
-0.66104275 2.1795321 -0.17577727 0
-0.57283539 2.1256523 -0.175 0
-0.47974336 2.1826472 -0.17303577 0
-0.039644819 2.1427283 -0.16946554 0
0.021211091 2.1443274 -0.17083627 0
0.18640795 2.1417587 -0.1729089 0
0.25627169 2.1322114 -0.17017871 0
0.49503243 2.1387956 -0.1651437 0
0.75800002 2.118 -0.15899999 0
0.85945863 2.1442451 -0.1581946 0
0.96178764 2.1369047 -0.15877797 0
1.0591282 2.132535 -0.15708014 0
1.1381788 2.152302 -0.15701108 0
1.2648815 2.1450136 -0.15740551 0
1.3382442 2.1898208 -0.15849257 0
1.4971739 2.1197977 -0.15484594 0
1.5467173 2.1907473 -0.15430743 0
1.6602114 2.1202724 -0.153 0
1.7160537 2.1913271 -0.153 0
-2.572 2.25 -0.19400001 0
-2.3489456 2.2471385 -0.19130157 0
-2.2544878 2.2621589 -0.19099334 0
-2.1463017 2.274884 -0.18829238 0
-2.0683138 2.2366762 -0.18840702 0
-1.9680586 2.2639337 -0.1862227 0
-1.8722161 2.2298803 -0.18668717 0
-1.749081 2.258749 -0.18501133 0
-1.6426837 2.2651124 -0.18483377 0
-1.5681436 2.2388158 -0.18485922 0
-1.4529999 2.2839999 -0.183 0
-1.3318783 2.2431667 -0.184 0
-1.2342908 2.2566915 -0.18064934 0
-0.88970006 2.23018 -0.17735378 0
-0.73711878 2.2403913 -0.17695451 0
-0.64618361 2.2739177 -0.175 0
-0.59420246 2.207983 -0.175 0
-0.042217232 2.2330923 -0.16869831 0
0.023422183 2.2326546 -0.16967253 0
0.51393557 2.2227139 -0.1650005 0
0.84757221 2.2316122 -0.15885252 0
0.95374179 2.2424216 -0.15706123 0
1.0577738 2.2355959 -0.1579528 0
1.141263 2.2625923 -0.15638065 0
1.2518721 2.2396679 -0.15561642 0
1.3428729 2.2435937 -0.15818286 0
1.5962608 2.2616968 -0.1537689 0
1.771896 2.2623816 -0.153 0
-2.414 2.309 -0.192 0
-2.3375244 2.3446519 -0.19180876 0
-2.2079163 2.3412962 -0.18876272 0
-2.1300516 2.3705244 -0.1889298 0
-2.0270703 2.3321202 -0.18656725 0
-1.9374185 2.3543031 -0.18843219 0
-1.801108 2.3306653 -0.18534844 0
-1.7401507 2.3367119 -0.18636735 0
-1.6529537 2.362632 -0.18638511 0
-1.5011083 2.3552506 -0.18370129 0
-1.4237567 2.3953333 -0.184 0
-1.3457197 2.3285363 -0.18195438 0
-1.2427264 2.3315876 -0.18165749 0
-0.93839377 2.3564014 -0.17779511 0
-0.81699997 2.365 -0.177 0
-0.76503831 2.3255959 -0.17728892 0
-0.66446626 2.3614967 -0.17539498 0
-0.044789642 2.3234563 -0.16793108 0
0.025633276 2.320982 -0.16850881 0
0.88009626 2.3101494 -0.15780334 0
0.93686211 2.3632841 -0.15649849 0
1.0513819 2.3527558 -0.15693678 0
1.1816164 2.3430123 -0.15593326 0
1.2524768 2.3598235 -0.15490742 0
1.342922 2.3520613 -0.1561241 0
1.4318663 2.3372312 -0.15823884 0
1.6564021 2.3478231 -0.15311518 0
1.8277383 2.333436 -0.153 0
-2.3311453 2.4741201 -0.1897034 0
-2.2454803 2.4435093 -0.19040702 0
-2.1450937 2.4684937 -0.18725631 0
-2.0448785 2.4352908 -0.18832755 0
-1.9051619 2.474498 -0.18602265 0
-1.8369607 2.4218707 -0.18674803 0
-1.7242136 2.4541123 -0.18709011 0
-1.5732707 2.4621267 -0.18475321 0
-1.4325601 2.4842641 -0.18271858 0
-1.3551191 2.4397666 -0.18157323 0
-1.2849686 2.4094501 -0.18154332 0
-1.0420001 2.451 -0.17900001 0
-0.97242099 2.4420097 -0.17824043 0
-0.84745425 2.449343 -0.17782588 0
-0.74195194 2.4469094 -0.1770485 0
-0.65387028 2.4358344 -0.1757011 0
-0.038359754 2.4396901 -0.16688336 0
0.028949916 2.4534731 -0.16676322 0
0.96901214 2.4421628 -0.15575427 0
1.0524836 2.4813435 -0.15562248 0
1.1344147 2.4450638 -0.15678705 0
1.2424798 2.4345207 -0.15521728 0
1.378 2.401 -0.154 0
1.4475712 2.442476 -0.15803732 0
1.52 2.4760001 -0.15800001 0
1.8835806 2.4044905 -0.153 0
1.9394228 2.4755449 -0.153 0
-2.3699999 2.516 -0.19 0
-2.2540522 2.552561 -0.18780604 0
-2.151053 2.5616193 -0.18929482 0
-2.0798814 2.5235319 -0.19044681 0
-1.942745 2.5634189 -0.18804723 0
-1.8540509 2.545337 -0.1885013 0
-1.776237 2.5258777 -0.18783374 0
-1.6454331 2.5690031 -0.18580514 0
-1.515635 2.5474997 -0.184 0
-1.4589113 2.5653825 -0.18251044 0
-1.3694528 2.5651753 -0.18131499 0
-1.2473938 2.5421274 -0.18154569 0
-1.0537162 2.5535126 -0.17955256 0
-0.87790859 2.5336859 -0.17865176 0
-0.76806426 2.5329058 -0.17754549 0
-0.67630541 2.5212514 -0.17605165 0
-0.050714061 2.5493035 -0.1660068 0
0.032266553 2.585964 -0.1650176 0
0.96700001 2.52 -0.155 0
1.051 2.562 -0.155 0
1.1437566 2.5354168 -0.15572289 0
1.2543417 2.5367599 -0.15554705 0
1.3308506 2.5466177 -0.15449537 0
1.961 2.503 -0.153 0
-2.2536144 2.6372437 -0.18793869 0
-2.032608 2.6506655 -0.18684843 0
-1.9905292 2.6610277 -0.1908484 0
-1.8611765 2.6514072 -0.18918891 0
-1.6505275 2.66996 -0.18525322 0
-1.5367577 2.6266279 -0.18422514 0
-1.4537072 2.6467593 -0.18131831 0
-1.3467264 2.6501231 -0.1815784 0
-1.2863631 2.6607628 -0.18227419 0
-1.1317663 2.6484194 -0.18065621 0
-1.0637887 2.6580861 -0.18016398 0
-0.90836287 2.6180289 -0.17947765 0
-0.83122712 2.6517079 -0.17960453 0
-0.74608266 2.6606951 -0.1767552 0
-0.6987406 2.6066687 -0.1764022 0
-0.064419329 2.659085 -0.16514672 0
0.034477647 2.6742914 -0.16385387 0
1.138 2.602 -0.155 0
1.2460903 2.6227856 -0.15520771 0
1.3552804 2.6667943 -0.1545963 0
-1.930137 2.7289476 -0.18999112 0
-1.7758026 2.7620866 -0.18770556 0
-1.6267843 2.7735608 -0.18470857 0
-1.5534996 2.7318475 -0.18291707 0
-1.4487967 2.7577155 -0.18108113 0
-1.3255447 2.7351441 -0.18291129 0
-1.185626 2.7668712 -0.18164992 0
-1.0980515 2.7391148 -0.1808853 0
-0.95404434 2.7445431 -0.18071645 0
-0.87281799 2.7813327 -0.18043636 0
-0.76954901 2.746192 -0.17715019 0
-0.057651699 2.7752769 -0.16409491 0
0.036688738 2.7626185 -0.16269013 0
1.4220001 2.72 -0.154 0
-1.6494412 2.8506727 -0.18595028 0
-1.4250894 2.8687844 -0.18253061 0
-1.3647264 2.8095255 -0.18354839 0
-1.2215325 2.845839 -0.18231241 0
-1.1323144 2.8201435 -0.18160662 0
-0.95013553 2.8694034 -0.18147309 0
-0.83223319 2.843245 -0.17785621 0
-0.76604605 2.86292 -0.17745385 0
-0.049149405 2.8690941 -0.16321845 0
0.037999999 2.8150001 -0.162 0
-1.4610592 2.9574554 -0.18347244 0
-1.2291396 2.9535041 -0.18301207 0
-1.1665773 2.9011722 -0.18232794 0
-1.0301801 2.9554005 -0.18278116 0
-0.92827249 2.9541659 -0.18154545 0
-0.83498967 2.9838047 -0.17825767 0
-0.78848118 2.9483371 -0.1778044 0
-0.096000001 2.9330001 -0.163 0
-1.545815 3.0572004 -0.18017307 0
-1.313 3.0469999 -0.184 0
-1.2581495 3.0520012 -0.18380266 0
-1.0606344 3.0397434 -0.18360704 0
-0.95099998 3.0250001 -0.182 0
-0.89473838 3.0615928 -0.17897737 0
-1.6055415 3.1793237 -0.17975147 0
-1.112 3.1819999 -0.185 0
-1.0910888 3.1240864 -0.18443292 0
-1.6453592 3.2607391 -0.1794704 0
-1.712 3.3970001 -0.17900001 0
-1.6851768 3.3421545 -0.17918934 0
2.3840001 4.5100002 -0.13699999 0
2.4270186 4.5897441 -0.13690607 0
2.1789999 4.6469998 -0.13 0
2.470037 4.669488 -0.13681215 0
2.2180667 4.7252584 -0.13137735 0
2.5130556 4.7492318 -0.13671821 0
2.2766666 4.8426461 -0.13344339 0
2.5560739 4.8289757 -0.13662429 0
2.3352666 4.9600344 -0.1355094 0
2.5990925 4.9087195 -0.13653037 0
2.6421111 4.9884634 -0.13643645 0
2.3743334 5.0382929 -0.13688676 0
2.6851294 5.0682073 -0.13634251 0
2.4329333 5.1556807 -0.13895279 0
2.728148 5.1479511 -0.13624859 0
2.4909999 5.2719998 -0.141 0
2.7711663 5.227695 -0.13615467 0
2.8280926 5.3332195 -0.13603038 0
-4.8979998 -2.4200001 -0.054000005 0
-4.8256073 -2.3865743 -0.067261338 0
-4.7450953 -2.3493993 -0.082010083 0
-4.6645837 -2.3122244 -0.09675882 0
4.6359534 6.6822114 -0.0039616209 0
4.6844769 6.7576056 -0.014980811 0
4.7329998 6.8330002 -0.026000001 0
0.52999997 -5.1129999 0.013 0
0.52081251 -5.0240827 0.015956875 0
0.51162511 -4.9351649 0.01891375 0
0.50243765 -4.8462477 0.021870624 0
0.49325025 -4.7573299 0.024827499 0
0.48406282 -4.6684127 0.027784374 0
0.47487539 -4.5794954 0.03074125 0
0.46109426 -4.4461193 0.035176564 0
0.4473131 -4.3127427 0.039611876 0
0.44299999 -4.2709999 0.041000001 0
0.92799997 -3.885 0.032000002 0
0.88651782 -3.7085626 0.042693183 0
0.90725887 -3.7967813 0.037346594 0
0.86577672 -3.6203437 0.048039772 0
0.84503567 -3.532125 0.053386364 0
0.82429457 -3.4439063 0.058732953 0
0.80355352 -3.3556876 0.064079538 0
0.78281242 -3.2674689 0.069426134 0
0.76207137 -3.1792502 0.074772723 0
0.73095971 -3.046922 0.08279261 0
0.70300001 -2.928 0.090000004 0
4.2393847 6.0660276 0.086095944 0
4.2962923 6.1544499 0.073172703 0
4.3448153 6.2298446 0.062153518 0
4.3933382 6.3052387 0.051134326 0
4.4418612 6.3806334 0.04011514 0
4.4903846 6.456028 0.029095951 0
4.5389075 6.5314221 0.018076759 0
4.5874305 6.6068168 0.0070575699 0
