# .PCD v0.7 - Point Cloud Data file format
VERSION 0.7
FIELDS x y z intensity
SIZE 4 4 4 4
TYPE F F F F
COUNT 1 1 1 1
WIDTH 286
HEIGHT 1
VIEWPOINT 0 0 0 1 0 0 0
POINTS 286
DATA ascii
-10.570858 -10.624487 1.066115 5
-10.420973 -8.3827496 4.6057272 13
-10.17972 -10.886279 2.3456311 8
-10.319931 -10.947304 2.7492013 9
-10.193661 -8.5576267 4.3513546 13
-10.174018 -8.5889282 4.4768114 13
-9.6548901 -11.293407 2.3490016 8
-9.7098684 -11.456977 2.6952822 8.666667
-9.7275057 -8.9598246 4.3205976 13
-9.9550934 -8.756773 4.3329635 13
-9.8266888 -8.8860464 4.4387436 13
-9.3604794 -9.2639599 4.2603064 12.5
-9.4878321 -9.1528807 4.3032432 13
-9.5890512 -9.0770922 4.4133873 13
-8.901927 -9.6528492 4.3594284 13
-9.0780334 -9.5028801 4.3301616 13
-8.5655766 -12.035137 2.3499587 8
-8.5728207 -11.657948 2.5741303 8.5
-8.7823982 -11.52003 2.6313171 9
-8.5580606 -9.8906841 3.7875316 12
-8.4785137 -10.008135 4.184907 13
-8.6527729 -9.8668146 4.2677794 13
-8.7846451 -9.8982592 6.5116897 17
-8.0551004 -3.2774162 -0.40421367 2
-8.1281128 -2.4215159 -0.074780114 3
-8.1614265 -2.2713861 -0.12048373 3
-8.3049183 -11.862309 2.5963936 9
-8.2568846 -10.200679 3.8096521 12
-8.2385426 -10.217698 4.2584653 13
-7.8515062 -2.935873 -0.066470399 3
-7.7286601 -10.698195 3.8435903 12
-7.8344002 -10.560017 4.2459641 13
-7.2142987 -11.236435 3.8996079 12
-7.4393368 -11.042919 3.8837898 12
-7.3657203 -10.959936 4.2704134 13
-7.2109728 -11.209463 6.5316162 17
-7.4345732 -11.020034 6.6037974 17
-7.3070693 -11.389786 9.0675936 21
-6.9781909 -11.409925 3.9094436 12
-6.9202795 -11.340744 4.2829428 13
-7.0875764 -11.194159 4.2675662 13
-6.9515057 -11.431881 6.6436768 17
-6.8410397 -11.910251 9.0702267 21
-6.4685812 -11.676957 4.3321691 13
-6.6459665 -11.517622 4.3102798 13
-6.5522184 -11.79088 6.6699991 17
-6.6190248 -12.112527 9.1160917 21
-6.6722007 -11.921124 9.3341665 21
-6.2444263 -5.0532336 0.081525527 4
-6.1579642 -12.128258 6.7251244 17
-5.8014913 -4.6554408 -0.47056118 1
-5.8207927 -3.6129189 -0.034454778 3
-5.9275312 -3.4750779 -0.082831085 3
-5.8649483 8.4795036 -0.08660616 3
-5.8873658 -4.7394767 0.018449536 3
-5.701591 -3.6823969 0.18942769 4.1999998
-5.8587284 -3.4677694 0.21009633 4.3333335
-5.6762609 -3.8103116 0.51665699 5
-5.7973428 -3.5420737 0.41460103 5
-5.7981553 -12.449656 6.7668014 17
-5.7344704 -12.510327 6.8304443 17
-5.2240901 -3.7738166 -0.48831221 1
-5.5752654 -3.7676151 0.16008776 4
-5.367918 -12.819751 6.8756647 17
-4.5736027 -5.0331864 -0.18049142 2
-4.5951214 -4.9940119 0.022552961 3
-4.0896211 -5.3719664 -0.18121029 2.5
-4.3108635 -5.1428308 -0.16551223 2.5
-4.3059778 -5.1364331 0.024239145 3
-2.6563499 -3.5129972 -0.39151347 1
-2.5373576 2.4619412 -0.19289947 2
-2.6836698 -15.10416 10.544962 21.333334
-2.3162277 1.9450529 -0.19694644 2
-2.1898477 2.3943782 -0.18417108 2
-2.2067831 -15.526047 10.668469 21
-2.004169 -15.684394 10.990056 22
-2.242943 -15.501012 10.931454 22
-1.6817548 1.0937531 -0.19852719 1
-1.9813824 2.3920534 -0.17620295 2
-1.7206779 2.4175234 -0.16654652 2
-1.3993121 1.1727831 -0.18582512 0.5
-1.357832 1.2370311 -0.18073782 1
-1.3577681 1.9446523 -0.16298296 1
-1.4224906 2.3534641 -0.15355153 2
-1.575664 5.1997409 -0.050078552 3
-1.4220129 5.6220474 -0.053342227 3
-1.3517092 -16.262217 11.021871 21
-1.3446666 -16.188232 11.282373 22
-1.0883706 -7.2285175 -0.50243771 1
-0.83894807 -8.6986027 -0.37936166 2
-0.84080017 -3.2558653 -0.15815684 1.8
-0.97537154 -3.1679976 -0.066136368 3
-0.81166005 1.5834093 -0.15125501 1
-1.1169759 1.8935515 -0.15026534 1
-0.9787572 2.0501339 -0.14192724 2
-0.97535568 4.8495479 -0.046807747 3
-0.75483006 -7.3215132 -0.4853135 1
-0.62678343 -3.4067833 -0.11790373 2.5
-0.57915401 1.5200037 -0.14471266 1
-0.5817886 2.1100399 -0.12150249 2
-0.71301872 4.6882062 -0.045378581 3
-0.6487658 -2.607317 0.041915826 4
-0.71816194 -2.3744378 0.072960414 4
-0.49306998 -1.7472104 0.31415248 8.5
-0.48422292 -1.7697661 0.58390969 12.666667
-0.12131912 -1.9503683 -0.043103468 2.4000001
-0.17855467 1.4259354 -0.13530099 0.66666669
-0.28692612 1.8992001 -0.11850736 2
-0.12168818 2.1670358 -0.10739312 2
-0.1131349 3.0772347 -0.074385285 3
-0.26820239 -1.846414 0.21813117 6.818182
-0.31602943 -1.8261003 0.57231122 12.375
0.23268573 -2.11413 -0.071092419 2.2
0.0096455216 -1.9475259 -0.073237136 2
0.23956119 1.5298327 -0.11798787 1
0.35208073 1.7112585 -0.10597099 2
0.033733357 2.1417143 -0.10369968 2
0.22251043 2.4059148 -0.087056585 2
0.2102913 3.0113997 -0.062979855 3
0.37349266 -2.2620854 0.11185846 5
0.66381556 1.4057761 -0.10740698 1.5
0.72826964 1.8814056 -0.083526835 2
0.56326616 2.5715151 -0.06767337 3
0.74226832 -2.5464911 0.16264692 5
0.50997585 -2.3839934 0.15028954 5.5
0.74194545 -2.5738871 0.51548135 9
0.51649857 -2.3834636 0.46829429 9
0.69295388 26.123489 19.072748 22
1.1565799 -2.1283407 -0.20714131 1
1.1907104 -1.9616585 -0.20111205 1
0.92302895 0.7396844 -0.11290773 0
0.96935838 0.96777695 -0.10417233 0.60000002
1.0902902 1.2871238 -0.095364831 2
1.1436902 2.3002079 -0.047145769 3
0.91712171 2.6727972 -0.050193515 3
0.98659968 -2.9360585 0.010218605 3
0.81382805 -2.6080801 0.16854528 5
0.98703527 26.682249 18.497536 22
1.1066442 26.267601 20.162916 23
1.4827764 -4.9261699 -0.21576254 2
1.5251585 -4.180522 -0.27871802 1
1.5693016 -3.746758 -0.25766852 1
1.2147799 -1.8029851 -0.19509393 1
1.5900396 -0.88754797 -0.14723581 1
1.492955 -0.5200851 -0.13797587 0.66666669
1.4466773 -0.29251504 -0.13165249 0.25
1.2859572 0.19666259 -0.12480371 0
1.4189205 0.6613068 -0.10071087 1
1.5545318 0.98657441 -0.08345288 2
1.4309473 1.3141178 -0.071811907 2
1.4407794 2.2612791 -0.040203173 3
1.2527159 -3.029212 0.016985977 3
1.4383473 4.8307328 0.36718068 5
1.4785546 4.767015 0.46578437 6
1.2921237 4.8320971 0.45295271 6
1.9771199 -4.7060337 -0.28522205 2
1.740284 -2.2255073 -0.20095436 1
1.7597915 -1.727695 -0.17443374 1
1.7261562 -1.4425466 -0.16199009 1
1.6238824 -1.0634304 -0.15266101 1
1.9026774 -0.26521581 -0.11203307 1
1.7497162 0.23031701 -0.096867919 1.5
1.6965894 0.89791989 -0.082282916 2
1.8024577 1.8573121 -0.046455797 3
1.6594729 2.071229 -0.042224281 3
1.8060948 -3.3737609 0.023608422 3
1.6391531 4.7397761 0.48402077 6
1.8746936 25.17713 18.557072 22
2.0374646 -5.5757132 -0.32017249 2
2.1516483 -3.5412633 -0.12197371 2
2.3887143 -2.1555717 -0.16559768 2
2.0460725 -0.83141112 -0.12213709 2
2.0933149 -0.59783578 -0.11063367 2
2.1221817 -0.32496834 -0.10019403 2
2.2308655 0.71706635 -0.056346588 2.5
2.0204682 0.81296593 -0.062318034 2
2.2272887 1.2713176 -0.050069667 3
2.3557024 2.109019 -0.011646719 3
2.3474233 -4.3135085 0.19823593 4
2.2069705 25.525784 18.654449 22
2.1450107 24.846817 19.075762 23
2.4908299 -3.7205315 -0.11254883 2
2.7026801 -3.5960989 -0.20826027 2
2.5178514 -3.0107589 -0.19546764 2
2.4232924 -2.6351833 -0.18057273 2
2.511656 -2.2545943 -0.16493237 2
2.5200424 -1.769367 -0.14890842 2
2.439708 -1.378968 -0.12502867 2
2.5316217 0.0063267732 -0.06677977 2
2.4682856 0.61228889 -0.049347054 3
2.5583107 2.0852048 -0.015170604 3
2.6683762 4.4401264 0.076644987 4
2.6469829 3.2825916 0.40088448 6
3.0671043 -0.91493994 -0.08569482 2
3.1691487 -0.47325739 -0.069654383 3
3.0263557 -0.23467593 -0.06844683 3
3.0335884 0.074904189 -0.044086993 3
2.9645183 1.0313503 -0.029967653 3
3.1672022 1.4992296 0.011840587 3
3.1025579 3.4152131 0.19071816 4
2.9788694 3.8246636 0.059656907 4
2.9219794 4.3760781 0.072441362 4
2.8615258 2.9779813 0.40595442 6
2.9436996 24.991577 17.877184 22
3.0307426 24.691853 18.421156 22
3.5023322 -1.333076 -0.068028845 3
3.5539143 -1.0661343 -0.072979853 3
3.3930464 -0.74542594 -0.07576365 3
3.4140918 2.7869954 0.040472332 4
3.2389812 3.2476137 0.18832634 4
4.3276939 -2.032536 -0.066827074 3
4.3338308 1.5504169 0.17974767 4
4.5483665 -2.5524194 -0.093533896 3
4.466711 -6.07335 0.15641446 4
4.7913127 0.73457032 0.015123594 3
4.5645704 1.0494627 0.10755255 3.5
4.4476581 1.362089 0.18210912 4
4.5620584 2.1340804 0.19850524 4
4.484045 -6.0435429 0.64094234 6
4.4882598 -5.9755907 0.43295655 5
5.430594 -9.9927254 -0.3421973 2
5.4824352 -6.0139418 -0.11962419 3
5.4026718 -5.3046579 -0.15863305 3
5.2765555 -3.4541433 -0.10755312 3
6.9983683 -0.68056583 0.27691549 4
7.0009041 0.19164056 0.23764983 4
7.7173109 -1.5361252 0.083089828 4
8.2166166 -7.3985868 -0.14280149 3
8.3629742 -2.0140922 0.094063498 4
8.2517262 -1.2116199 0.11282738 4
8.2774458 -0.33275574 0.30068138 4
8.3338842 5.6700363 0.2867952 4
9.1703281 -2.7316666 0.15725712 4
9.5695229 -11.521686 -0.21552922 3
11.580608 -5.3542295 0.25262806 4
11.302431 -3.9621427 0.21035449 4
11.891616 16.463966 14.456477 22
12.218571 16.153389 14.414822 22
12.036909 16.253422 15.251212 23
12.693727 -7.5928507 0.59795475 4
12.552337 15.851846 14.386143 22
13.370152 -6.066391 0.70222384 5
13.373545 -6.0088134 1.163237 6
13.335601 -6.1693411 1.3781579 6
13.382535 14.571265 19.830263 27
13.821159 -5.5724225 0.2269621 4
13.786513 14.267776 19.715633 27
13.608736 14.454737 19.728943 27
14.360167 13.757241 19.679663 27
14.015691 14.061129 19.671463 27
18.970997 -12.58586 0.92156476 4
19.125347 14.149713 15.829415 21
19.269466 14.329942 14.336434 19
19.543112 13.774959 15.896696 21
19.440828 13.781844 16.932505 22
19.469187 12.678286 23.700005 27
19.616318 14.024074 13.910496 19
19.626261 12.32243 23.809725 27
19.707077 12.64379 23.606472 27
20.358683 12.996018 16.038179 21
20.231834 13.051887 17.096888 22
20.162609 12.631723 17.545286 22
20.74901 11.948305 15.879127 21
20.769379 12.600973 16.121389 21
20.599451 12.664529 17.172016 22
20.546412 12.224389 17.625454 22
20.867989 12.098695 14.572154 20
20.900459 11.911796 14.880428 20
21.011768 12.294566 17.284178 22
22.507723 -20.059885 0.41836467 4
22.867353 -21.505518 2.6645977 6
23.35705 -20.999659 2.6584625 6
23.528761 -20.751781 3.2067835 6
23.878399 -20.591196 1.9473573 5
23.791473 -20.457952 2.6512532 6
23.962048 -20.130867 3.1745906 6
24.264755 -20.239843 0.85003197 4
24.078125 -20.363941 1.284716 4
24.349804 -20.068205 1.9902018 5
24.224794 -19.915157 2.6430452 6
24.4893 -20.005449 1.6654315 5
40.501457 -28.097895 13.745357 11
40.552456 -27.838388 14.338493 12
40.615391 -27.487602 14.804673 12
40.731125 -26.989079 15.185968 12
40.832451 -26.677177 14.227193 12
