# .PCD v0.7 - Point Cloud Data file format
VERSION 0.7
FIELDS x y z intensity
SIZE 4 4 4 4
TYPE F F F F
COUNT 1 1 1 1
WIDTH 1079
HEIGHT 1
VIEWPOINT 0 0 0 1 0 0 0
POINTS 1079
DATA ascii
-5.812479 -4.7825665 -0.20351684 0
-5.7449861 -4.7363777 -0.21067789 0
-5.6437464 -4.6670942 -0.22141947 0
0.56574786 -4.1415229 -0.22750938 0
0.86296046 -4.1543036 -0.22570355 0
0.27097756 -4.0700302 -0.22658344 0
0.55279654 -4.0182366 -0.22601499 0
0.84236073 -4.0410919 -0.2244918 0
0.26683569 -3.952678 -0.22489603 0
0.54409742 -3.9354274 -0.22501124 0
0.82680064 -3.9555769 -0.2235765 0
-1.575 -3.8210001 -0.215 0
-1.289156 -3.864332 -0.21666272 0
-0.81158507 -3.8673973 -0.21586695 0
-0.71805882 -3.864481 -0.21579258 0
-0.53500003 -3.872 -0.21600001 0
-0.4413887 -3.832787 -0.21582581 0
-0.26442653 -3.8605447 -0.21785781 0
-0.13082838 -3.8292315 -0.21891914 0
-0.083930343 -3.8461204 -0.21899565 0
0.0040000007 -3.8110001 -0.219 0
0.26371631 -3.8642955 -0.22362517 0
0.5353983 -3.8526185 -0.2240075 0
0.81124049 -3.8700614 -0.2226612 0
-1.5481927 -3.7518737 -0.21428408 0
-1.245428 -3.7225866 -0.21499513 0
-1.002 -3.767 -0.21799999 0
-0.99097914 -3.7282927 -0.21746239 0
-0.79413605 -3.7672355 -0.21518712 0
-0.69905889 -3.7318144 -0.21479258 0
-0.52570093 -3.7615271 -0.21488412 0
-0.43414783 -3.7239785 -0.21504301 0
-0.2687133 -3.7655225 -0.21642891 0
-0.16097426 -3.7481346 -0.2175241 0
-0.075930342 -3.7451205 -0.21849564 0
0.045349024 -3.7706332 -0.21785453 0
0.26059693 -3.7759128 -0.22235431 0
0.52669913 -3.7698092 -0.22300375 0
0.7956804 -3.7845461 -0.22174591 0
1.7834649 -3.7672987 -0.22866593 0
-1.4992149 -3.6255779 -0.21297607 0
-1.219224 -3.6376455 -0.21399583 0
-0.96858335 -3.6496341 -0.21636991 0
-0.773085 -3.6463971 -0.21436696 0
-0.68770593 -3.6525428 -0.21419504 0
-0.51628035 -3.649611 -0.21375364 0
-0.42851827 -3.6393828 -0.21443442 0
-0.14894079 -3.6531096 -0.21643297 0
-0.068000004 -3.645 -0.21799999 0
0.01099895 -3.6479247 -0.2183001 0
0.25747755 -3.6875303 -0.22108345 0
0.51800001 -3.687 -0.222 0
0.77234018 -3.6562731 -0.22037295 0
1.7368367 -3.6701374 -0.22659867 0
-1.466563 -3.5413806 -0.21210405 0
-1.1397655 -3.5309093 -0.21221285 0
-0.9461875 -3.5709755 -0.21527743 0
-0.75203401 -3.5255589 -0.21354678 0
-0.67635298 -3.5732715 -0.21359752 0
-0.50999999 -3.575 -0.213 0
-0.4228887 -3.5547872 -0.21382581 0
-0.1505 -3.5809999 -0.2155 0
0.014 -3.5780001 -0.21799999 0
0.25279847 -3.5549564 -0.21917716 0
0.74900001 -3.5280001 -0.219 0
1.6781971 -3.5479479 -0.22399889 0
1.7610849 -3.5084174 -0.222378 0
1.8041728 -3.5934224 -0.22390014 0
-1.4339112 -3.4571834 -0.21123205 0
-1.166816 -3.4677637 -0.21199723 0
-1.0809574 -3.4262671 -0.2109815 0
-0.91259372 -3.4529879 -0.21363872 0
-0.73799998 -3.4449999 -0.213 0
-0.66500002 -3.494 -0.213 0
-0.41725913 -3.4701915 -0.2132172 0
0.24811938 -3.4223826 -0.21727087 0
1.6195579 -3.4257584 -0.22139911 0
1.7208242 -3.4289904 -0.22095576 0
-1.4012593 -3.3729861 -0.21036004 0
-1.140612 -3.3828228 -0.21099791 0
-1.0556383 -3.3525114 -0.21032099 0
-0.87900001 -3.335 -0.212 0
-0.40881479 -3.343298 -0.21230429 0
0.245 -3.3340001 -0.21600001 0
1.5804648 -3.3442986 -0.21966593 0
1.6805637 -3.3495631 -0.2195335 0
-1.3522816 -3.2466903 -0.20905203 0
-1.114408 -3.2978818 -0.20999861 0
-1.0411744 -3.2322323 -0.20921993 0
1.5413718 -3.2628388 -0.21793275 0
1.640303 -3.2701359 -0.21811125 0
-1.3033037 -3.1203945 -0.20774402 0
-1.062 -3.128 -0.208 0
1.5310304 -3.1463304 -0.21573316 0
1.6000425 -3.1907086 -0.21668901 0
-1.2706519 -3.0361972 -0.206872 0
1.4436395 -3.0591898 -0.21359977 0
1.5195212 -3.0318542 -0.21384449 0
-1.238 -2.9519999 -0.206 0
1.385 -2.937 -0.211 0
1.4792606 -2.9524271 -0.21242225 0
1.439 -2.8729999 -0.211 0
-5.987 -4.902 -0.185 0
-5.9474645 -4.8749437 -0.18919474 0
-5.879972 -4.8287554 -0.19635579 0
-2.5079999 -2.2479999 -0.19 0
-2.533 -2.1630001 -0.191 0
-2.461786 -2.1539202 -0.18984421 0
-2.376466 -2.1298759 -0.18861958 0
-2.411931 -2.0595379 -0.1895479 0
-2.3266113 -2.0354934 -0.18832326 0
-2.2425995 -2.0096569 -0.18721469 0
-1.74 -2.0550001 -0.184 0
1.5513391 -2.06023 -0.19524081 0
-2.2754483 -1.9429035 -0.18791093 0
-2.1756663 -1.9495474 -0.18651223 0
-1.6613007 -1.9583213 -0.18336914 0
1.4607493 -1.9411483 -0.1918453 0
1.5482577 -1.9907544 -0.1939674 0
-3.3340001 -1.8789999 -0.18700001 0
-3.2460866 -1.8298563 -0.18658087 0
-2.207207 -1.8845862 -0.18709244 0
-2.1238494 -1.8578534 -0.18604186 0
-2.0417998 -1.8293285 -0.18510734 0
-1.5772406 -1.855057 -0.18269531 0
1.3655813 -1.8461084 -0.1888414 0
1.4410412 -1.8545388 -0.18997672 0
1.50684 -1.8465943 -0.18398193 0
-3.1274939 -1.7635632 -0.18601547 0
-3.0484321 -1.7193677 -0.18563853 0
-2.849 -1.785 -0.189 0
-2.7748957 -1.7396121 -0.18821444 0
-2.0366035 -1.7387931 -0.18504623 0
-1.9413998 -1.7391644 -0.18405366 0
-1.5212004 -1.7862142 -0.1822461 0
-1.4651604 -1.7173713 -0.18179688 0
-1.1263533 -1.731979 -0.18283713 0
1.2612907 -1.7070541 -0.1849207 0
1.3585367 -1.7494487 -0.18578942 0
1.4621119 -1.7493075 -0.18228221 0
1.517 -1.77 -0.182 0
1.9509612 -1.736073 -0.18675679 0
-2.9693704 -1.6751723 -0.18526161 0
-2.8501544 -1.6489885 -0.18544233 0
-2.7664802 -1.642199 -0.18568541 0
-2.6586614 -1.6684203 -0.18698227 0
-1.9342414 -1.6513172 -0.18381849 0
-1.841 -1.649 -0.183 0
-1.4091203 -1.6485286 -0.18134767 0
-1.1445484 -1.6432518 -0.18184358 0
-1.0880001 -1.655 -0.182 0
1.2446809 -1.6438713 -0.18347552 0
1.3463401 -1.6520944 -0.18148193 0
1.4173256 -1.6552329 -0.18074228 0
1.5266066 -1.6197472 -0.18071349 0
1.8385842 -1.6340742 -0.18448655 0
-3.3476331 -1.5925304 -0.18214259 0
-3.2539034 -1.5471652 -0.18314236 0
-3.1735404 -1.5082695 -0.18399957 0
-2.8112469 -1.5867816 -0.18450773 0
-2.7321851 -1.5425862 -0.1841308 0
-2.6485081 -1.5749693 -0.18483259 0
-2.5364816 -1.5524839 -0.18486494 0
-2.4649374 -1.5497673 -0.18492867 0
-2.3874478 -1.5023061 -0.18410723 0
-1.8765 -1.5650001 -0.1825 0
-1.3530803 -1.5796857 -0.18089844 0
-1.2970401 -1.5108429 -0.18044923 0
-1.114 -1.5700001 -0.18000001 0
1.165 -1.541 -0.1805 0
1.253316 -1.5644007 -0.18082577 0
1.3358285 -1.5613956 -0.17971392 0
1.4513705 -1.5409952 -0.17954159 0
1.5522929 -1.5456263 -0.17950042 0
1.7382457 -1.5430022 -0.1824595 0
1.8932302 -1.528425 -0.18126208 0
1.934 -1.562 -0.182 0
2.6233196 -1.5067581 -0.17739433 0
2.7534888 -1.5521326 -0.1784053 0
-3.0529962 -1.449926 -0.18528537 0
-2.6531234 -1.4983908 -0.18375386 0
-2.5740616 -1.4541954 -0.18337694 0
-2.473444 -1.4364598 -0.18320562 0
-2.341599 -1.4364722 -0.18306424 0
-2.2324686 -1.4073837 -0.18246433 0
-1.8213558 -1.4853473 -0.18115841 0
-1.7515614 -1.4304289 -0.18026361 0
-1.2410001 -1.442 -0.18000001 0
1.187 -1.459 -0.17900001 0
1.2271657 -1.4362791 -0.17834279 0
1.3661065 -1.4517471 -0.17821349 0
1.4569216 -1.4516062 -0.17809607 0
1.5591974 -1.4567944 -0.17814863 0
1.6379073 -1.4519303 -0.18043247 0
1.7549568 -1.4145527 -0.1787594 0
1.8240936 -1.4714888 -0.18001074 0
2.4650264 -1.4174786 -0.17575115 0
2.544173 -1.4621184 -0.17657274 0
2.6339846 -1.4327655 -0.17631391 0
2.7139828 -1.4756283 -0.17723767 0
-2.9324517 -1.3915825 -0.18657118 0
-2.8520887 -1.3526869 -0.18742839 0
-2.7717259 -1.3137913 -0.18828559 0
-2.2552681 -1.3508697 -0.18198989 0
-2.1549792 -1.3599224 -0.18164289 0
-2.0774896 -1.3124613 -0.18082145 0
-1.6468697 -1.3480513 -0.1789214 0
1.2669394 -1.3264915 -0.17626189 0
1.3624593 -1.3484728 -0.17664687 0
1.4578931 -1.3446231 -0.17672297 0
1.5702381 -1.3369557 -0.17678125 0
1.6512518 -1.3291485 -0.17688239 0
2.3622007 -1.3350716 -0.17419337 0
2.4739881 -1.3470398 -0.17446637 0
2.5539863 -1.3899026 -0.17539014 0
-2.6511815 -1.2554477 -0.1895714 0
-2.137296 -1.2836398 -0.18113708 0
-2.0586481 -1.23882 -0.18056855 0
-1.9586239 -1.2429061 -0.17978746 0
-1.5421779 -1.2656736 -0.17757919 0
-1.4723834 -1.2107552 -0.17668439 0
1.2455001 -1.2345001 -0.175 0
1.3341295 -1.2494787 -0.17485809 0
1.431936 -1.2302172 -0.17503285 0
1.5548878 -1.2412504 -0.17471869 0
2.1484399 -1.2389194 -0.17246477 0
2.2307897 -1.2510053 -0.17249072 0
2.3139915 -1.2613142 -0.17261884 0
-1.98 -1.194 -0.18000001 0
-1.8366375 -1.1691288 -0.17844206 0
-1.7614036 -1.1225389 -0.17752177 0
-1.402589 -1.1558368 -0.17578959 0
-1.3327944 -1.1009184 -0.17489479 0
1.2625 -1.138 -0.17299999 0
1.3569932 -1.1559067 -0.17357145 0
1.4516321 -1.1430799 -0.17262024 0
1.5523618 -1.1379904 -0.17197984 0
1.9505733 -1.1273199 -0.1704108 0
2.0716448 -1.1635027 -0.17074536 0
2.1539948 -1.1755885 -0.1707713 0
-1.6485527 -1.0526541 -0.17614132 0
-1.263 -1.046 -0.17399999 0
1.2725 -1.0420001 -0.171 0
1.3396039 -1.0448946 -0.17022634 0
1.4268813 -1.0473849 -0.1698568 0
1.5611963 -1.0149003 -0.17044412 0
1.604 -1.0420001 -0.171 0
1.8834369 -1.0312191 -0.16809988 0
1.9406662 -1.0612875 -0.16830792 0
-2.05 -0.92799997 -0.18000001 0
-1.9913197 -0.90169787 -0.1792509 0
-1.5357018 -0.98276943 -0.17476088 0
-1.4604678 -0.93617964 -0.1738406 0
1.276 -0.9465 -0.16749999 0
1.3417003 -0.96988976 -0.16803356 0
1.4617476 -0.95193774 -0.16915256 0
1.57261 -0.91944546 -0.16867824 0
1.6409297 -0.93127739 -0.16888748 0
1.7559865 -0.93792969 -0.16764599 0
1.8442582 -0.96249098 -0.16902383 0
1.9172243 -0.98111105 -0.16932981 0
-2.0430269 -0.81166595 -0.17890261 0
-1.9105297 -0.86548567 -0.17821954 0
-1.8297398 -0.82927346 -0.17718817 0
-1.3476169 -0.86629486 -0.17246015 0
1.296 -0.847 -0.167 0
1.3663508 -0.84629321 -0.1672653 0
1.4378049 -0.84222275 -0.16733912 0
1.5052074 -0.8808341 -0.16800869 0
1.6439538 -0.85676664 -0.16698956 0
1.7551174 -0.83879513 -0.16674653 0
1.828948 -0.8753249 -0.16773601 0
1.923 -0.88300002 -0.16599999 0
-2.062 -0.704 -0.177 0
-1.9502971 -0.77504051 -0.17807956 0
-1.8685404 -0.74274898 -0.17735392 0
-1.7678667 -0.75175935 -0.17639254 0
-1.6681598 -0.75684893 -0.17512545 0
-1.5873699 -0.72063673 -0.1740941 0
1.3391045 -0.74214578 -0.16481183 0
1.4534183 -0.75858331 -0.16424735 0
1.5324057 -0.75336415 -0.16388616 0
1.6358509 -0.77051997 -0.16456796 0
-2.048207 -0.69934821 -0.17691875 0
-1.9650562 -0.67130464 -0.1764289 0
-1.8819053 -0.64326113 -0.17593905 0
-1.7518907 -0.6466918 -0.1756759 0
-1.6232703 -0.6458745 -0.17517695 0
-1.5240467 -0.64900374 -0.17375702 0
-1.42579 -0.64821225 -0.17203137 0
-1.345 -0.61199999 -0.171 0
1.2955 -0.64100003 -0.162 0
1.373728 -0.63761777 -0.16163376 0
1.4534562 -0.67323554 -0.16226754 0
-2.0439999 -0.59600002 -0.175 0
-1.9616518 -0.57191014 -0.17450836 0
-1.8777015 -0.54735154 -0.17400718 0
-1.7546774 -0.5549835 -0.17423268 0
-1.6324527 -0.55913055 -0.17446953 0
-1.5493017 -0.53108704 -0.17397968 0
-1.4629538 -0.54216754 -0.17360774 0
-1.378 -0.54900002 -0.17299999 0
-2.0242829 -0.48364019 -0.1730383 0
-1.9349136 -0.46238318 -0.17363709 0
-1.8512614 -0.44248599 -0.17419757 0
-1.738705 -0.46041155 -0.17388141 0
-1.6549038 -0.43818367 -0.17391106 0
-1.5419005 -0.44911718 -0.17200239 0
-1.4579502 -0.42455858 -0.1715012 0
-1.383 -0.47499999 -0.17299999 0
-1.6003045 -0.38279438 -0.17587903 0
-1.5166522 -0.36289719 -0.17643951 0
-1.433 -0.34299999 -0.177 0
-1.374 -0.40000001 -0.171 0
-3.3280001 -0.25400001 -0.169 0
-3.2707028 -0.24994567 -0.169 0
-3.1803327 -0.24355111 -0.169 0
-3.0899622 -0.23715654 -0.169 0
-2.9544067 -0.22756469 -0.169 0
-2.8188515 -0.21797284 -0.169 0
-2.7284813 -0.21157828 -0.169 0
-2.6381109 -0.2051837 -0.169 0
-2.5477407 -0.19878913 -0.169 0
-2.4573703 -0.19239457 -0.169 0
-2.3670001 -0.186 -0.169 0
-3.2136497 -0.089948058 -0.16500261 0
-3.1399956 -0.039881613 -0.16503491 0
-3.0260501 -0.050675478 -0.16510208 0
-2.9361062 -0.049528543 -0.16515182 0
-2.8461623 -0.048381612 -0.16520156 0
-2.7562187 -0.047234677 -0.1652513 0
-2.666275 -0.046087742 -0.16530104 0
-2.5763314 -0.044940803 -0.16535078 0
-2.4579351 -0.053192448 -0.16556717 0
-2.3349526 -0.032101419 -0.16533333 0
-2.3517957 0.098342367 -0.16277717 0
-2.263 0.094999999 -0.163 0
1.314248 0.053732932 -0.10408923 0
1.4434736 0.058613054 -0.12146246 0
1.5592757 0.078800648 -0.12612653 0
1.6588496 0.066746585 -0.15041785 0
1.745 0.07 -0.162 0
-3.0599999 0.12499999 -0.161 0
-2.9733648 0.12173896 -0.16121741 0
-2.8845692 0.11839658 -0.16144022 0
-2.7513757 0.11338302 -0.16177446 0
-2.6181824 0.10836948 -0.1621087 0
-2.5293868 0.10502711 -0.16233152 0
-2.4405913 0.10168473 -0.16255435 0
1.557 0.112 -0.16 0
1.6650646 0.13921425 -0.15128013 0
1.761139 0.15970281 -0.15509188 0
1.8116904 0.13078485 -0.15784235 0
1.9157619 0.1311394 -0.16203611 0
2.0502977 0.13831668 -0.16279966 0
2.1848335 0.14549395 -0.16356319 0
2.274524 0.15027881 -0.16407222 0
2.3642144 0.15506364 -0.16458124 0
2.438 0.15899999 -0.16500001 0
1.6795 0.25150001 -0.1595 0
1.7673129 0.25840002 -0.1574617 0
1.4960001 0.368 -0.15899999 0
1.5633864 0.38938788 -0.15841404 0
1.6625656 0.3370578 -0.15818389 0
1.7497789 0.34977618 -0.15774693 0
1.8248876 0.339964 -0.15927489 0
1.9523034 0.36243701 -0.15948106 0
2.0797191 0.38490999 -0.15968725 0
2.1646628 0.399892 -0.1598247 0
3.0512981 0.38793921 -0.17371273 0
3.1335964 0.39087844 -0.16342545 0
1.483 0.442 -0.15899999 0
1.5477554 0.46585724 -0.15807049 0
1.650539 0.44061485 -0.15767081 0
1.753252 0.45342034 -0.15764281 0
1.8637563 0.48626101 -0.1584284 0
2.2613034 0.41693699 -0.15998107 0
2.9979999 0.456 -0.176 0
3.0670958 0.4624204 -0.17385986 0
3.1361918 0.46884084 -0.17171971 0
3.214644 0.4761306 -0.1692898 0
1.482 0.56199998 -0.162 0
1.5636218 0.54417825 -0.15931542 0
1.6787114 0.51884317 -0.15678616 0
1.7487366 0.54791576 -0.15829396 0
1.8306049 0.57187361 -0.15844095 0
1.9297408 0.55125642 -0.15857956 0
2.0302606 0.52710164 -0.158714 0
2.1690924 0.56115478 -0.15895212 0
2.7535512 0.55036002 -0.16249686 0
2.8722053 0.56944007 -0.1639875 0
2.9513078 0.58216006 -0.16498125 0
3.0304105 0.59488004 -0.165975 0
-2.1813626 0.69973123 -0.15525539 0
-2.099 0.671 -0.155 0
1.461 0.63499999 -0.162 0
1.5402788 0.68279266 -0.15955903 0
1.6302433 0.62685645 -0.15863085 0
1.9943415 0.61978936 -0.1587349 0
2.0762098 0.64374721 -0.15888189 0
2.142 0.66299999 -0.15899999 0
2.2275982 0.69201308 -0.16044104 0
3.1107564 0.60780001 -0.16698438 0
-2.4284511 0.78592479 -0.15602155 0
-2.3460884 0.75719362 -0.15576617 0
-2.2637255 0.7284624 -0.15551078 0
1.395 0.77399999 -0.161 0
1.4722416 0.72842288 -0.16279811 0
1.5639834 0.77884585 -0.15859619 0
1.6359049 0.73210639 -0.15866667 0
1.7607152 0.78931898 -0.15899999 0
2.3559957 0.73553276 -0.1626026 0
2.4843929 0.77905238 -0.16476418 0
2.8729999 0.79000002 -0.175 0
2.9351227 0.79892784 -0.17276804 0
-2.7548161 0.84736395 -0.15755939 0
-2.6742697 0.84105921 -0.15889385 0
-2.5519953 0.82902163 -0.15640464 0
-1.5559621 0.89302987 -0.15380931 0
-1.479 0.84799999 -0.155 0
1.3716668 0.84966666 -0.16133334 0
1.4653642 0.84882247 -0.16024216 0
1.5389153 0.85261011 -0.15939154 0
1.6423705 0.8977384 -0.15922669 0
1.8386203 0.82142532 -0.15899999 0
1.955478 0.8695848 -0.15899999 0
2.0353334 0.86500001 -0.15866667 0
2.1453741 0.83538812 -0.15966552 0
2.2287481 0.86977625 -0.16133104 0
2.5699911 0.80806547 -0.16620523 0
2.6555896 0.83707857 -0.16764629 0
2.7411878 0.86609167 -0.16908734 0
2.826786 0.89510477 -0.17052838 0
2.9972456 0.80785567 -0.17053609 0
3.04 0.81400001 -0.169 0
-2.7249999 0.95999998 -0.15800001 0
-2.6379726 0.95398694 -0.15792963 0
-2.5490918 0.93511975 -0.15717606 0
-2.4615917 0.93561983 -0.15267606 0
-2.3900001 0.91000003 -0.15099999 0
-2.2750001 0.98799998 -0.149 0
-2.1532826 0.99015182 -0.15267147 0
-2.0751412 0.95407593 -0.15183572 0
-1.997 0.91799998 -0.15099999 0
-1.7098863 0.98308957 -0.15142792 0
-1.6329242 0.93805975 -0.15261862 0
-1.4258659 0.92699611 -0.15294392 0
-1.386 0.93199998 -0.152 0
1.286 0.98000002 -0.15899999 0
1.3583345 0.95593506 -0.15883903 0
1.4629993 0.95822978 -0.15920636 0
1.5262551 0.92157191 -0.1594537 0
1.6042656 0.99021578 -0.15936112 0
1.7603984 0.96429217 -0.15864669 0
2.1432493 0.95366907 -0.16109884 0
2.3538091 0.92135835 -0.16382933 0
2.4788704 0.97294056 -0.16632761 0
2.9551835 0.93862438 -0.17268994 0
3.033 0.96499997 -0.17399999 0
-2.6826835 1.0147395 -0.15785213 0
-2.4545646 1.0628185 -0.1534337 0
-2.3480322 1.0595368 -0.1534317 0
-2.2314239 1.0262277 -0.1535072 0
-2.1028481 1.0906556 -0.15153927 0
-2.0274241 1.0523278 -0.15076964 0
-1.952 1.0140001 -0.15000001 0
-1.8638105 1.0731493 -0.14904653 0
-1.7868484 1.0281194 -0.15023722 0
1.2629315 1.0617197 -0.15913215 0
1.3518014 1.0543094 -0.1575505 0
1.4320045 1.0303588 -0.15730107 0
1.5230178 1.0874351 -0.15720427 0
1.6820208 1.0372877 -0.15881485 0
1.7597759 1.0843596 -0.15826856 0
1.8784262 1.030846 -0.1580667 0
1.9571115 1.0752152 -0.15768005 0
2.2644985 1.0103382 -0.16319771 0
2.3453312 1.0481175 -0.16459695 0
2.4261642 1.085897 -0.16599618 0
2.5622444 1.0073286 -0.16799313 0
2.6456184 1.0417168 -0.16965865 0
2.7289925 1.0761049 -0.17132416 0
-2.5658231 1.1445603 -0.15673602 0
-2.4658477 1.1344556 -0.15601441 0
-2.2536964 1.1673111 -0.15307854 0
-2.1782722 1.1289833 -0.15230891 0
-2.0177345 1.1632091 -0.14666514 0
-1.9419098 1.1430948 -0.14697392 0
-1.87 1.151 -0.146 0
1.1795001 1.175 -0.15899999 0
1.2611302 1.1517801 -0.15770046 0
1.3313471 1.1339555 -0.15711029 0
1.4427034 1.1377764 -0.15739512 0
1.5960267 1.1401527 -0.15680639 0
1.6690354 1.1928703 -0.15640853 0
1.8375311 1.1314316 -0.15772226 0
1.9152863 1.1785035 -0.15717597 0
2.0357966 1.1195843 -0.15729338 0
2.1144819 1.1639535 -0.15690672 0
2.5474133 1.142566 -0.16809504 0
2.6686623 1.199235 -0.1701939 0
2.8540535 1.1276871 -0.17382246 0
2.9130001 1.152 -0.175 0
-2.4232721 1.2534833 -0.15480891 0
-2.3291204 1.2056388 -0.15384817 0
-2.220001 1.2970995 -0.14579764 0
-2.1678865 1.2559477 -0.14487733 0
-2.077574 1.2353284 -0.14378615 0
-1.9726686 1.2564863 -0.14448011 0
-1.8527164 1.2470607 -0.14513533 0
-1.789 1.289 -0.14300001 0
-1.1439812 1.2461512 -0.14812274 0
-1.057 1.268 -0.148 0
-0.72630441 1.2493794 -0.14753854 0
-0.63749999 1.265 -0.1495 0
0.66799998 1.2490001 -0.156 0
0.73183876 1.2885255 -0.15552345 0
1.092 1.286 -0.15700001 0
1.1638862 1.2420193 -0.15716198 0
1.2401052 1.2147526 -0.15725 0
1.3487551 1.239877 -0.15777349 0
1.4371504 1.2290655 -0.15799409 0
1.5343626 1.239982 -0.15663627 0
1.6188757 1.2774036 -0.15638699 0
1.7420443 1.2455878 -0.15601066 0
1.8150532 1.2983054 -0.1556128 0
1.9930415 1.2255756 -0.15662968 0
2.0707967 1.2726475 -0.15608339 0
2.1931672 1.2083228 -0.15652007 0
2.2854261 1.2603459 -0.15606672 0
2.7612476 1.2425072 -0.17179656 0
-2.3760016 1.3901492 -0.14469646 0
-2.2980013 1.3436244 -0.14524706 0
-2.1496978 1.3988111 -0.14367925 0
-2.0573606 1.373827 -0.14373875 0
-1.9503129 1.3708603 -0.14289358 0
-1.8458921 1.3643565 -0.14192343 0
-1.7602534 1.3558173 -0.14101413 0
-1.691 1.324 -0.141 0
-1.2369246 1.3456049 -0.14549096 0
-1.1135924 1.3627865 -0.14647011 0
-1.056 1.324 -0.149 0
-0.96100003 1.3329999 -0.147 0
-0.81782663 1.3962764 -0.14523126 0
-0.75307572 1.3631102 -0.14575841 0
-0.64648062 1.3408637 -0.14710155 0
-0.55346841 1.336264 -0.14895196 0
-0.44999999 1.392 -0.148 0
0.56350005 1.3475 -0.15549999 0
0.65145874 1.3662124 -0.15534484 0
0.77067745 1.354051 -0.15504691 0
1.0558636 1.3486608 -0.15605944 0
1.1389564 1.3348466 -0.15581359 0
1.2284089 1.377597 -0.15722841 0
1.3680103 1.3298204 -0.15899999 0
1.4584732 1.3445052 -0.15803133 0
1.5554667 1.3592891 -0.1569228 0
1.6739378 1.3533034 -0.15572712 0
1.7598135 1.3891056 -0.15558046 0
1.888062 1.351023 -0.15521492 0
2.1485519 1.3197194 -0.15553711 0
2.2249999 1.3660001 -0.155 0
7.3444729 1.3946567 -0.17583679 0
-2.5320022 1.483199 -0.14359528 0
-2.4540019 1.4366741 -0.14414588 0
-2.3005466 1.4982166 -0.14251888 0
-2.2251222 1.4485139 -0.14309905 0
-2.1145971 1.4497273 -0.14262405 0
-2.0433226 1.4733748 -0.14120647 0
-1.9253745 1.4746923 -0.13962702 0
-1.8320136 1.4332694 -0.13905647 0
-1.7469667 1.4612862 -0.14065222 0
-1.6849999 1.48 -0.14 0
-1.3608491 1.4782096 -0.14198191 0
-1.2653155 1.4415417 -0.14283335 0
-1.1706847 1.4295731 -0.14444023 0
-1.0403044 1.4381921 -0.14408305 0
-0.85950005 1.424 -0.1455 0
-0.75228387 1.4579644 -0.14426711 0
-0.66338748 1.4504336 -0.14494583 0
-0.53773445 1.4588612 -0.14541198 0
-0.46811798 1.4497962 -0.14577729 0
-0.36000001 1.4655 -0.14750001 0
0.34799999 1.485 -0.15099999 0
0.4445 1.4330001 -0.154 0
0.53137696 1.4660521 -0.15356043 0
0.65622193 1.4571421 -0.15438096 0
0.73251617 1.4396346 -0.15474802 0
0.83795708 1.4675595 -0.15422137 0
0.92199999 1.448 -0.154 0
1.1721854 1.4470233 -0.15659928 0
1.2611812 1.4429948 -0.15582681 0
1.3368179 1.4971939 -0.15645681 0
1.4866838 1.4450341 -0.15899999 0
1.5539007 1.4781672 -0.15783 0
1.6281621 1.4393042 -0.15891577 0
1.7621901 1.4595578 -0.15471163 0
1.8302824 1.4449564 -0.15517721 0
1.9610709 1.4037405 -0.15481706 0
2.0340798 1.4564581 -0.15441918 0
2.201 1.456 -0.15800001 0
7.4508905 1.4086266 -0.15734716 0
7.5449181 1.42097 -0.14101037 0
-2.6490026 1.5529864 -0.1427694 0
-2.4513955 1.5976222 -0.14135849 0
-2.3759711 1.5479194 -0.14193869 0
-2.2628958 1.5520909 -0.14143609 0
-2.1705322 1.5266509 -0.14123394 0
-2.0435083 1.5731559 -0.13778915 0
-1.9730273 1.5425388 -0.13711295 0
-1.8334725 1.5710297 -0.13909908 0
-1.7353243 1.561101 -0.1388481 0
-1.6375 1.5469999 -0.13850001 0
-1.4228114 1.544512 -0.14022739 0
-1.2645162 1.5492784 -0.14121713 0
-1.1196088 1.5433844 -0.14116612 0
-1.091 1.581 -0.139 0
-0.96423304 1.5480607 -0.14337653 0
-0.86277521 1.5488024 -0.14247224 0
-0.74905175 1.5528351 -0.14308277 0
-0.63999999 1.5120001 -0.14300001 0
-0.5520463 1.5609701 -0.14285305 0
-0.44820791 1.5441501 -0.14428195 0
-0.3666378 1.5563264 -0.14449978 0
-0.26230618 1.5720205 -0.14543127 0
-0.19599999 1.581 -0.146 0
0.1225 1.584 -0.14649999 0
0.26264158 1.5476794 -0.14894493 0
0.3648231 1.5618753 -0.14972229 0
0.43248835 1.525699 -0.151706 0
0.55675387 1.5396039 -0.15212086 0
0.64627832 1.5677218 -0.15185438 0
0.74833339 1.5533333 -0.15333332 0
0.84286195 1.5565833 -0.15337861 0
0.9710834 1.5220164 -0.15288192 0
1.0201668 1.5960329 -0.15176386 0
1.2654243 1.531991 -0.15577132 0
1.3742602 1.5715907 -0.15534651 0
1.401 1.568 -0.156 0
1.5961198 1.551185 -0.15863724 0
1.6622423 1.5150024 -0.15518801 0
1.7368634 1.5590881 -0.15660615 0
1.8658493 1.5457634 -0.15395279 0
1.9359858 1.5287328 -0.15457232 0
2.1090443 1.5105877 -0.15401065 0
2.2736454 1.5047636 -0.15862519 0
2.3462908 1.5535274 -0.15925036 0
-2.7579999 1.618 -0.142 0
-2.6022444 1.6970277 -0.14019813 0
-2.5268199 1.6473249 -0.1407783 0
-2.4111943 1.6544546 -0.1402481 0
-2.337045 1.6032728 -0.1408421 0
-2.2613134 1.6314106 -0.13966915 0
-2.1381226 1.6373962 -0.13737381 0
-1.9507664 1.6310034 -0.13856554 0
-1.8846173 1.6538718 -0.13788392 0
-1.7663462 1.6668489 -0.13741963 0
-1.6690348 1.6532869 -0.13707748 0
-1.5685787 1.6543722 -0.13690612 0
-1.4554206 1.6527222 -0.13744448 0
-1.3419616 1.6299326 -0.13835058 0
-1.2253479 1.6836407 -0.13727686 0
-1.1552345 1.6294611 -0.13830057 0
-1.0364661 1.6591212 -0.14075305 0
-0.93055046 1.6646048 -0.13994449 0
-0.83946347 1.6338147 -0.13969287 0
-0.77332687 1.6592734 -0.14063473 0
-0.66820258 1.6554508 -0.1399281 0
-0.55779505 1.6565738 -0.14065419 0
-0.45880634 1.6527202 -0.14124857 0
-0.37591338 1.6419792 -0.14249936 0
-0.23987988 1.6632242 -0.14298709 0
-0.16466896 1.6521603 -0.14493266 0
0.1366989 1.6688637 -0.14542796 0
0.23036139 1.6648008 -0.14636387 0
0.34462392 1.6539567 -0.14777854 0
0.45548058 1.6421651 -0.14951 0
0.56278336 1.6495441 -0.14972728 0
0.65635496 1.6771191 -0.14948227 0
0.7595607 1.6416185 -0.15138532 0
0.82109994 1.6399674 -0.15260088 0
0.90844792 1.6723332 -0.1515144 0
1.0692502 1.6700492 -0.15064578 0
1.325 1.631 -0.156 0
1.4376308 1.6433039 -0.15512392 0
1.5167779 1.6952437 -0.15544069 0
1.6592394 1.61237 -0.15827449 0
1.758841 1.6547792 -0.15624787 0
1.8503891 1.6527869 -0.15664135 0
1.9654777 1.6286169 -0.15322344 0
2.036 1.608 -0.154 0
2.4552588 1.6266727 -0.16018811 0
2.5642269 1.6998183 -0.16112588 0
-2.628 1.714 -0.14 0
-2.5632463 1.7594091 -0.13903007 0
-2.4641578 1.7343717 -0.1390211 0
-2.3491368 1.7378523 -0.13788736 0
-2.2559495 1.7361598 -0.1353704 0
-2.1525738 1.7394387 -0.13551214 0
-2.035181 1.7428241 -0.1369977 0
-1.932797 1.7369039 -0.13689241 0
-1.8307691 1.7267733 -0.13687944 0
-1.7156659 1.7389398 -0.13627379 0
-1.6416389 1.7573725 -0.13551131 0
-1.5341926 1.7591943 -0.13456346 0
-1.4561465 1.7635057 -0.13429081 0
-1.3627486 1.7458205 -0.13641591 0
-1.2550946 1.7639987 -0.13473555 0
-1.1849812 1.7098191 -0.13575926 0
-1.0846215 1.7331614 -0.13900405 0
-0.94726485 1.7514604 -0.13729043 0
-0.85268116 1.7506799 -0.13791323 0
-0.75240541 1.7575301 -0.13758509 0
-0.68559122 1.7615408 -0.13745295 0
-0.54556555 1.7588933 -0.13817997 0
-0.44631302 1.749072 -0.13958424 0
-0.34815449 1.7386582 -0.14013734 0
-0.23982012 1.7523329 -0.14078353 0
-0.15491897 1.7369105 -0.14218268 0
-0.028944409 1.7473429 -0.14323722 0
0.036367249 1.7552656 -0.14266819 0
0.14210047 1.7606186 -0.14362469 0
0.24776164 1.7692189 -0.14479151 0
0.39051837 1.7347507 -0.14688715 0
0.45796087 1.7597357 -0.14718169 0
0.56678206 1.7470489 -0.1479426 0
0.61618078 1.7805445 -0.14762196 0
0.73337102 1.7447232 -0.14917645 0
0.85833555 1.7540182 -0.15041895 0
0.95217186 1.7494998 -0.15027159 0
1.1183336 1.7440656 -0.1495277 0
1.4752471 1.7237831 -0.154433 0
1.5543942 1.775723 -0.15474977 0
1.7854788 1.73474 -0.15754896 0
1.8485986 1.795925 -0.15718621 0
1.93418 1.7360919 -0.15565787 0
2.0108321 1.7780203 -0.15697889 0
2.6368723 1.748582 -0.16175106 0
2.7095175 1.7973456 -0.16237622 0
-2.4614999 1.821 -0.13699999 0
-2.3562155 1.8216743 -0.13349587 0
-2.2564662 1.8855793 -0.13543551 0
-2.1696534 1.8573538 -0.13559677 0
-2.0644455 1.8541059 -0.13558862 0
-1.9596152 1.8466221 -0.13579908 0
-1.8581394 1.837148 -0.1358099 0
-1.7529469 1.8448772 -0.13397852 0
-1.6467273 1.8602732 -0.13134506 0
-1.5542227 1.8377234 -0.13190606 0
-1.4370843 1.8315836 -0.13364463 0
-1.3460146 1.8723074 -0.13194352 0
-1.2789624 1.8386382 -0.13251853 0
-1.1457552 1.8586699 -0.13581289 0
-1.0587546 1.8530544 -0.13486579 0
-0.95779276 1.8655494 -0.13419212 0
-0.86784142 1.8427696 -0.13514897 0
-0.74167454 1.8585843 -0.13533847 0
-0.63767469 1.8252382 -0.13570479 0
-0.57642776 1.8583282 -0.13656659 0
-0.45531878 1.8570613 -0.1375358 0
-0.35150453 1.8475022 -0.13828166 0
-0.24596097 1.8562781 -0.13868074 0
-0.16356952 1.8393637 -0.13978355 0
-0.041561577 1.8574083 -0.14020807 0
0.034950096 1.86748 -0.14007562 0
0.14973243 1.8546832 -0.14159927 0
0.24887502 1.8528945 -0.14312188 0
0.34350002 1.8305 -0.1435 0
0.44485205 1.8376429 -0.14521965 0
0.53765416 1.8300061 -0.1464237 0
0.62688559 1.8681583 -0.14671646 0
0.74602956 1.8402683 -0.1476382 0
0.84342623 1.8804057 -0.14765574 0
0.94774526 1.8536046 -0.1494292 0
1.1487086 1.8365411 -0.14970481 0
1.2165004 1.8920985 -0.14729156 0
1.5929961 1.8613775 -0.15424399 0
1.6615002 1.8542986 -0.15474156 0
1.9117182 1.85711 -0.15682346 0
2.0773041 1.836857 -0.15664203 0
2.1437762 1.8956938 -0.15630519 0
2.7820001 1.846 -0.163 0
-2.2557709 1.945886 -0.13445236 0
-2.1423202 1.9693353 -0.13451177 0
-2.0352888 1.9629267 -0.13486739 0
-1.9338312 1.9558344 -0.13500293 0
-1.838328 1.9510477 -0.13335513 0
-1.784 1.931 -0.13 0
-1.6521169 1.9208392 -0.12978001 0
-1.396 1.91 -0.131 0
-1.2290876 1.9552824 -0.1337571 0
-1.1281396 1.9592304 -0.13239439 0
-1.0364143 1.9467664 -0.13314934 0
-0.95103109 1.9395828 -0.13303268 0
-0.83844882 1.9476656 -0.13328743 0
-0.74242568 1.9532636 -0.13358161 0
-0.63722926 1.9468013 -0.13438378 0
-0.53669333 1.9524542 -0.13494079 0
-0.4455677 1.9659094 -0.13563976 0
-0.33748823 1.9500304 -0.13616993 0
-0.24419785 1.9642773 -0.13657212 0
-0.16031094 1.9506453 -0.13729568 0
-0.044706542 1.9463022 -0.13806033 0
0.037349317 1.9560616 -0.13814895 0
0.15419981 1.9595861 -0.13913245 0
0.2693767 1.964919 -0.14074162 0
0.35615301 1.9425408 -0.14164834 0
0.4521907 1.9278436 -0.14344114 0
0.54802471 1.9467988 -0.1448393 0
0.65541625 1.9504945 -0.14552709 0
0.75267339 1.9339902 -0.14594576 0
0.87733942 1.9583066 -0.14642137 0
0.9654687 1.9561992 -0.14855646 0
1.0434655 1.944579 -0.14758159 0
1.1712133 1.9204431 -0.14941487 0
1.2390051 1.9760005 -0.14700161 0
1.6518706 1.9301747 -0.15414949 0
1.7295394 1.9743516 -0.15418851 0
1.974838 1.9182951 -0.1564607 0
2.0464787 1.98774 -0.15604898 0
2.204 1.949 -0.156 0
-2.1596313 2.0486109 -0.13404816 0
-2.0273306 2.048789 -0.13445827 0
-1.9284374 2.0443969 -0.13214016 0
-1.7560265 2.0492759 -0.13101006 0
-1.3049999 2.072 -0.131 0
-1.2423793 2.0457602 -0.13158357 0
-1.1564245 2.0681269 -0.12971607 0
-1.0376494 2.0477901 -0.1305649 0
-0.94723058 2.0340297 -0.13159491 0
-0.84454912 2.0618429 -0.13142081 0
-0.75139314 2.0376971 -0.13171689 0
-0.65316516 2.043184 -0.13303721 0
-0.54696494 2.0377593 -0.13372043 0
-0.45863569 2.0681865 -0.13357861 0
-0.35283178 2.03776 -0.13429691 0
-0.25856045 2.0656757 -0.13431641 0
-0.156636 2.0517702 -0.13501556 0
-0.057843287 2.0561433 -0.13526554 0
0.039748542 2.0446432 -0.13622227 0
0.13961446 2.0484786 -0.13690506 0
0.2563169 2.0501888 -0.1390222 0
0.36463282 2.0813179 -0.13911889 0
0.42080012 2.0383422 -0.14152002 0
0.52886033 2.0619512 -0.14215316 0
0.63743329 2.0304182 -0.14408138 0
0.73574024 2.0285592 -0.14425409 0
0.84736866 2.0487733 -0.14451858 0
0.9590354 2.0443592 -0.14514257 0
1.0527877 2.0633767 -0.14676283 0
1.1270678 2.058166 -0.1453004 0
1.2536399 2.0513294 -0.14624462 0
1.3146672 2.0401313 -0.14505541 0
1.415 2.0840001 -0.145 0
1.745 2.039 -0.154 0
1.8106112 2.0181766 -0.1540212 0
-2.1059999 2.1270001 -0.134 0
-2.0513318 2.1213794 -0.13254759 0
-1.9885103 2.1066298 -0.13133019 0
-1.8623509 2.1695175 -0.12934002 0
-1.2334346 2.1473527 -0.1288327 0
-1.1326571 2.1705322 -0.12834601 0
-1.0576602 2.1592445 -0.12859091 0
-0.94337684 2.1465335 -0.12941444 0
-0.86081588 2.1412001 -0.13027389 0
-0.76454312 2.1291189 -0.12955925 0
-0.65847611 2.1498194 -0.13091469 0
-0.55131376 2.1396699 -0.13202396 0
-0.44309077 2.1533716 -0.13202776 0
-0.34249887 2.1251512 -0.13256557 0
-0.24488054 2.1492944 -0.13255087 0
-0.16011496 2.1714687 -0.13238704 0
-0.052724827 2.1684699 -0.13276127 0
0.042147767 2.1332247 -0.13429561 0
0.14531928 2.1361384 -0.13520673 0
0.24508613 2.1464982 -0.1370011 0
0.34685302 2.144134 -0.13814119 0
0.46151519 2.1559503 -0.13999532 0
0.56526923 2.1718516 -0.14111568 0
0.66206241 2.14027 -0.14235248 0
0.75346285 2.1536312 -0.14249095 0
0.84891331 2.1750653 -0.14222255 0
0.96260369 2.1513736 -0.143333 0
1.05574 2.1513655 -0.14499079 0
1.1452613 2.1484749 -0.14385989 0
1.2948532 2.1167724 -0.14465949 0
1.3364999 2.1269999 -0.14399999 0
1.4624518 2.1533403 -0.14531954 0
-1.2851087 2.2467456 -0.12512161 0
-1.1548496 2.2393014 -0.12688778 0
-1.0764022 2.252708 -0.12684974 0
-0.96179056 2.2418485 -0.12747853 0
-0.85318851 2.2559206 -0.12753157 0
-0.76192117 2.26424 -0.1273832 0
-0.65346915 2.2602987 -0.12946157 0
-0.55444312 2.2311344 -0.13017437 0
-0.45807561 2.2502248 -0.13014421 0
-0.36217552 2.2289975 -0.13042608 0
-0.25098231 2.2482932 -0.13017942 0
-0.16613795 2.2605624 -0.13046445 0
-0.055869788 2.2573638 -0.13061352 0
0.036758076 2.244936 -0.13186352 0
0.1510241 2.2237978 -0.13350843 0
0.25557518 2.2342844 -0.13545176 0
0.35536551 2.2531083 -0.13630672 0
0.45113099 2.2635245 -0.1381304 0
0.53468424 2.2697158 -0.13877603 0
0.64865363 2.2642226 -0.14045374 0
0.76953882 2.2798386 -0.14076963 0
0.85282141 2.2611432 -0.14063331 0
0.93541038 2.2347984 -0.14186156 0
1.0426891 2.2628279 -0.14140192 0
1.1326907 2.2424998 -0.14317304 0
1.2079999 2.201 -0.14300001 0
1.5336294 2.2573509 -0.14579885 0
-1.3511412 2.357969 -0.12305809 0
-1.2239685 2.3942657 -0.12412866 0
-1.1525432 2.3432853 -0.12554824 0
-1.0441563 2.3326652 -0.12527169 0
-0.95879132 2.3343585 -0.12603201 0
-0.86199999 2.312 -0.126 0
-0.73599827 2.3427565 -0.12628582 0
-0.62074423 2.3505001 -0.12765664 0
-0.5643152 2.3567348 -0.12689593 0
-0.45101994 2.3524237 -0.12753704 0
-0.34875026 2.334265 -0.12830468 0
-0.22704551 2.3398662 -0.12867808 0
-0.14289777 2.3573644 -0.12827137 0
-0.059014756 2.3462577 -0.12846577 0
0.047294572 2.3545706 -0.12951334 0
0.14916684 2.33939 -0.13097049 0
0.2660642 2.3220706 -0.13390243 0
0.35751295 2.3852842 -0.13393147 0
0.43861139 2.3437324 -0.13609713 0
0.55530763 2.3551836 -0.13760975 0
0.63709444 2.3352818 -0.13965501 0
0.73699164 2.3602424 -0.13939676 0
0.86047477 2.3641806 -0.13916469 0
0.9710418 2.321239 -0.14057121 0
1.137 2.3010001 -0.146 0
1.6048073 2.3613615 -0.14627816 0
-1.385 2.415 -0.122 0
-1.228 2.402 -0.124 0
-1.0140001 2.431 -0.124 0
-0.95766044 2.4589334 -0.12453827 0
-0.7775979 2.4709077 -0.12354299 0
-0.65764654 2.4841001 -0.125094 0
-0.58600003 2.4430001 -0.125 0
-0.47047493 2.4462371 -0.12548399 0
-0.35234809 2.4470925 -0.12567624 0
-0.23519486 2.4290614 -0.12670353 0
-0.14845459 2.4462736 -0.12631014 0
-0.062159725 2.4351516 -0.12631802 0
0.049693797 2.4431522 -0.12758668 0
0.17570062 2.4588442 -0.1292531 0
0.25121042 2.4450068 -0.13137338 0
0.35165939 2.4634597 -0.13231803 0
0.45998168 2.4591355 -0.13443165 0
0.55055308 2.4634399 -0.1352334 0
0.63812178 2.4451537 -0.13772675 0
0.75600004 2.4235001 -0.13850001 0
1.6522591 2.4307017 -0.1465977 0
-0.801 2.543 -0.122 0
-0.52221012 2.5546389 -0.12338862 0
-0.42202148 2.5765131 -0.1224998 0
-0.33802557 2.5612082 -0.12363458 0
-0.24592212 2.5458784 -0.12411448 0
-0.15450571 2.5430915 -0.12417445 0
-0.055499662 2.522419 -0.12413488 0
0.061638553 2.5127249 -0.12601368 0
0.16949999 2.5079999 -0.12799999 0
0.25999999 2.5209999 -0.13 0
0.31787202 2.5069628 -0.13101786 0
1.6997108 2.500042 -0.14691724 0
1.712 2.5179999 -0.147 0
-0.53500003 2.6210001 -0.122 0
-0.46799999 2.6010001 -0.122 0
2.5050001 3.4809999 -0.134 0
2.5580873 3.5505826 -0.12168653 0
2.6111748 3.6201653 -0.10937305 0
1.081 0.0535 -0.055 0
1.1510695 0.060588926 -0.06000391 0
1.256901 0.063347891 -0.081670903 0
1.3724204 0.082180224 -0.085028939 0
1.4591364 0.088144183 -0.099223152 0
3.1814578 1.3829877 -0.0016116202 0
3.2642148 1.4173231 -0.012176353 0
3.3469718 1.4516585 -0.022741079 0
3.4297287 1.4859939 -0.033305809 0
3.5538645 1.5374969 -0.049152903 0
3.678 1.589 -0.064999998 0
2.6642621 3.6897483 -0.09705957 0
2.7173493 3.759331 -0.084746093 0
2.7704368 3.8289137 -0.072432615 0
2.823524 3.8984964 -0.060119137 0
2.8766112 3.9680793 -0.047805667 0
2.9458494 4.0588312 -0.031746093 0
6.3477378 -7.1380825 0.066142827 0
6.4099998 -7.1999998 0.055 0
6.2543449 -7.0452065 0.082857057 0
6.1609521 -6.9523306 0.099571295 0
1.5453682 -0.10462572 0.036409546 0
1.6342418 -0.11095086 0.042091455 0
1.7231153 -0.11727601 0.047773361 0
1.8119889 -0.12360115 0.053455271 0
1.9154313 -0.13096315 0.060068589 0
1.1454368 -0.076162569 0.010840954 0
1.2787472 -0.085650288 0.019363819 0
1.3676208 -0.091975428 0.025045726 0
1.4564945 -0.098300576 0.030727636 0
2.8328004 0.7151078 0.039368037 0
2.9262006 0.73666167 0.036052056 0
3.0396004 0.76283085 0.032026026 0
3.1530001 0.78899997 0.028000001 0
1.982 0.838 0.050000001 0
2.0540144 0.86892009 0.047853872 0
2.137413 0.90472811 0.045368485 0
2.2208116 0.94053614 0.042883098 0
2.3042102 0.97634411 0.040397711 0
2.3876088 1.0121521 0.037912324 0
2.4710073 1.04796 0.035426937 0
2.5544057 1.083768 0.03294155 0
2.6378043 1.1195761 0.030456161 0
2.7212029 1.1553841 0.027970774 0
2.8046014 1.191192 0.025485387 0
2.037945 1.2858498 0.086488023 0
2.8568096 1.2368821 0.0355491 0
2.9331865 1.2799816 0.030082576 0
2.1257787 1.3391122 0.076229043 0
2.2006676 1.3845247 0.067482039 0
2.4809999 1.374 0.039999999 0
3.057322 1.3314847 0.014235474 0
2.191 1.424 0.037999999 0
2.2661932 1.4579778 0.04308318 0
2.350445 1.4753498 0.049988024 0
2.5476725 1.4156902 0.036658421 0
2.6181381 1.4597521 0.033126734 0
2.0531723 1.5025177 0.086776912 0
2.1289101 1.5554317 0.078998439 0
2.2349863 1.5575509 0.092979319 0
2.3708091 1.5463984 0.031005802 0
2.434504 1.5583806 0.034706257 0
2.5002227 1.5661749 0.032494012 0
2.6886034 1.5038141 0.029595051 0
2.759069 1.5478761 0.026063368 0
2.8295345 1.591938 0.022531683 0
2.2392583 1.6325264 0.067665368 0
2.355336 1.6367943 0.074253216 0
2.5603518 1.6507951 0.023862367 0
2.6500001 1.6569999 0.015 0
2.9000001 1.636 0.018999999 0
2.3496065 1.7096211 0.056332294 0
2.4429355 1.7342522 0.053162351 0
2.5342741 1.7546151 0.046410844 0
2.6622698 1.7447995 0.019668601 0
2.7351348 1.7943997 0.0168343 0
2.4967377 1.8124141 0.041221529 0
2.5681515 1.8544052 0.040333074 0
2.6295445 1.8393275 0.033678591 0
2.7490001 1.896 0.013 0
2.8080001 1.844 0.014 0
2.6558876 1.9090592 0.029597027 0
2.7469623 1.9596863 0.019699009 0
2.7909999 2.0179999 0.011 0
4.7814274 5.2353554 0.092066869 0
4.8412137 5.3016777 0.07803344 0
4.901 5.368 0.064000003 0
6.0675592 -6.8594542 0.11628553 0
5.9430351 -6.7356195 0.13857119 0
5.868 -6.6609998 0.152 0
4.3629236 4.7710986 0.19030091 0
4.4227095 4.8374209 0.17626747 0
4.4824958 4.9037433 0.16223404 0
4.5422821 4.9700656 0.1482006 0
4.6020684 5.0363879 0.13416716 0
4.6618547 5.1027102 0.12013374 0
4.7216411 5.1690331 0.10610031 0
4.2789998 4.678 0.21000001 0
4.3031368 4.7047758 0.20433435 0
