# .PCD v0.7 - Point Cloud Data file format
VERSION 0.7
FIELDS x y z intensity
SIZE 4 4 4 4
TYPE F F F F
COUNT 1 1 1 1
WIDTH 564
HEIGHT 1
VIEWPOINT 0 0 0 1 0 0 0
POINTS 564
DATA ascii
-31.665915 -13.316999 8.2015667 10
-31.453936 -13.510681 5.3190527 8
-31.54829 -13.720522 6.3008933 9
-31.352043 -12.768376 6.179915 9
-31.495405 -13.513783 6.9111009 9
-31.442003 -13.646593 7.5018649 10
-31.378822 -12.764257 7.4139547 10
-31.4571 -13.715448 8.5397949 11
-31.576078 -14.460202 19.146997 18
-31.45554 -13.956368 19.882498 19
-31.150032 -12.4919 6.7530413 9
-31.074509 -12.278682 7.9502416 10
-30.102942 -11.440172 7.051198 10
-30.059883 -11.118176 7.5955968 10
-30.109587 -11.569806 7.6010275 10
-29.993198 -11.206577 6.4303885 9
-29.879356 -10.809361 6.6278071 9
-28.823074 -9.1604834 16.407898 18
-27.099564 -44.779762 -0.5598073 3
-26.209602 -48.702507 0.19917561 3
-25.722637 -38.792831 0.25933748 3
-19.851549 14.769864 13.783985 19
-19.894939 14.723302 14.71289 20
-19.23687 15.928476 6.9103756 12
-19.588568 15.392896 7.9388528 13
-19.341953 15.923699 7.9439049 13
-19.181429 9.1797018 13.47078 20
-19.081804 9.4514875 13.475172 20
-18.946362 9.7605944 13.466652 20
-18.607141 10.270268 13.456669 20
-18.472097 10.629998 13.474051 20
-18.319839 10.752521 13.478509 20
-18.213806 11.054831 13.473375 20
-16.10465 21.42075 16.039528 20
-16.279503 21.025471 16.860577 20
-16.321482 21.02379 26.086502 27
-16.36429 20.723511 26.498951 27
-15.619926 21.082176 16.630505 20
-15.758364 20.898727 26.276381 27
-14.813038 22.549717 25.929165 26
-15.006679 22.364008 26.58069 27
-14.921629 23.38142 27.440876 27
-15.082052 23.068832 27.701822 27
-14.554242 -19.675646 -0.058013815 3
-14.636535 22.981659 25.733032 26
-14.584579 24.059484 27.90494 27
-14.751427 23.702585 28.070959 27
-14.445282 23.281364 28.62929 28
-13.909924 -3.5007746 -0.015542823 3
-11.978977 -14.502473 -0.2872318 3
-10.95533 -9.8591948 1.001712 5
-10.86701 -10.029874 1.4525192 6
-10.982044 -9.8488522 1.462243 6
-11.118932 -10.03549 1.9177233 7
-10.611811 -3.1944573 -0.00034631931 3
-10.644903 -7.9377384 0.16096187 4
-10.721626 -10.116671 1.1023422 5.5
-10.544756 -10.18487 1.4471575 6
-10.029061 -6.7392473 -0.13453692 3
-10.199792 -6.6363444 0.2697452 4
-10.172807 -6.6755767 0.67301184 4.6666665
-10.048142 -6.8281169 1.1053969 6
-10.108285 -6.7667375 0.92651922 6
-9.6617022 -5.1413326 -0.07320714 3
-9.7446928 -0.40198672 -0.095497444 3
-9.6633654 -7.5697689 0.96434164 5.5
-9.6029816 5.0171866 3.4621117 13
-9.3278723 -5.5911407 -0.10909633 3
-9.4150019 -7.7592044 0.94395775 5.5
-9.3387489 -7.7036552 1.5399311 7
-9.3464985 -7.8340693 1.9888349 8
-9.2092714 -38.529099 8.7959881 10
-9.4617462 -38.379894 8.4848919 10
-9.4210978 -38.54137 13.732911 13
-8.8236017 -8.0145121 -0.24675564 3
-8.9602118 5.092289 0.50143623 5
-9.1640272 -7.8946152 1.0321257 6
-8.8847189 -38.735306 8.5381174 10
-9.0358276 -38.66032 10.190057 11
-8.9141235 27.383667 13.050564 16
-8.6125641 -9.4729958 -0.21883264 3
-8.5207481 -3.5111036 -0.15847345 3
-8.5347853 -6.9929433 0.12476981 4
-8.658844 5.3213797 0.14287889 4
-8.4837036 -4.3095765 0.69643253 5
-8.7413616 5.3943877 0.50084561 5
-8.6463051 -38.840446 8.5372152 10
-8.6287317 27.89109 12.783624 16
-8.4953146 28.368649 13.369105 16
-8.5727348 -38.913845 13.738246 13
-8.5886955 -38.878887 14.569238 14
-8.7643709 -38.975258 21.10717 18
-8.694272 -38.937294 21.260199 18
-8.53897 -38.994411 22.253262 19
-8.1839132 -2.9307888 -0.094059572 3
-8.0139742 6.4538622 -0.17339864 3
-8.2331257 -4.4698029 0.23044692 4
-8.2490158 28.609293 11.786586 15
-8.1875153 28.68004 13.051701 16
-8.2216263 -39.12804 14.1359 13.5
-7.7101059 -1.1125152 -0.11463229 3
-7.893229 -1.2895274 0.48378739 5
-7.7303262 -39.455242 13.79563 13
-7.7833548 -39.450268 14.700605 14
-7.2072802 4.7502818 -0.15212369 3
-7.4168782 -1.5353225 0.25420547 4.5
-7.3442864 -1.5993454 0.41599649 5
-7.2378678 30.387247 12.421755 15
-7.4763045 29.962751 12.887745 15
-7.4420915 29.926407 13.825984 16
-7.2449656 30.393379 13.656725 16
-7.3126044 -39.689438 14.345835 14
-7.4298186 -39.560387 14.185773 13
-7.4848018 -39.599438 15.90775 15
-7.1532383 -0.69496655 -0.096585006 3
-7.1032867 -0.27699214 -0.041813985 3
-6.9160323 -2.0677109 0.30564314 4
-7.0016446 -1.7596337 0.27376494 4.5
-7.0297399 -1.8236496 0.57786196 5.6666665
-6.9472222 30.793247 13.184041 15
-6.8954964 30.848013 14.119138 16
-6.6985564 -3.1196101 -0.13217767 3
-6.6928477 31.096838 13.895404 16
-6.2982321 -4.6770916 -0.17636895 3
-5.9960194 -4.8883586 -0.18284866 3
-5.6186166 -4.63097 -0.22298713 2
-5.4909949 -18.371311 0.67477649 4
-4.9758811 4.4345031 -0.13392782 3
-4.473197 -6.0382733 -0.23970935 2
-4.5952744 -1.6211188 -0.15667021 2
-4.7685471 -19.022173 0.30997884 4
-4.1283312 -11.519837 -0.2918154 3
-4.0185022 -5.9733572 -0.24291007 2
-4.3148279 -1.2960123 -0.14851156 2
-4.2215161 -1.0525256 -0.14721692 2
-4.0618753 2.956279 -0.087627433 3
-4.0771255 3.9820986 -0.13074699 3
-3.6507657 -1.508787 -0.17571814 2
-3.6192064 -19.307287 1.7654295 6
-3.6762638 -19.413273 2.1864097 7
-3.5721862 -11.830751 -0.29974678 3
-3.2261229 -6.0583673 -0.23621953 2
-3.3905141 -5.7026386 -0.24207899 2
-3.3949795 -3.0867884 -0.19078185 2
-3.379756 -1.7875485 -0.18345095 2
-3.3666482 -1.585976 -0.17919195 2
-3.3946071 -0.47902629 -0.16726007 2
-3.3817301 -0.24015655 -0.16628215 2
-3.4349446 -19.244358 0.3195098 4
-3.4317093 3.0299437 0.062235504 4
-3.4669478 -19.282373 1.3284976 5
-3.2104127 -19.371576 2.1796243 7
-2.9279075 -19.49172 -0.27122581 3
-3.1522033 -12.419448 -0.30064392 3
-2.8152556 -1.6561097 -0.1839641 2
-2.9154303 1.2488849 -0.16684176 2
-3.1936831 7.6611161 -0.080498636 3
-3.053633 3.3531594 0.19235592 4.5
-2.973628 -19.489382 1.4240845 5.3333335
-3.1493034 -19.383615 1.9636546 6
-2.8506801 -19.608812 2.5648227 7
-2.6829913 -3.0906105 -0.20237708 2
-2.6159813 -1.2243661 -0.1876235 1
-2.5578291 -0.97614336 -0.18131144 1
-2.5496521 -0.69905221 -0.17984129 1
-2.6958723 1.4823822 -0.16074342 2
-2.4980078 1.623842 -0.15456374 2
-2.6874683 7.4151735 -0.068683892 3
-2.5003362 8.0690002 -0.064345799 3
-2.4611101 5.7504568 0.084065728 4
-2.6913791 -19.676893 1.3809129 5
-2.7825713 -19.578844 1.8138566 6
-2.7945774 -19.622841 2.2068536 7
-2.1325617 -1.1348333 -0.1861129 1
-2.0165625 -0.22663197 -0.16862547 1
-2.2754672 1.8146919 -0.14851683 2
-2.1152916 2.0620086 -0.14454691 2
-2.0804594 9.9458742 -0.052880235 3
-2.2471504 6.1359291 0.24183442 4.3333335
-2.2684455 6.1103358 0.46613288 5
-1.7620416 -3.7628889 -0.21508951 2
-1.8912133 -1.5292138 -0.18088217 1
-1.9844042 -1.184615 -0.17836812 1
-1.9194748 7.4224024 -0.049331829 3
-1.7213849 -20.216356 1.3765361 5
-1.87572 -20.129286 1.8864297 6
-1.2024271 -4.722898 -0.23618299 2
-1.4402926 -3.8598258 -0.21664535 2
-1.2402331 -2.9495566 -0.20604815 1
-1.3481209 -2.6688581 -0.19695458 1
-1.3308607 0.96681708 -0.16268858 1
-1.2721312 2.0886955 -0.14351709 2
-1.5291524 7.3161521 0.23459318 4
-1.343613 -20.421474 1.5088063 5
-1.5124739 -20.323416 1.736683 6
-1.4879454 -20.363405 2.2927029 7
-1.5610996 -20.362368 2.628654 7
-1.1311426 -1.7646084 -0.18373913 1
-1.1710359 1.1271241 -0.16017382 1
-0.97929281 1.6994858 -0.14880985 1
-1.0825677 2.3142493 -0.13833445 2
-0.87670255 2.5828564 -0.13470574 2
-1.1782736 -20.44153 1.267923 5
-1.0618165 15.352786 2.3785455 8
-0.67646313 -15.114649 -0.22919534 3
-0.51244098 -4.2320352 -0.2209823 2
-0.45017672 -3.0358417 -0.20601742 1
-0.53496307 1.5498807 -0.15218951 1
-0.56066203 2.2310882 -0.1404738 2
-0.4840467 2.7646811 -0.12785168 2
-0.51302809 9.5467005 0.1345125 4
-0.69374585 15.147146 2.343492 8
-0.79551309 15.142943 2.5371027 8
-0.1872409 -3.8125415 -0.21785636 2
-0.25954193 -3.4258504 -0.21341974 1
-0.30701363 1.5380664 -0.15075041 1
-0.16358836 1.6078141 -0.1519261 1
-0.22143076 2.2323589 -0.13896768 2
-0.090701759 2.9306886 -0.12656525 2
-0.31766915 6.2672467 -0.11891212 3
-0.024196329 6.5804238 -0.10749046 3
-0.08010637 11.124797 0.15745661 4
0.058962654 -18.871862 -0.38128176 3
0.30543575 -5.7920952 -0.25432709 2
0.0052562873 -3.8118491 -0.21874227 2
0.20619442 -3.373677 -0.21539623 1
0.24253507 1.7183553 -0.15063784 1
0.31140485 2.4905777 -0.13839425 2
0.19292504 4.0189734 -0.12652275 2
0.30646303 7.0367794 -0.095296226 3
0.4886927 -4.9272962 -0.22926074 2
0.68512315 -4.677465 -0.23110916 2
0.44929755 -3.098572 -0.21248925 1
0.56474924 1.7486651 -0.15187934 1
0.5771026 2.4539697 -0.14255835 2
0.67371869 7.405303 -0.07878685 3
0.77939469 -0.59799671 0.30729616 12.363636
0.76919025 -0.60955203 0.55948728 18.6
0.6055153 -23.841293 4.671649 9
0.72663832 -23.661222 5.0187368 10
0.40982005 -24.293972 8.0025225 13
0.69304353 -23.602821 8.564703 14
0.50364423 -23.504827 9.023531 14
0.69585431 -23.498686 9.7106962 15
0.88843751 -17.968897 -0.35765573 3
0.85047626 -4.3706174 -0.22897968 2
1.1400733 -3.1331477 -0.20978466 1
1.0612266 -1.8140519 -0.18275976 1
0.9663285 -0.17036247 -0.046493955 1.8
1.0695662 0.031490099 -0.024891052 2.5
1.0890021 1.3221725 -0.15731616 1
0.94262785 -0.57183623 0.28061467 11
0.95188773 -0.23938116 0.1803136 8.3999996
1.103756 0.022627484 0.22410126 9.1999998
1.138659 11.765042 0.28054184 4
1.0072079 -0.54030305 0.50050616 16
0.97181332 -0.19909868 0.43010238 15.5
0.99950117 14.360059 1.9408561 7
0.996355 14.251675 2.2111056 8
1.041181 14.187961 2.4284246 8
0.97310674 -23.157278 4.077908 8
1.107231 -22.930193 4.4800081 9
0.83879793 -23.380217 4.8518109 9
0.84776932 -23.499157 5.3318286 10
0.88067454 -23.255075 5.9408355 11
1.0405028 -23.449635 9.0339956 14
0.88118494 -23.411655 9.3638525 15
1.5835176 -16.517836 -0.32413897 3
1.5932089 -4.453733 -0.23814118 2
1.330524 -2.9917653 -0.21006609 1
1.5610645 -2.1028438 -0.19432402 1
1.5174956 -1.7711664 -0.18040915 1
1.5250143 0.25248128 -0.15820584 0
1.5673649 0.81896704 -0.1588894 1
1.211868 1.2061976 -0.15740922 1
1.3798891 3.5943921 -0.13925178 2
1.2555649 0.33406326 0.28688806 10
1.561415 0.91980779 0.27593726 8
1.4611908 5.9337635 0.2415484 4.5
1.4242222 5.7731438 0.73180372 6.75
1.4069653 5.7775879 0.97998506 8
1.4448315 13.979888 1.5464015 7
1.5279557 13.945584 1.6267875 7
1.2552705 14.067753 1.7739984 7
1.3324937 -22.495098 4.7051744 9
1.2673737 -22.688578 4.9856315 10
1.3503228 -22.399948 5.7231817 11
1.4341936 -22.463692 7.3502655 13
1.5472771 -22.305586 7.7203584 13
1.5140766 -22.421463 8.673337 14
1.7515303 -4.1857715 -0.23695858 2
1.7965913 -3.7848775 -0.2269201 2
1.8246231 -3.4219944 -0.21689849 2
1.8195337 -1.7200274 -0.17897739 1
1.8810894 -1.4314983 -0.17415914 1
1.9100325 -1.0761081 -0.17041038 1
1.6612704 0.609972 -0.15698993 1
1.8732233 1.1030784 -0.15870841 1
1.9586105 1.696424 -0.15403807 1
1.901297 2.5390406 -0.14834458 2
1.6554334 3.5471497 -0.13726737 2
1.9362355 1.0957979 0.085933134 4
1.7811754 1.3265896 0.27472207 7
1.9748741 1.6584631 0.25327015 6.4000001
1.6733968 1.124287 0.58416891 12
1.9114841 1.5810812 0.58556569 10
1.9742235 1.7068027 0.4382318 8.5
1.7757317 6.0141134 0.6614306 6
1.7091973 5.9017086 0.88197213 7.5
1.7074361 13.986781 0.80833393 5
1.7436287 13.982495 1.4534806 6.5
1.9160101 13.989731 1.755087 7
1.9538345 -21.299274 2.1446559 6
1.7706923 13.807277 2.1554995 8
1.8776729 -21.497246 2.4675996 7
1.8138463 13.840109 2.402081 8
1.9154893 -21.517029 3.743638 8
1.6683275 -22.063454 8.1914501 14
1.7358034 -22.180294 9.046525 15
2.244724 -1.1967653 -0.0023829089 3
2.2007556 1.4503419 -0.15757838 1
2.259795 2.2592473 -0.093871824 2
2.2043617 2.5562093 -0.14608882 2
2.0754654 1.8513799 0.22195195 5.7142859
2.0801988 13.87764 0.20025925 3.6666667
2.0733483 1.8934346 0.43237069 8
2.3646305 2.4809313 0.57696384 8.5
2.1776409 13.868105 0.58329886 5
2.0138381 13.842653 0.81477797 5
2.0251803 13.857967 1.3567868 6
2.070112 -21.225288 1.7887639 6
2.3385606 -21.091166 1.923021 6
2.2467878 13.842834 1.8886141 7
2.3090675 13.535695 2.2525654 8
2.102711 13.633777 2.3816044 8
2.2221763 -21.085083 2.669903 7
2.3802602 -21.128839 3.6570668 8
2.3213906 -20.873316 6.7969861 13
2.3611331 -20.759056 8.108016 14
2.6583576 -4.4521089 -0.21870935 2
2.7170548 0.54113674 -0.15946783 1
2.5657024 1.2221543 -0.16051021 2
2.7800791 1.8428311 -0.16198909 2
2.5024266 -0.74949193 0.040927369 4
2.5902841 1.9232305 0.017480578 3
2.431231 2.5496519 0.25466031 5.3333335
2.7665737 4.0142694 0.34691998 5
2.6023266 13.521965 0.29260772 4
2.4243853 2.5019662 0.43556869 7
2.7680378 3.8761349 0.60871148 7
2.6364744 13.667718 1.8618959 7
2.4306986 -21.155085 2.1531203 6
2.5174999 13.428601 2.1155486 8
2.7303123 -20.013412 4.9073334 10
2.4024177 -20.797195 7.191061 13
2.5404418 -20.539999 7.7766814 14
2.6013706 -20.303869 8.2192249 15
2.8762739 -7.9885197 -0.0063344473 3
2.9201787 -3.721432 -0.22131217 2
3.1108878 -3.4057071 -0.21801004 2
3.163878 -3.1566498 -0.21291849 2
3.0214059 -2.4609826 -0.19812214 2
3.0637953 -2.158462 -0.19655319 2
3.0400677 -1.8370725 -0.19209507 2
3.0580664 0.53036898 -0.1683877 1.5
3.0421262 1.7260165 -0.1622871 2
2.8395441 3.8548687 -0.061558831 3
2.9920726 -6.4673872 0.25277835 4
3.1813514 -6.1032143 0.22904131 4
2.9860177 0.74833268 0.036794465 3.5
2.9339223 1.5668914 0.021728005 3
2.8522711 1.7184861 0.014348301 3
2.9139438 3.8280878 0.19835681 4.6666665
2.8911257 4.0434351 0.10419215 4
2.9370947 15.047507 0.10317053 3
3.0019028 -6.4732289 0.61112565 5.6666665
3.189497 -6.1593695 0.6070531 6
2.8579097 3.7241714 0.60059178 7
3.014827 -6.4891353 0.8078106 7
2.9105809 3.699774 1.2546141 11
2.8066795 -19.895565 3.8544044 9
3.0088568 -19.584364 4.2565951 10
2.9615757 -19.596233 5.0345464 11
3.400382 -8.1651201 -0.16063109 3
3.3951721 -7.2001276 -0.14365204 3
3.236891 -2.9415498 -0.21079604 2
3.4243677 -1.842232 -0.17548662 2
3.2272136 0.47598085 -0.1655622 2
3.5103436 1.2740817 -0.090837173 2
3.3238308 7.0301871 -0.10401309 3
3.5399046 -5.7113042 0.18056804 4
3.5637672 -5.5506639 0.38560781 5
3.5320656 -5.678566 0.67593259 6.5
3.2661471 -6.0348549 0.80816311 7
3.4659345 -18.853603 6.1210427 13
3.5038717 -18.82148 6.5210834 13
3.5348053 -18.786369 6.8841162 14
3.4954548 -18.763174 7.85007 15
3.6051781 -5.3419156 -0.21532401 2
3.6384192 1.5135819 -0.096880816 2
3.804553 7.1727424 -0.092916191 3
3.7719986 -5.6512742 0.57791805 6
3.7187369 -5.5362315 0.78984153 7
3.9810219 4.8261256 0.797436 7
3.9985743 4.8345375 0.97046435 8
3.8282917 -18.23521 6.3294134 13
3.8522086 -18.207096 6.6924391 14
3.6288154 -18.588205 7.1692085 14
3.9522071 -17.999912 7.0075431 14
3.6536992 -18.493082 7.5932302 15
3.9680882 -17.955788 7.4155583 15
3.809839 -18.186901 7.6373887 15
3.7227528 -22.582907 23.094616 27
4.2842712 1.0547973 -0.16728033 2
4.2154722 3.1031218 -0.14496881 2
4.270927 -21.812511 0.0021700449 3
4.2451081 -5.7658358 0.068636455 3
4.2624636 4.6822929 0.20939754 4
4.140821 4.6941714 0.62074834 6
4.1980057 4.6874537 0.92979032 7.6666665
4.1427002 -17.685919 6.1527491 13
4.1545901 -17.66881 6.5187621 14
4.10431 -17.698698 7.1497045 15
4.2635798 -17.449593 6.8628802 14
4.2594337 -17.409496 7.2328734 15
4.6765943 -4.1626983 0.24573131 4.4000001
4.7748156 -3.9603667 0.19160572 4
4.7722993 -22.113649 2.065774 6
4.4322071 -17.166742 5.5890698 12
4.726584 -16.653421 5.4324074 12
4.4370728 -17.164625 5.9900746 13
4.6873536 -16.554348 5.7973537 13
4.4379396 -17.14852 6.3550754 14
4.7122746 -16.667212 6.2063913 14
4.556922 -16.932261 6.7292113 14
4.5467777 -16.930174 7.0801983 15
4.6759772 -16.672062 6.8493457 15
4.9157581 -4.8605409 -0.087239757 3
4.9575825 -4.4813337 -0.07114055 3
4.8436856 8.2140894 -0.090213113 3
5.1223607 -6.1662769 0.25798607 4
4.8550005 -3.9647734 0.085235283 3.5
4.8815055 5.3749838 0.063588433 3
5.091928 -22.287392 2.0511646 6
5.097754 -22.335234 2.6521747 7
4.9574223 -22.240303 2.8210013 7
4.9877501 -16.188986 5.6927204 13
5.1998253 -15.676594 5.9019775 14
4.9745879 -16.207891 6.0677052 14
4.8472614 -16.467909 6.6175532 14
4.9432764 -16.188723 6.7146654 15
5.0914588 -15.978536 6.640348 14.5
4.8160858 -16.440845 6.9275126 15
5.2396379 -22.407806 3.8103495 8
5.2682505 -15.678756 5.1450686 12
5.5275602 -15.241395 5.0234027 12
5.2420516 -15.72366 5.5540352 13
5.4913397 -15.280313 5.4263539 13
5.4441051 -15.265246 5.7832904 14
5.3628101 -15.523192 6.3881898 14
5.452827 -15.316003 6.4843035 15
5.558888 -15.110801 6.5284424 15
5.8108387 -7.1123662 0.070005506 3
6.112442 -21.124334 2.1093652 6
6.335619 -20.642975 2.3316329 6
6.2043338 -20.931042 2.6734746 7
6.6657519 -13.217453 4.4930048 12
6.6014805 -13.320412 4.9009085 13
6.7594252 -13.099936 5.2161465 13
6.6708298 -12.858725 5.8690224 15
6.764894 -12.753515 5.882165 15
6.8736138 -7.5475607 -0.1923257 3
6.8913088 -12.838483 5.5183506 14
7.0694294 -12.517078 5.4426312 14
6.9755993 -12.597086 5.8604856 15
7.1486588 -16.819729 16.936666 26
6.9809661 -16.522655 17.66543 27
7.1457901 -16.207088 17.896662 27
7.3554683 -15.906674 4.1744628 10.5
7.2652378 -12.151153 4.2449441 12
7.2119894 -12.326112 4.6688547 13
7.5712018 -11.665227 4.5204444 13
7.3228321 -12.120667 4.9860349 13
7.250546 -12.211653 5.3729186 14
7.4156299 -11.900236 5.3021894 14
7.2052374 -12.221539 5.7898493 15
7.5404058 -11.671691 5.6828971 15
7.5548372 -15.663019 17.74826 27
7.6077299 -16.26306 3.6903212 9
7.637466 -11.483232 4.1025596 12
7.7452846 -11.352769 4.456737 13
7.6680112 -11.503787 4.8516059 13
7.6067467 -11.641763 5.2555013 14
7.6344666 -11.462456 5.5705566 15
7.7584939 -11.324106 5.6157608 15
7.8060889 -11.274858 7.6958404 19
7.8868694 -11.109437 7.9579811 19
7.7886534 -11.301569 8.3328104 20
7.8919535 -15.546957 16.076759 26
7.8793812 -15.13855 16.561754 26
7.7524352 -15.716938 17.01255 26
7.8033538 -15.542736 17.015629 27
7.8599749 -15.061285 17.148727 27
7.7458386 -15.249497 17.480555 27
7.9918818 -14.960836 17.356932 27
8.33706 49.117104 13.007695 11
8.3235502 49.093029 15.641729 12
8.1714821 -14.905795 16.491199 26
8.16646 -14.699896 17.099201 27
8.6823483 45.61359 11.654135 11
8.6716099 -12.879482 15.020586 26
8.6256676 -12.864773 15.608017 27
8.6036987 -14.915709 16.698854 26
8.6236153 -14.682582 16.551895 26
8.4411278 -14.578728 16.995623 27
8.4864006 -14.304415 17.049206 27
8.4913797 -14.101987 17.613728 28
8.8370609 -12.650435 14.945364 26
8.8286095 -12.563104 15.467359 27
9.2236109 45.57526 13.769098 12
9.4826622 -11.35626 15.537521 28
9.7853317 45.6077 11.746918 11
9.8343163 45.564552 14.682208 12
9.666995 -12.0858 14.966744 26
9.8539829 -11.913192 14.877066 26
9.6272039 -11.417238 15.020749 27
9.80128 -10.628895 15.106123 28
10.305564 -6.1052289 -0.25749007 3
10.28175 45.629677 11.899546 11
10.293043 45.513004 13.814871 12
10.135949 -11.000402 15.03263 27
10.003325 -10.582289 15.083462 27
10.152236 -10.266516 15.066996 27.25
10.236943 -9.8817787 15.125935 28
10.062639 -10.206522 15.343606 28
10.785321 -10.254762 14.936795 27
10.887401 28.55896 1.3257765 5
11.119151 28.362505 1.997933 5
11.290868 28.33997 0.40649661 4
11.498594 28.194921 1.3274587 5
11.919882 27.993059 0.43317056 4
11.604205 28.164661 0.48883951 4
12.126619 27.858915 1.3290915 5
12.35693 27.723465 2.0300791 5
12.591183 -6.7631359 0.16623653 4
12.888672 27.469494 0.37518883 4
13.173194 45.583019 12.087215 11
13.048063 45.547756 14.988914 12
13.293157 45.609501 12.483546 11
13.859852 26.305899 0.46349612 4
13.794474 45.61195 11.992154 11
13.638685 45.565708 14.068775 12
14.341928 45.653179 11.752811 11
14.152953 45.544521 15.103482 12
14.77556 45.575562 14.168388 12
15.006477 45.637115 12.047962 11
15.342539 26.157831 0.56692332 4
15.522783 45.641373 11.915581 11
15.932544 45.569427 14.269045 12
16.241615 45.640285 12.103833 11
16.708752 45.578407 12.511425 11
16.818851 45.616631 12.830682 11
17.086454 45.562229 14.386642 12
17.486715 45.640446 12.175679 11
