# .PCD v0.7 - Point Cloud Data file format
VERSION 0.7
FIELDS x y z intensity
SIZE 4 4 4 4
TYPE F F F F
COUNT 1 1 1 1
WIDTH 416
HEIGHT 1
VIEWPOINT 0 0 0 1 0 0 0
POINTS 416
DATA ascii
-32.486332 -21.594086 17.842916 16
-32.185871 -24.016651 17.682869 16
-32.20594 -23.550154 18.324036 16
-28.58003 -13.383649 0.23801857 3
-20.866667 -4.1717973 -0.037815195 3
-20.32864 -10.962475 0.11964137 3
-18.271273 -2.8147972 0.62814891 4
-17.002937 -12.620852 0.18350773 3
-16.759554 -10.074937 0.1085888 3
-16.124289 -10.886287 0.16693045 3
-15.09951 -12.293821 0.16910008 3
-14.951951 -12.512076 0.69600612 4
-14.981728 -12.366446 0.43105212 4
-15.013028 -12.619954 0.93699139 5
-14.748859 -13.590493 0.97773325 5
-14.52147 -14.274801 1.6226054 6
-14.5621 -13.837187 1.7856688 6
-14.615741 -13.387652 1.9367496 6
-14.418039 -13.940243 2.3316371 7
-14.584954 -13.478407 2.3187289 7
-14.530684 -14.351613 2.5985975 7
-14.666476 -13.826836 2.5496826 7
-14.267211 -14.42113 2.2720692 6.5
-14.291062 -14.378261 2.0095751 6
-14.294153 -14.406184 2.4535725 7
-13.129902 -0.65245301 0.027630243 3
-12.00039 -1.7909253 0.031269461 3
-11.933018 -1.2036271 0.036022626 3
-11.585245 -19.249458 0.22947095 4
-11.351795 -10.221716 0.26883104 4
-11.364615 -19.148502 0.60152799 4
-11.310339 -19.266272 1.2155825 5
-11.457649 -19.052143 2.3964663 6
-11.212989 -19.261002 2.4236205 6
-11.399446 -19.185884 3.0315249 7
-10.838869 -20.05809 0.24202919 4
-11.061744 -19.371971 2.3612168 6
-10.01703 -12.223413 -0.038383581 3
-10.045775 -20.141279 1.2504603 5
-10.257873 -20.201717 2.5193691 7
-10.15029 -20.161644 3.1244123 7
-10.054737 -20.144556 3.6934571 8
-9.7514324 -16.280449 -0.045635767 3
-8.6272764 2.609952 -0.0018492904 3
-8.7165871 4.0971065 -0.027914654 3
-8.3562489 1.1916292 -0.050626799 3
-8.1135292 -15.293969 11.225766 21
-7.9040952 -15.271071 11.28286 21
-7.3453593 19.407393 11.051991 18
-7.1417451 -13.468956 -0.27837107 3
-6.1406159 2.6286895 0.22274306 4
-6.0343781 2.853858 0.23913711 4
-6.1067944 3.4213097 0.11582161 3.5
-6.1383805 2.7312703 0.56994772 6
-6.0108929 2.8647132 0.54314655 6
-6.3650341 -15.686725 4.059936 10
-5.7629189 -5.1986785 -0.18710524 3
-5.6197653 -2.6601379 -0.1628312 2
-5.6142058 2.0042903 -0.083796136 3
-5.9358144 2.9888902 0.56835735 6
-5.9364324 -15.46305 3.9496415 10
-5.712359 19.657236 21.737877 28
-5.5516157 -0.21331115 -0.11288349 3
-5.314785 2.1695228 -0.091632634 3
-5.396668 8.5584602 5.6231875 18
-5.4046779 19.720106 21.653761 28
-5.0806284 19.825613 21.059092 27
-4.9684744 19.833937 21.656141 28
-4.6605053 -16.70443 14.966828 25
-4.6503053 19.992464 21.165785 27
-4.6558757 19.91254 21.651493 28
-4.0164523 -0.98623163 -0.13808241 2
-4.20189 -0.19992577 -0.1277902 2
-4.1117616 2.558316 -0.10394841 3
-4.1333823 7.4420023 -0.096076384 3
-4.0360069 -8.4757137 0.020470828 3
-4.2928481 20.133617 21.31567 27
-4.2188654 20.026119 21.688354 28
-3.7548354 0.56266081 -0.12672897 2
-3.9527106 3.0192785 -0.095563337 3
-3.8846474 3.4302504 -0.0907465 3
-3.6428449 -14.432652 9.4425879 20
-3.6851909 -16.503025 14.523687 25
-3.8773763 20.113314 21.712303 28
-3.429991 0.69513911 -0.13566935 2
-3.4792523 1.5253929 -0.11592589 2
-3.5808327 7.2897348 -0.077693112 3
-3.4688573 7.9644022 -0.1049492 3
-3.4112096 -8.2501526 0.024743294 3
-3.2936115 24.10298 5.113883 10
-3.3774426 -14.342877 9.5063047 20.5
-3.4276969 -16.534336 14.32448 24
-3.4164872 -16.448801 14.473944 25
-3.5322044 20.175318 21.683336 28
-2.8151069 -1.6801394 -0.16859531 2
-2.8231699 -1.5129001 -0.16545255 2
-2.8528645 -0.48725304 -0.1561944 2
-3.1768963 0.79741842 -0.12961079 2
-3.0074818 0.97701949 -0.13032885 2
-2.9723816 1.5895208 -0.11803076 2
-2.86572 1.7043859 -0.11782833 2
-2.8087416 4.0510454 -0.10981212 3
-2.9495814 -8.168458 0.01501931 3
-2.9655948 24.100788 5.6394944 10
-2.9622748 -14.297029 9.3778801 20.666666
-3.1478963 -16.420607 14.423223 25
-2.8677359 23.772768 25.461227 28
-2.4702828 -3.7320478 -0.20521608 2
-2.5068169 -2.9191272 -0.19522202 2
-2.4183719 -2.1872714 -0.18706685 2
-2.566653 -1.7979267 -0.17580611 2
-2.6047087 -1.4808371 -0.17455122 1
-2.6607533 -0.26633579 -0.14597602 2
-2.5087419 4.0094762 -0.11205317 3
-2.5135 9.2121534 0.049549345 4
-2.7281983 24.125338 5.0895643 10
-2.6427374 -14.17975 9.3584967 21
-2.7108212 23.771528 24.795982 27
-2.5843868 23.7642 25.24662 28
-2.234226 -4.1741543 -0.2040793 2
-2.3652222 -3.9655547 -0.20516174 2
-2.342145 -3.1427927 -0.19924219 2
-2.3696485 -2.3536341 -0.18913662 2
-2.3194001 -0.56442761 -0.15369715 1
-2.2428398 -0.15887959 -0.14858437 1
-2.2766945 0.62175286 -0.13848001 1
-2.2289755 1.5563933 -0.13040613 2
-2.0191536 9.3408794 -0.047299076 3
-2.0509548 3.5318713 0.38173094 6
-2.1099946 3.8396156 0.11658631 4
-2.0198839 9.5001535 1.3502647 7
-2.1993389 -14.138585 9.3127317 21
-2.3437433 23.928646 24.364288 27
-2.1898894 23.922104 24.932056 27
-2.2325857 23.895487 25.274929 28
-1.6601396 -4.0233359 -0.21488376 2
-1.803149 -3.8515134 -0.21400818 2
-1.6512845 -1.2253435 -0.16589761 1
-1.6663513 -1.1188341 -0.1638072 1
-1.7769158 -0.29444912 -0.16016705 1
-1.788851 1.0031067 -0.14094441 1
-1.9473411 1.6421 -0.12731095 2
-1.9618968 3.5615053 0.3601408 6
-1.780326 3.7532537 0.2632165 5.1999998
-1.6600846 3.6964376 0.46242747 7
-1.8907033 9.5188665 0.44684759 5
-1.9213434 9.5515661 0.80660558 6
-1.9224733 -14.132421 9.2193098 21
-1.7819867 -13.684599 11.787719 24.5
-1.8014826 24.056953 24.529514 27
-1.8716238 24.001839 25.377346 28
-1.3985329 -3.9465785 -0.21576563 2
-1.2841104 -2.2831161 -0.18722163 1
-1.361588 -1.7995253 -0.17647849 1
-1.4316344 -1.4124579 -0.1703566 1
-1.4292679 -0.45915949 -0.17078501 0
-1.5200589 -0.35221383 -0.18208694 0
-1.3444014 0.71297169 -0.14799939 0
-1.2425545 0.98052931 -0.14385261 0
-1.5293846 1.2874749 -0.13873161 1
-1.2520189 1.8709058 -0.14253089 2
-1.4733061 -7.5060725 0.053969063 3
-1.3949255 -7.0802884 0.11981295 4
-1.4659053 3.7841308 0.33581764 5.8333335
-1.4049048 4.4709973 0.016657859 3
-1.5234931 3.7736051 0.48412269 7
-1.4167876 -13.56482 11.729354 25
-1.1096601 -2.8819263 -0.20701714 1
-1.1954248 -2.5557771 -0.19415095 1
-0.82191712 -1.7671117 -0.18119277 0
-0.89214021 -1.5210736 -0.1775109 0
-0.86357856 1.4776632 -0.15033744 1
-1.0639307 1.87357 -0.14347509 2
-1.1946011 2.4835818 -0.14179082 2
-0.95794624 3.438679 -0.11860801 2
-1.1822433 4.6137958 -0.034575026 3
-0.99461335 6.168283 -0.09904059 3
-1.09828 -7.3809605 0.043302339 3
-1.019241 -13.450266 11.690053 25
-0.49446535 -5.0010419 -0.23540045 2
-0.69169962 -4.7435532 -0.23876862 2
-0.7643441 -3.968555 -0.21226975 2
-0.56912541 1.3852656 -0.1515853 0.33333334
-0.59359807 1.6278163 -0.14869165 1
-0.70392877 3.4628212 -0.12583958 2
-0.45399684 4.5367851 -0.054634023 3
-0.76812232 -7.500845 0.035760529 3
-0.66340327 -6.9812064 0.29757792 4
-0.65732276 -6.9824018 0.61691976 5.6666665
-0.78728294 -7.1352115 0.84751999 7
-0.63363355 -13.831076 9.0363131 21
-0.78824103 -13.388857 11.576328 25
-0.055226304 -11.092507 -0.084067248 3
-0.37023258 -7.4253039 -0.045778565 3
-0.2915239 -5.5536542 -0.24382074 2
-0.0022567085 -3.377727 -0.21178961 1
-0.21189876 -3.0835707 -0.20671275 1
-0.38666913 -2.7736585 -0.19956878 1
-0.24478458 1.3998986 -0.15363045 0.40000001
-0.1544513 1.6637372 -0.1478705 1
-0.25777248 2.6096478 -0.13785435 2
-0.1257724 8.349577 -0.054120395 3
-0.0046979222 -8.5445757 0.23842083 4
-0.25902286 4.3946362 0.0017467577 3
-0.38323465 -13.439178 5.8579216 16
-0.24229373 -13.411753 6.1166091 16
-0.3974168 -13.824239 9.0051451 21
-0.0080612293 -15.056908 16.014488 28
0.20338124 -4.1107059 -0.22671676 2
0.20852146 -3.7897854 -0.22325079 1
0.3610875 -3.5494447 -0.21818586 1
0.26186916 1.5891747 -0.14650469 1
0.064082183 1.6051737 -0.14788419 1
0.21541065 2.177309 -0.13546573 2
0.026476614 2.5570664 -0.13450846 2
0.26999059 8.4006977 -0.031406861 3
0.39701781 4.036931 0.15894896 4
0.14930722 -13.573114 8.9167929 21
0.16085765 -15.024712 16.048222 28
0.57638615 -3.9834363 -0.22258037 2
0.49667799 -3.3270967 -0.21412601 1
0.61921561 -3.1347461 -0.21105926 1
0.62114072 1.7102807 -0.14385517 1
0.55054837 2.2241902 -0.13552326 2
0.6628139 7.9959335 -0.041410927 3
0.63065463 -1.4399188 0.25517067 8.0666666
0.58896881 4.0421929 0.15482067 4
0.61059326 -1.4623843 0.62294495 14.75
0.45456195 -14.930192 16.046116 28
0.40331203 24.606194 25.38225 27
0.59633237 24.218842 25.739775 28
1.0466638 -6.8918991 -0.012972988 3
1.0533781 -1.2542733 -0.080169246 1.6363636
0.9633522 1.3523148 -0.15035856 1
1.0045731 2.3090112 -0.13262002 2
1.1152396 8.6453781 -0.040264554 3
1.1171954 -6.6330109 0.17598611 4
1.0621639 -1.2662231 0.18895034 6.7058825
0.99408489 -1.3028215 0.67470688 15
1.1167229 -13.120356 6.4510341 17
1.1058794 -15.432047 16.949465 28
1.1113548 24.387199 25.692133 28
0.96495515 24.719875 25.609495 27
1.3548303 -6.808641 -0.02149157 3
1.2815005 -5.0407286 -0.24971572 2
1.4345083 -3.4189029 -0.21142802 1.5
1.4225029 -3.0133953 -0.13819923 2
1.411732 -2.776778 -0.073365539 2.5
1.2864187 -1.1798152 -0.074548081 2
1.5212386 0.28250551 -0.17132364 0
1.2257414 1.3487024 -0.1471968 1
1.4893808 1.9347049 -0.1383362 2
1.307554 2.2475669 -0.13238788 2
1.560649 4.4221091 -0.1090693 3
1.4787861 4.9534526 -0.11694129 3
1.2286988 -6.597446 0.26715657 4
1.3286252 -2.796622 0.098984078 4.5
1.3175024 -1.2072582 0.27492121 8
1.4310349 -1.1287251 0.19179526 6.4285712
1.3379842 -6.6792068 0.47739944 5
1.4207352 -1.11347 0.42407277 10
1.5840998 -13.008105 3.9907441 12
1.4507488 -13.00092 5.8535161 16
1.3214235 -13.087818 6.2210212 16.666666
1.4780743 -12.997165 6.4810619 17
1.3639729 -15.400505 16.919876 28
1.4306965 24.258415 25.838953 28
1.524523 24.703348 25.716082 27
1.6288097 -6.5833421 -0.029135995 3
1.650313 -5.451026 -0.25878376 2
1.6012419 -4.4620724 -0.23447411 2
1.6582133 -0.20840852 -0.17810504 0
1.7838471 0.72048998 -0.16246395 1
1.6248415 0.87854207 -0.15823925 1
1.8012869 1.325774 -0.1489875 1
1.6856161 1.7779578 -0.13973825 1.6666666
1.7884889 2.6483641 -0.13618374 2
1.8388505 4.2334709 -0.11040813 3
1.8058497 -1.349496 0.069072232 4
1.7782176 -1.0457186 0.20129792 6.25
1.9605323 5.4894652 0.16134845 4
1.8309461 -0.97753811 0.47586405 10
1.7087523 -15.035611 1.7412093 6.5
1.7464776 -14.977065 2.1772377 8
1.7605821 -14.979417 2.5292652 8
1.7626736 -12.947216 4.1560149 12
1.733194 -12.930826 5.8319559 16
1.7707502 -12.949412 6.0770354 16
1.9007279 -12.890031 6.457725 17
1.6476514 24.384909 25.709564 28
2.1045175 -6.9615531 -0.1200135 3
2.0136611 -4.3262105 -0.22673699 2
2.3400199 -0.1375906 -0.18226047 1
2.3955412 0.50674498 -0.17149673 1
2.3391485 1.7174264 -0.13700204 2
2.2222102 -0.95876133 0.077063881 4
2.3862669 -0.79152429 0.27897632 7
2.1810741 5.3741074 0.19089305 4.3333335
2.3503962 -0.81150031 0.45541072 8.5
2.130125 5.4517722 0.45480618 5.25
2.049154 -12.87324 4.1504722 13
2.4739497 -12.365917 -0.34607771 2
2.4176009 -2.0056818 -0.20315757 1
2.5171773 -1.8082997 -0.20804407 1
2.577991 -1.5955818 -0.20803054 1
2.5750895 -0.62790239 -0.19222943 1
2.4044485 -0.35945672 -0.18487227 1
2.6089165 1.7457843 -0.14626689 2
2.6377912 -1.2792146 0.013907759 3
2.5955038 -0.99652457 0.10960855 4.5
2.5502195 -0.7628842 0.21372987 6
2.4393294 5.2935224 0.19347113 4.5
2.5019016 -0.7512911 0.51020962 9
2.9446654 -2.4601362 -0.20870705 2
2.9254458 -2.1994638 -0.0058886814 3
2.8071737 1.6031797 -0.15290146 2
2.9590545 -1.0254362 0.0094736237 3
2.9804873 -0.66947925 0.065246604 4
2.8900213 5.581531 0.1548918 4
3.1382861 -12.738593 9.0304031 21
3.4356542 -0.51137596 -0.081031524 2.4000001
3.4564795 0.73800623 -0.17521545 2
3.3011091 1.6212581 -0.1650814 2
3.4019701 3.1218617 -0.11998833 2
3.2589569 3.3431761 -0.12496526 2
3.3417656 6.4544497 -0.00081145944 3
3.3433595 -0.51948678 0.091850303 4
3.5516553 6.1434073 0.0038077405 3
3.2939699 -12.720864 8.9396915 21
3.8610744 -9.5442457 -0.17300463 3
3.9406116 -1.9310277 -0.11966821 2
3.7174397 -0.80198687 -0.026931554 3
3.6002479 3.01143 -0.12212873 2
3.6150541 -0.98577338 0.014969462 3
3.6056478 -12.628525 8.7342424 21
3.768079 -14.625899 16.59524 28
4.2120194 -11.887759 -0.24398039 3
4.2244744 -1.83469 -0.13105632 2
4.0148191 -0.2927618 -0.01767577 3
4.1911559 6.4571047 0.25226334 4
4.1237082 -14.932417 17.141609 28
4.7761569 -3.255219 -0.2400285 2
4.7939854 -0.096384227 -0.17703342 2
4.6822457 0.24384853 -0.18415226 2
4.9017544 -3.6893144 -0.24553192 2
4.9218936 -3.0256243 -0.24779129 2
4.8576427 -1.2748253 -0.19491993 2
4.8333883 -1.0306102 -0.20314905 2
4.9810095 -0.32660407 -0.17937675 2
5.230341 0.33286613 -0.043445572 3
5.4346323 0.40480605 -0.070039146 3
5.5121408 3.8043623 -0.12426925 3
5.2295752 0.28115565 0.14310887 4
5.2064438 0.22363909 0.54311681 6.5
5.2791524 0.17314284 0.97400981 8.666667
5.2952056 0.22133638 1.2318317 10
5.9227638 2.8362741 0.62268448 6
5.9059258 2.8471961 1.0106229 7.6666665
6.3569832 2.7394598 -0.17302613 2
6.06812 3.8071892 -0.1217254 3
6.2336864 2.7292984 0.14542413 3.5
6.0383596 9.5502148 0.014631738 3
6.4078212 2.4319997 -0.15839769 2
6.5336924 3.713551 -0.11627926 3
6.7869682 -0.0082526999 0.31658122 5
6.7347364 0.13386005 0.27015314 4.3333335
6.7759337 -0.14782619 0.436685 5
6.7430396 0.13559006 0.559138 5.5999999
6.8278151 -0.15993978 0.19881715 4
6.8768711 6.5488243 0.22478542 4
6.8523655 -0.16057779 0.7110098 6.4000001
7.3873734 -0.12009262 0.047098976 3
7.6906228 -5.2623696 -0.0061886832 3
7.7068024 0.2215284 0.050530296 3
8.3753862 7.1909647 0.049836848 3
8.1316175 7.6551204 0.046082262 3
9.3313665 7.3090687 0.05836172 3
10.384012 25.291548 13.785078 17
10.719048 -3.4431496 -0.24877056 2
10.696785 10.086712 2.1013641 7
10.987812 9.7366743 1.8360019 7
10.947817 10.145838 1.8649824 7
11.171892 8.7249813 2.2076933 7.6666665
10.98356 9.3897152 2.1697438 7.5
10.873182 9.7765293 2.0865772 7
11.583138 8.2332487 0.50984383 4
11.435947 8.4385433 0.68102008 5
11.367348 8.5574112 1.3665866 6
11.531345 7.7271962 1.9637042 7
11.34579 8.2034712 1.9847461 7
11.318175 8.7661276 1.7960227 7
11.591189 7.592411 2.1231301 8
11.496036 7.8222151 2.1949224 8
11.364546 8.1215382 2.1949658 8
11.288306 8.4675789 2.2070529 8
11.438157 23.826811 29.02421 28
11.738716 7.5453763 0.5106141 4
11.809571 7.9614835 1.791014 7
11.750958 7.4081125 2.2589169 8
11.935966 24.201956 28.328026 28
12.180423 24.407238 27.639353 27
12.080041 24.113525 28.228786 28
28.551329 11.168124 0.1979581 3
28.710485 10.806964 1.2108921 4
28.648956 10.996031 1.8224634 5
28.733675 10.647051 2.0121863 5
28.542738 10.948647 2.3802707 6
28.541067 11.335128 2.0186906 5
29.19269 9.2970915 2.0092211 5
29.28373 8.8516464 1.2120425 4
29.274345 9.0073376 1.9028132 5
29.214109 9.0311432 2.5166359 6
41.000019 23.695177 8.9984131 9
41.047001 23.744114 11.690464 10
41.469048 23.33498 7.6802745 8
41.231091 24.063698 7.9463654 8
