# .PCD v0.7 - Point Cloud Data file format
VERSION 0.7
FIELDS x y z intensity
SIZE 4 4 4 4
TYPE F F F F
COUNT 1 1 1 1
WIDTH 173
HEIGHT 1
VIEWPOINT 0 0 0 1 0 0 0
POINTS 173
DATA ascii
-13.237219 -29.440901 15.812139 17
-8.776103 -6.2664323 0.55620992 5
-7.4322138 1.791445 1.8141081 10
-7.549181 2.6157444 2.8374631 14
-7.5862665 -17.672964 4.823195 11
-7.2986321 1.0092866 1.3895727 9
-7.2882628 0.89045906 2.0358503 11
-6.9720063 3.2649968 1.5359457 9
-6.9661474 3.2540255 1.7339005 10
-6.9625497 3.1488452 2.1574211 12
-6.6514225 -6.0055237 0.79595387 6
-6.6816444 3.0260036 4.0210252 18
-6.4268985 -3.5349865 3.4661298 17
-6.5191903 -0.69550514 3.4865174 18
-6.4062324 -3.479147 3.7686665 18
-6.494442 -0.69524872 3.7645464 19
-6.5806584 3.0420823 4.2561579 19
-6.5880847 -0.63221002 6.8990402 28
-6.2614398 -6.523128 0.089418523 4
-6.354991 -3.6685286 0.61674672 6
-6.3622355 -3.5291374 0.83807391 7
-6.348465 -3.6128042 1.0552928 8
-6.333787 -2.8498514 2.3694394 13
-6.3332796 -3.0143249 6.7701111 27
-6.010603 -0.98262876 0.032545537 3
-6.0623846 -0.9590165 2.0627604 13
-5.8976479 -2.1462142 0.087791845 4
-5.8608966 -2.2174606 0.26817688 5
-5.8946333 1.3737665 0.31994802 5
-5.9020963 -2.2192478 0.50915748 6
-5.9298425 1.3783252 0.57294947 6
-5.9098239 1.424883 0.66423744 7
-5.8680086 -2.2508638 0.88139921 7.5
-5.990149 -1.5462682 1.1289736 9
-5.9021263 -2.2446489 1.5454704 10.5
-5.8774014 -2.236469 1.807061 12
-5.2947993 3.4353707 0.54837644 6
-5.2868829 3.4356663 0.70638114 7
-5.3415189 3.2990572 1.2438128 9
-5.2906542 3.4509223 1.9764513 12
-4.9018407 -7.0814099 2.2454274 11
-4.9718819 3.2883151 2.8698986 17
-4.9820485 3.2773523 3.0758536 18
-4.5708461 -6.2726402 1.0074205 7
-3.7151642 3.5071323 0.39884093 6
-3.7784669 3.4912763 0.58979207 7
-3.7525513 3.4941518 0.8758021 8
-3.716136 2.3740869 4.5386019 27
-3.5640125 3.5261385 0.94789201 9
-3.57358 3.4837306 1.7957573 14
-3.2694075 3.5463362 1.5259079 12
-3.277606 3.2731588 4.5680432 27
-3.2210338 3.4506721 4.5626087 26
-3.0501156 3.5953395 0.55299419 7
-3.048172 3.5432458 2.4468436 18
-3.0184722 3.5414057 3.2248316 21
-2.9406326 3.6190488 0.39502624 6
-2.8981638 3.5836256 1.6149107 13
-2.8133354 3.5326908 4.3797388 26
-2.7188144 3.5907359 2.22686 17
-2.7645516 3.5667815 3.2968147 22.5
-2.7996209 3.4138501 4.5673828 27
-2.469851 3.6598203 0.30991969 5
-2.4277298 3.6326079 2.4368277 19
-2.217752 -6.1596332 0.13906109 4
-2.2149649 3.6879716 0.63683426 8
-2.3415926 3.6671572 0.83986372 9
-2.2498317 3.65995 2.144789 17
-2.2235539 3.6362212 3.8947144 26
-2.1205113 3.4714851 4.1472158 27
-1.965657 3.730792 0.13375317 4
-1.8257169 -6.3123379 0.52074695 6
-1.8563497 3.7346873 0.51767164 7
-1.815895 3.721601 2.2036083 18
-1.8062761 3.8979385 3.8040226 25
-1.666096 -6.2739925 0.88437468 7.5
-1.6760383 3.7013493 4.0654373 27
-1.4485191 -2.7062554 2.8257089 26
-1.4094185 3.890034 3.7985923 26
-1.3494165 3.7480307 4.1882133 28
-1.0597838 3.7916467 3.9129696 27
-0.90803927 3.8426988 1.1958789 12
-0.93420106 3.837476 1.2759023 13
-0.85002762 3.8357506 2.0347896 18
-0.8068586 3.8424079 2.2087462 19
-0.76050436 -2.1922383 2.0595973 26
-0.66102964 3.9573309 3.6952748 25.5
-0.55947626 3.8764033 1.9384699 17
-0.31277505 -2.6000624 -0.18116289 2
-0.27004933 -2.5787437 -0.197056 1
-0.20625423 3.9425519 0.55506557 7
-0.23991451 -2.3452618 2.0104389 25
-0.21216996 4.0974784 3.6953645 25
-0.0071840435 -2.8216052 -0.022301307 3
-0.013053645 -2.8821392 0.026084706 4
-0.14780752 -2.7393696 0.099935219 5
-0.14792469 -2.7768815 0.2455491 6
0.11001608 -2.6189637 0.33551693 8
0.16616786 -2.6153495 0.66992342 11.5
0.021016685 4.1138391 3.8030188 26
0.088898547 3.9414923 4.1016011 27.5
0.38662773 -2.6743789 0.32174066 7.5
0.21136719 3.9741352 2.6884594 21
0.43230534 -2.4951353 -0.092057519 3
0.59238827 2.3341594 -0.0027598622 3
0.44257322 -2.5148692 0.068723358 4.5
0.58326548 2.3500376 0.11727279 5
0.48404965 4.0126309 1.2710726 12
0.56339538 4.0284157 1.4529666 14
0.53515184 4.0175991 2.0119967 17
0.58283019 -2.1326752 2.3283553 28
0.52704942 4.0282278 2.2640283 19
0.51032108 -2.3924911 2.4909153 27
0.49678987 4.0083008 2.8790457 22
0.51485521 4.0071201 3.024014 23
0.62442559 -2.1012444 -0.17554067 1
0.69509137 2.1021991 0.12149058 5
0.75830233 2.0796044 0.35973799 8
0.72606719 2.0705831 0.40375632 9
0.69013321 -2.7519708 0.73676854 11.5
0.64700526 2.0303802 0.65477687 12.5
0.76149136 4.0585871 0.63168168 8
0.74940503 4.0472908 0.86068392 9
0.64180601 4.035656 1.3118465 13
0.64142263 -2.4846649 2.1686573 25
0.6778416 4.0306158 2.1047783 18
0.60208559 -2.0436172 2.4102061 29
0.76403201 3.9078717 4.3604355 28
0.86940819 4.040153 4.2944727 27
1.1250906 -1.84289 -0.16894907 1.5
1.0150645 -3.4189343 0.06428574 4
1.0794818 -3.3684895 0.13569041 5
1.0615704 -2.0023673 2.4446721 28
1.1620253 -1.8764075 2.4547768 29
1.3319798 3.8931987 4.3894753 28
1.5785282 -3.4405932 0.98621386 11
1.5058193 -3.4623511 1.031093 12
1.6184101 -1.842813 0.68256348 11.5
1.7860831 -1.1835548 2.1782982 27
1.7071288 -1.1211883 2.2480638 28
1.7627844 4.0130272 4.3489504 27
1.8677859 -1.1988167 2.1442204 26
1.891221 -0.93737376 2.327527 28.5
1.9397193 4.0133715 2.5216675 19
1.8016313 4.1669903 4.3431058 26
2.0608747 -0.82392997 2.2755888 27
2.253587 4.2279739 1.5344601 12.5
2.2036586 -0.86343259 2.1766193 26
2.5374484 -0.58693266 2.5123436 26.5
2.7227139 -1.4019884 0.034901399 3
2.7593632 -1.3205532 0.12638941 4
2.7684 -1.170766 0.43055865 7.5
2.9335248 3.6258843 0.056799762 4
2.9232035 3.7359641 0.3349191 5
3.1896865 -0.63975739 2.114593 21
3.129611 -0.60042924 2.2094653 22
3.2975879 2.65604 0.27230638 5.5
3.2145061 2.6234133 0.79786569 9
3.3165233 -5.7475376 0.87846357 7.5
3.5779824 -1.0553945 0.18714146 5
3.5120015 -1.0086173 0.39598307 6
3.4452169 4.4030471 3.2718978 19
3.6487725 4.4210939 2.7406368 17
4.484448 -0.49623454 0.19529656 5
6.7825956 4.7711406 2.7993014 13
8.2305765 3.2717834 0.16436876 4
8.7439032 1.4717592 0.60411525 5
8.80089 1.533187 0.80799532 6
10.42746 2.5027804 1.8580059 8
18.693335 8.0654049 3.1398389 8
18.723579 7.8991308 3.6958611 9
41.084339 22.366499 15.352102 13
41.225872 21.432999 9.8367949 10
