# .PCD v0.7 - Point Cloud Data file format
VERSION 0.7
FIELDS x y z intensity
SIZE 4 4 4 4
TYPE F F F F
COUNT 1 1 1 1
WIDTH 306
HEIGHT 1
VIEWPOINT 0 0 0 1 0 0 0
POINTS 306
DATA ascii
-2.6927135 0.83031076 0.78918529 12
-2.6294317 -0.37284353 0.86352247 13
-2.6593795 0.33227244 0.88731194 13
-2.7072089 0.74938899 0.95019525 13
-2.6018758 -0.70037442 1.9196476 22
-2.6231229 0.84382677 2.185216 24
-2.5999129 0.33476812 -0.078661628 2
-2.4321754 -0.53100646 0.099662788 4.5
-2.5948601 0.18282804 0.11737829 5
-2.5891044 -0.47586614 0.94557428 14
-2.5528517 -0.50034261 1.0940987 15.5
-2.5618985 -1.3772676 2.2699444 23
-2.4111984 0.44164905 2.3584011 27
-2.5140519 0.84077406 2.3442681 25
-2.2128439 -1.0497153 2.3449626 26
-2.3923709 -0.86343509 2.3718035 26
-2.2296135 0.3494353 2.3625059 28
-2.3664603 -0.86543834 2.4348166 27
-2.2475381 -0.68457776 2.4618008 28
-2.1249959 0.47863343 0.76852626 14
-2.1979198 -1.0547259 2.3659718 27
-2.0116873 -1.7909675 2.5394216 26
-2.1930985 1.1115243 2.5293732 27
-1.8763928 0.38372234 0.12499581 5
-1.8729403 0.85222596 0.18157741 6
-1.8950256 0.39913562 0.24965057 7
-1.8278278 0.85620791 0.23659912 7
-1.9342465 -1.4750593 2.5472951 27.5
-1.9162797 0.64819425 2.5315928 30
-1.999384 1.1583344 2.5244622 28
-1.8144623 1.2341757 2.5415437 29
-1.6022637 -0.38156742 0.19498006 7
-1.6325195 0.81295151 0.064704098 4.5
-1.624076 0.81403667 0.29520819 8.5
-1.6318545 -0.3263889 0.41794956 11
-1.5251495 0.8158384 0.0017580352 3
-1.3491359 -0.64671749 -0.038313109 2.5
-1.25107 0.82363981 -0.0021010765 3
-1.2533708 -0.73688644 0.05076756 4.5
-1.2458694 -0.46216175 0.17916295 7
-1.2320315 0.82468241 0.14090885 6
-1.3870047 -0.41288802 0.22108458 8
-1.2535591 1.7012458 2.3657613 28.5
-1.1051145 -0.74975336 -0.10465935 1
-1.1679838 -0.75751203 0.12331538 6
-1.1420676 0.82760537 0.077456363 4.5
-1.1168875 -0.68095523 0.31280512 10.5
-1.0914844 -0.69593972 0.44332361 13.5
-1.0815877 -0.36970672 0.47970268 15.5
-1.1334198 -0.64822072 0.64728397 17
-1.1383902 1.7376828 2.3718157 29
-0.91304088 -0.73776031 0.54542375 17
-0.86476177 -0.74877769 0.70645171 20.333334
-0.97481996 -0.74045891 0.85589665 22.5
-0.63633305 0.5812009 -0.066732265 1
-0.71923906 0.66429478 -0.028789219 2
-0.63765776 -0.73959625 0.19255477 9
-0.66548836 0.43012545 0.17426346 10
-0.72788876 0.65831405 0.036206454 4.5
-0.66626459 -1.2717905 0.21485202 8
-0.61172014 -0.74390697 0.34456974 14
-0.70735389 0.32252815 0.24074768 12.5
-0.66153497 0.42513245 0.21026607 11
-0.69393492 -0.73359424 0.51952481 18
-0.6002146 0.2890698 0.55630904 25
-0.69781101 -0.74611515 0.75986272 23
-0.73399729 -0.72595757 0.85850185 25
-0.75132287 2.1465406 2.3579385 27
-0.77083623 3.3431897 2.5561712 22.5
-0.57489592 -0.88250607 -0.049833734 1.5
-0.53952336 -0.73298043 -0.020400813 3
-0.56528622 -0.73218423 0.076252736 5.6666665
-0.56612933 0.46064314 0.13081968 8.5
-0.47145337 0.75076121 0.072347142 5.6666665
-0.57629448 -0.73605931 0.2365828 11
-0.57089889 0.31702471 0.34682471 18.5
-0.46723652 1.723814 0.23516946 7
-0.5892477 -0.73356879 0.43557519 17
-0.45156202 0.29303217 0.4473969 25
-0.47369665 -0.62462211 0.72107214 26.5
-0.40309545 3.4325264 2.5528183 22
-0.29212356 0.91757667 -0.015574493 3
-0.36823151 -0.86950183 0.079271503 5.5
-0.3751221 0.50730515 0.19643602 13
-0.29263261 0.88124859 0.055098675 5
-0.22636269 -0.69017422 0.38823688 18.5
-0.32833371 0.54116344 0.30696288 17
-0.32726657 -0.66422033 0.53333431 22.5
-0.34926072 -0.60203695 0.63661915 26
-0.33829218 -0.58706224 0.63461584 27
-0.10395667 0.89570808 -0.00046482778 3
-0.1436446 -1.3692361 0.13425322 6.5
-0.18028878 -0.89312959 0.041899346 5
-0.19822575 -0.60938263 0.17269993 11.5
-0.090805538 0.90503323 0.10868298 7
-0.11019167 -0.6875487 0.30980262 15.6
-0.11076099 0.90761924 0.32336214 13.5
-0.13932197 -0.67462921 0.4221096 20
-0.15183543 -0.59779048 0.57071745 26
-0.10137782 0.90151149 0.5348686 19.333334
-0.12412979 1.0028473 0.55450082 18
-0.11365476 -0.60091287 0.6137408 27
-0.16556089 -0.59169799 0.62470603 28
-0.057032324 0.91043788 0.77505708 24.5
-0.050465714 0.91095811 0.83856046 26
0.018076926 0.8913092 -0.044899676 1.5
0.16501673 -1.3798643 0.16085665 7
0.081586398 -0.60491455 0.17804213 11.5
0.083173037 -3.0468881 0.58548349 9
0.087698296 -0.66099733 0.57402879 25
0.10603239 0.9040305 0.58264041 20.5
0.058702607 -0.63547313 0.64404148 26.5
0.092721231 0.92184353 0.71262944 23.200001
0.095331781 0.91207522 0.8326323 25.5
0.38407245 -1.3699589 0.054833371 4
0.26545691 -0.82809836 0.2269613 11
0.20668721 -0.69011396 0.33149797 16.5
0.37057912 0.9212023 0.229747 10
0.33264324 -0.67334896 0.57798111 23
0.20979616 0.90311402 0.52168769 19
0.31975466 -0.66134739 0.61398506 24
0.33564448 0.9102869 0.84473699 24.5
0.57516348 -1.5600049 0.10777629 5
0.408436 -1.3874854 0.14982726 6.5
0.46744606 -0.76036948 0.14294983 8
0.4894928 0.92853719 0.11553563 6.75
0.41562116 -1.6699518 0.32076454 9
0.42111099 -0.77331668 0.21995217 11
0.44127825 0.92029148 0.36877206 14
0.44123095 -0.81935585 0.55494159 19
0.44435889 -0.70770836 0.55846155 21
0.41198072 0.9172855 0.47626278 16.5
0.79060668 -2.0493708 2.5676558 29
0.7745555 -1.9953794 2.5606682 30
0.92200309 -1.7694325 2.3647122 29
0.94686741 2.2953188 2.3806019 26
0.84763312 2.1213865 2.5876131 29
1.0033339 -1.7064881 2.4657238 30
1.2283144 -1.7545067 2.3787076 28
1.3062956 2.2773552 2.3797028 25
1.3184239 -2.5632927 2.5855207 25
1.2695832 -1.615605 2.5837381 30
1.2753195 1.740571 2.5818052 30
1.5746056 -1.7165977 2.3697124 27
1.57784 1.9865229 2.5818191 27
1.7938432 0.17779434 0.24401198 7
1.7925272 0.22674075 0.37701371 9
1.7914743 0.23473252 0.42201388 10
1.7900316 -1.1468509 0.75383425 14
1.6554861 2.2803941 2.3767796 24
1.7040787 -2.6162877 2.4915037 24
1.6647861 -1.5997024 2.5917382 29
1.7842709 -1.1609944 2.5928314 30
1.736418 1.3368828 2.5879467 29
1.6873393 1.5917274 2.590905 28
1.6297796 2.087491 2.5878103 26
1.6646258 2.2214246 2.4337924 25
1.8546139 -1.3216637 -0.03420208 3
1.8064412 -0.53438228 -0.10955679 1.5
1.8748044 0.35959032 -0.063482165 2.5
1.872577 -1.3246725 0.024797263 4
1.8536067 -1.1108493 0.14084117 5
1.8367126 -0.93299633 0.063875675 4
1.8127124 -0.5247367 0.11761125 5
1.8312322 0.28167781 0.11601526 5.5
1.8865765 0.40055019 0.045018625 4
1.8788128 2.6369824 0.19275674 5
1.9504209 -2.1082232 0.23162253 6
1.9160216 -1.6894559 0.26971796 6
1.8904417 -1.3027176 0.28180182 6.5
1.8506362 -0.92203152 0.37587768 9
1.8441167 -0.54406381 0.30427471 8
1.964049 2.6180232 0.33577701 6
1.8627964 -4.3455777 0.50509208 6
1.9150395 -1.6864835 0.51621854 9.5
1.9751822 -1.2967671 0.52580309 10
1.8436472 -0.92003542 0.43487811 10
1.825847 -0.60233933 0.4579328 10
1.8652161 -0.51044422 0.51294625 11
1.9169108 2.6160345 0.46076825 7
1.9210547 -1.688513 0.78871816 12
1.884635 -1.1243907 0.6998384 12.5
1.9463053 -0.90110004 0.76388103 14
1.865603 2.7040322 0.72074145 10
1.970762 -2.9269714 0.83442968 10
1.8768116 -1.7139974 0.88671249 13.5
1.8636153 2.6770649 0.88474625 11
1.8332174 -2.9259846 1.0124301 12
1.9057224 -1.7105283 1.0877132 15.5
1.9502107 -1.2778211 1.0678071 16
1.8890954 -2.9345229 1.2539279 13.5
1.9560057 -1.6920719 1.2842176 17.5
1.9712825 -1.3018311 1.3268019 19
1.941433 -0.9161222 1.3298784 20
1.9250046 -1.6635956 1.4177239 19
1.9080721 -1.2168843 1.4138197 20
1.8884996 -1.0909747 1.4158449 21
1.856384 -0.86715263 1.4558878 22
1.9089956 -0.6473574 1.4219251 22
1.9899782 2.5972152 1.638786 17
1.8216301 -1.7066541 2.3797143 26
1.872624 -1.2919081 2.3848045 28
1.9450788 0.67039883 2.3980174 29
1.9261098 -2.544318 2.41152 23
1.9931719 -2.2974384 2.5825787 24
1.9836514 -2.1275072 2.5896182 25
1.8452581 -1.6337073 2.4717302 27
1.8541372 -1.1779977 2.5928276 29
1.8909024 -0.45457745 2.5949538 31
1.810624 0.89220804 2.5939989 31
1.8457122 0.89221537 2.6000011 30
2.0159612 -0.87509197 -0.016114615 3
2.0688629 2.340112 -0.038155615 3
2.058311 2.343128 0.11484212 4.5
2.1370187 2.3321643 0.24085678 6
2.0818245 2.3431823 0.50434601 8
2.1007555 2.4041572 0.50183898 8
2.0026906 -1.6645378 0.6907236 11
2.1375072 -0.82621443 0.90589374 15
2.1389275 2.3432372 0.86185539 11
2.0564919 -0.88515902 1.1028835 17
2.1594675 0.28173044 1.1780202 18
2.1247835 2.3802552 1.156847 14
2.047333 -0.66486019 1.2984214 19.5
2.1727138 0.051952291 1.3250072 20
2.1544952 0.27573749 1.25402 19
2.0747306 2.3302929 1.3448471 15
2.0118325 -0.65237129 1.4259237 21
2.1889763 2.3433263 1.5188632 17
2.0011189 2.5292475 1.6858 18
2.1215672 1.3269283 2.1679871 25
2.0200567 2.070503 2.1748803 23
2.0997429 2.3120663 2.0978541 21
2.1570046 -1.8236527 2.3766885 24
2.0933537 -1.159042 2.3878312 27
2.1219788 0.55351424 2.2300253 27
2.076077 1.1650336 2.2279975 26
2.006794 1.7686708 2.3829226 25
2.0774992 1.948588 2.3409069 24
2.0596709 -0.45558953 2.4019527 29
2.3435588 2.3271699 -0.055111252 3
2.3112788 2.3862281 0.71787512 10
2.2669604 -0.08791437 0.85949516 14.5
2.2596052 0.26874617 0.99102074 16
2.2993405 2.3262856 0.98588252 12
2.2376328 -0.30570874 1.1029717 17
2.2195051 0.2827318 1.0810211 17
2.2702444 2.3362834 1.0428767 13
2.306489 -2.0885162 2.1166289 21
2.2962871 -1.2559917 2.1138115 24
2.263799 -0.7193864 2.174911 26
2.2480607 0.78434002 2.1630266 25
2.2754464 -2.046546 2.2426383 22
2.2463794 -1.9985796 2.3856492 23
2.3352008 -1.2540126 2.2888117 25
2.2308998 -1.1340804 2.341836 26
2.490871 2.3302064 0.03590861 4
2.5098519 2.3412435 0.3829096 7
2.5940096 2.3313043 0.76392186 10
2.4546728 2.3412964 0.92690229 11
2.4421151 2.3358395 1.2959014 14.5
2.4035017 2.3383543 1.4828959 16
2.4586504 2.3153977 1.7029066 17
2.5528841 2.277482 2.1949244 20
2.6471903 2.325254 0.19492924 5
2.6421654 2.3272634 0.29892832 6
2.6050282 2.3422825 0.59492183 8
2.6190703 2.3342915 0.62192452 9
2.6505911 2.3308506 1.1074291 12.5
2.7330534 0.45164838 2.1770349 23
2.6238809 2.3604331 2.0119216 19
3.1331317 1.4130211 2.1890476 20
3.1507919 2.3954847 2.1099765 18
3.3101814 1.1650847 0.063059933 4
3.3027661 1.4913584 0.12805285 4.5
3.261296 2.3133698 0.33799538 6
3.3106859 1.5173646 0.47455233 7.5
3.3349371 0.91229838 0.63105935 9
3.2931809 1.5038904 0.76605201 9
3.3669167 0.60953462 0.89205027 11
3.3099625 1.227082 0.84005928 10
3.3351626 1.5268928 0.94705319 11
3.3639574 0.59455258 1.1440493 13
3.3809509 0.6005463 1.0320498 12
3.3213453 1.0951915 1.1750606 13
3.3231878 1.5089098 1.0560532 12
3.3539863 0.58256584 1.3310488 14
3.3705866 1.3740251 1.4390593 15
3.3291576 1.5084511 1.6785536 16.5
3.2951193 1.4999721 1.9760522 18
3.2775505 1.7028631 2.1590421 19
3.2389438 2.3944898 2.0679851 17
3.5270078 2.164465 0.068029657 4
3.433701 2.246417 0.19701609 5
3.5398288 1.7827191 0.38205335 6
3.4848492 2.2004673 0.39902377 6
3.4855096 2.1160305 0.58152997 7.5
3.4445899 2.2864468 0.76201373 9
3.4166334 1.0332321 0.92106318 11
3.5422506 2.0246196 0.96504021 10
3.4306157 2.2484958 1.1130159 11
3.4246199 1.3860201 1.3850611 14
3.5398872 1.7328112 1.264056 13
3.4685819 2.2864943 1.2660158 12
3.5077987 2.1975646 1.493026 14
3.447582 2.2555406 1.6420163 15
