# .PCD v0.7 - Point Cloud Data file format
VERSION 0.7
FIELDS x y z intensity
SIZE 4 4 4 4
TYPE F F F F
COUNT 1 1 1 1
WIDTH 1159
HEIGHT 1
VIEWPOINT 0 0 0 1 0 0 0
POINTS 1159
DATA ascii
1.2423218 -2.8125033 -0.16899022 0
1.335544 -2.8769913 -0.15901542 0
1.230865 -2.7316647 -0.16427918 0
1.30074 -2.7999854 -0.16019236 0
1.928 -2.7119999 -0.19 0
1.1837711 -2.6700525 -0.16561769 0
1.2436699 -2.641248 -0.16224641 0
1.8576708 -2.6100521 -0.18601073 0
1.9471898 -2.6442795 -0.17044353 0
1.1525322 -2.549675 -0.16471405 0
1.266196 -2.5234978 -0.16161269 0
1.3044975 -2.5950613 -0.16100794 0
1.8069619 -2.5365458 -0.18313439 0
1.9490891 -2.5575078 -0.15249795 0
0.94400001 -2.451 -0.168 0
1.0772432 -2.4316859 -0.16543531 0
1.1497735 -2.4521334 -0.16453916 0
1.228397 -2.4528732 -0.16220953 0
1.756253 -2.4630392 -0.18025805 0
1.8656757 -2.4501815 -0.15362325 0
1.9201114 -2.44488 -0.13574272 0
0.62199998 -2.3310001 -0.177 0
0.91050726 -2.368259 -0.15581182 0
1.041734 -2.3522303 -0.16537452 0
1.1539575 -2.3507001 -0.16308874 0
1.6548353 -2.316026 -0.17450537 0
1.7439033 -2.366194 -0.16606513 0
1.8488646 -2.3515644 -0.13887595 0
0.59900832 -2.2439604 -0.1645918 0
0.86026818 -2.2441478 -0.13752955 0
1.0459346 -2.2713013 -0.16422924 0
1.115 -2.2409999 -0.164 0
1.6041266 -2.2425196 -0.17162903 0
1.7537695 -2.2536156 -0.14680739 0
0.57601666 -2.1569204 -0.15218362 0
0.81002909 -2.1200364 -0.11924727 0
0.95702291 -2.1421852 -0.16568694 0
1.0222344 -2.1527889 -0.16375071 0
1.5534177 -2.169013 -0.16875269 0
1.6574236 -2.1553116 -0.15309854 0
0.55302507 -2.0698807 -0.13977543 0
0.77653635 -2.0372953 -0.10705909 0
0.93332279 -2.0236731 -0.16520841 0
1.452 -2.0220001 -0.163 0
1.5312679 -2.0760794 -0.16181287 0
1.6314323 -2.0667822 -0.14843798 0
1.9541757 -2.0269055 -0.1406173 0
0.53003341 -1.9828408 -0.12736724 0
0.865578 -1.9349101 -0.16662484 0
0.92599308 -1.9473506 -0.16444476 0
1.4486089 -1.9135507 -0.1592498 0
1.5346695 -1.9683596 -0.15418236 0
1.786687 -1.9270788 -0.11712493 0
1.8610263 -1.9674147 -0.12550005 0
1.9251744 -1.9379705 -0.12840794 0
0.4840501 -1.8087611 -0.10255086 0
0.50704175 -1.8958011 -0.11495905 0
0.85824823 -1.8585876 -0.16586119 0
1.393 -1.842 -0.16 0
1.4683582 -1.8531955 -0.1556095 0
1.6668435 -1.8055394 -0.13606247 0
1.7559005 -1.8324531 -0.13315114 0
1.8375126 -1.8700022 -0.13515978 0
0.4925653 -1.729838 -0.10056816 0
0.514 -1.7970001 -0.112 0
0.84899998 -1.783 -0.16500001 0
1.414 -1.7819999 -0.15800001 0
1.6498219 -1.7531301 -0.1476016 0
1.7472197 -1.7568089 -0.14000528 0
1.8819226 -1.7344835 -0.11054937 0
1.1968738 -1.6225274 -0.16279767 0
1.2430825 -1.6863515 -0.16203178 0
1.5723133 -1.6473204 -0.1496868 0
1.6562729 -1.6527025 -0.13496996 0
1.7440798 -1.6548401 -0.1156473 0
1.8392655 -1.6445738 -0.11095881 0
0.29300001 -1.5470001 -0.111 0
0.34633335 -1.5496668 -0.10866667 0
1.1304369 -1.5307636 -0.16389884 0
1.5375719 -1.5487064 -0.14809065 0
1.6398979 -1.5619007 -0.12275272 0
1.73692 -1.5304203 -0.12021895 0
1.8409996 -1.5473213 -0.10799131 0
0.27698305 -1.4622437 -0.10272458 0
0.33221167 -1.4623587 -0.10220587 0
1.0525351 -1.4495864 -0.16241388 0
1.1158301 -1.4471695 -0.1629371 0
1.2966974 -1.4506494 -0.1608219 0
1.3302643 -1.4357013 -0.16164564 0
1.4672456 -1.4549432 -0.14635326 0
1.5545579 -1.467073 -0.13305268 0
1.644485 -1.4500422 -0.13113134 0
1.7434993 -1.4660355 -0.12015218 0
1.8320363 -1.4437313 -0.13730466 0
1.0604094 -1.3286449 -0.15624826 0
1.1559243 -1.3551624 -0.15945548 0
1.2593395 -1.343749 -0.15353537 0
1.3567457 -1.3374834 -0.16031146 0
1.4416053 -1.3660498 -0.14976372 0
1.5410969 -1.3389289 -0.14793967 0
1.646281 -1.3503001 -0.14621229 0
1.7479424 -1.3768258 -0.14264414 0
1.0414318 -1.2358974 -0.15048335 0
1.1588157 -1.238236 -0.15062308 0
1.2344711 -1.2425194 -0.15954822 0
1.3405292 -1.2420313 -0.15855412 0
1.4550639 -1.2589141 -0.15385176 0
1.5407979 -1.2363546 -0.14243658 0
1.6284012 -1.2556907 -0.12856403 0
1.7599922 -1.2552043 -0.12633385 0
-1.456 -1.1339999 -0.17399999 0
0.94387132 -1.150054 -0.1333136 0
1.0655688 -1.1365644 -0.10635008 0
1.1483582 -1.1424667 -0.15865995 0
1.2418417 -1.1334773 -0.15800001 0
1.3395454 -1.1631263 -0.15878902 0
1.4350659 -1.1593422 -0.15716049 0
1.554938 -1.1705425 -0.14313096 0
1.6487838 -1.1564326 -0.13679175 0
1.7329017 -1.1519401 -0.15736499 0
1.8205922 -1.1587527 -0.17703208 0
-1.3563627 -1.0542901 -0.1534498 0
-0.84500003 -1.024 -0.125 0
0.86424047 -1.0484037 -0.11656272 0
0.90670985 -1.0676794 -0.12861627 0
1.1609999 -1.041 -0.15866667 0
1.2446508 -1.0581141 -0.15876468 0
1.3435125 -1.0355895 -0.15859754 0
1.4244167 -1.0628421 -0.15926647 0
1.5477742 -1.065231 -0.15552579 0
1.6496507 -1.0425954 -0.16797246 0
1.7656193 -1.0356865 -0.16223326 0
1.8395 -1.0550001 -0.164 0
-1.582 -0.90799999 -0.124 0
-1.2567254 -0.97458029 -0.13289961 0
-1.1903006 -0.92144042 -0.11919948 0
-0.79431158 -0.96407688 -0.1124818 0
0.77343416 -0.94048101 -0.10698912 0
1.189 -0.94300002 -0.15800001 0
1.2599163 -0.94714361 -0.15822639 0
1.3492446 -0.94169468 -0.15832852 0
1.4443662 -0.96714288 -0.16172011 0
1.5346804 -0.95100129 -0.16292891 0
1.6540389 -0.95405418 -0.16110311 0
1.7472955 -0.94112748 -0.16006655 0
1.8459202 -0.94948173 -0.16263784 0
1.9689904 -0.96912545 -0.17082635 0
-1.5101269 -0.86643285 -0.11571969 0
-1.4382539 -0.8248657 -0.10743938 0
-1.1238756 -0.86830056 -0.10549936 0
1.1975 -0.8495 -0.15650001 0
1.2493234 -0.8414197 -0.15810436 0
1.3518757 -0.8553524 -0.15994366 0
1.4661208 -0.86176115 -0.15815425 0
1.5523423 -0.85124111 -0.15893689 0
1.643206 -0.85365486 -0.15899494 0
1.7347634 -0.83912063 -0.16341329 0
1.8216492 -0.87598276 -0.16432144 0
-1.563 -0.75700003 -0.12 0
-1.4966992 -0.72435963 -0.11056489 0
1.25875 -0.75275004 -0.156 0
1.3537358 -0.74459058 -0.15578054 0
1.4521801 -0.76520646 -0.15713586 0
1.5499736 -0.75847495 -0.15818669 0
1.6649795 -0.75626552 -0.15867668 0
1.7516518 -0.74046654 -0.16036789 0
1.8337116 -0.78541166 -0.1596349 0
-1.4303985 -0.69171929 -0.10112979 0
-1.2276925 -0.65300667 -0.10345203 0
-1.1581284 -0.61800444 -0.10763469 0
1.26175 -0.63625002 -0.154 0
1.345627 -0.66956002 -0.15600127 0
1.4612212 -0.64196908 -0.15665174 0
1.5777501 -0.64580196 -0.15626095 0
1.6601663 -0.63822931 -0.15759231 0
1.7495642 -0.64515388 -0.15662703 0
1.8262022 -0.64675868 -0.16015431 0
-2.3453574 -0.58549476 -0.1650634 0
-2.2587862 -0.56149209 -0.1723451 0
-2.147893 -0.53074604 -0.18167254 0
-1.7817547 -0.57576066 -0.10058239 0
-1.6494188 -0.53128833 -0.13253845 0
-1.5712751 -0.50475132 -0.16727443 0
-1.0537821 -0.56550109 -0.11390867 0
1.26 -0.55299997 -0.156 0
1.3402463 -0.55006939 -0.15550907 0
1.4217135 -0.54598683 -0.155992 0
1.5491935 -0.53923589 -0.15675355 0
1.6716031 -0.53355497 -0.14852609 0
1.7521152 -0.55883247 -0.14729716 0
1.8245866 -0.52769226 -0.14920071 0
-2.0369999 -0.5 -0.191 0
-1.9538431 -0.47570378 -0.10817212 0
-1.8304818 -0.44411644 -0.12652692 0
-1.7482409 -0.42305824 -0.13876346 0
-1.666 -0.40200001 -0.15099999 0
-1.512526 -0.48580348 -0.13579091 0
-1.430859 -0.44793537 -0.12211325 0
-1.3550335 -0.43366846 -0.12836592 0
1.2683333 -0.45200002 -0.15533333 0
1.3485509 -0.44486231 -0.15411146 0
1.4452 -0.4476108 -0.15299641 0
1.5406884 -0.45637122 -0.14887966 0
1.6536304 -0.44414306 -0.15502875 0
1.7530104 -0.46798503 -0.15561865 0
1.8342432 -0.43189988 -0.15693101 0
1.2646667 -0.35066667 -0.154 0
1.3594214 -0.33981544 -0.15403259 0
1.4416027 -0.36055851 -0.15449986 0
1.5507692 -0.36723664 -0.15461934 0
1.6447794 -0.34815246 -0.16260518 0
1.7413228 -0.36614791 -0.15764035 0
1.8275923 -0.33555743 -0.15642877 0
1.291 -0.285 -0.156 0
1.3305999 -0.24785939 -0.15157679 0
1.4590776 -0.24662971 -0.15383428 0
1.5597467 -0.2604059 -0.15447593 0
1.6412113 -0.25697497 -0.15463306 0
1.7488619 -0.25154153 -0.15277836 0
1.8369999 -0.25099999 -0.1525 0
-2.8280001 -0.186 -0.167 0
-2.7525349 -0.18502939 -0.16069101 0
-2.6393371 -0.18357345 -0.15122753 0
-2.5215697 -0.18205878 -0.14138204 0
1.2869999 -0.126 -0.156 0
1.3710537 -0.13511613 -0.15538196 0
1.4715538 -0.16511613 -0.15438196 0
1.5521235 -0.17436638 -0.1538495 0
1.6394153 -0.13871081 -0.16498326 0
1.7537918 -0.14004132 -0.15890011 0
1.8226976 -0.16266792 -0.16008855 0
1.262 -0.036499999 -0.15450001 0
1.3520342 -0.040418487 -0.15313782 0
1.4571025 -0.043005452 -0.15341344 0
1.5421538 -0.045383178 -0.1533702 0
1.6474451 -0.062340733 -0.15930541 0
1.7513533 -0.052803982 -0.1543805 0
1.8126665 -0.054999996 -0.152 0
1.299 0.057999998 -0.153 0
1.3618926 0.060224041 -0.15305382 0
1.4711776 0.066172123 -0.15316144 0
1.5493442 0.057672128 -0.15749478 0
1.6374903 0.042530291 -0.15541624 0
1.7399632 0.038973447 -0.15131697 0
1.8218937 0.059670776 -0.15186217 0
1.9743558 0.0071927477 -0.14410543 0
2.0640254 0.0088418415 -0.14286862 0
2.1270001 0.0099999988 -0.142 0
1.2800001 0.16033334 -0.152 0
1.3484573 0.14209516 -0.15206915 0
1.447553 0.15692043 -0.15251775 0
1.5475402 0.14503057 -0.15324232 0
1.6305535 0.15337409 -0.15348977 0
1.7545949 0.16584982 -0.15385997 0
1.808 0.184 -0.154 0
1.3805019 0.20088646 -0.15332673 0
1.480206 0.21092686 -0.15299934 0
1.5633583 0.2227169 -0.15355361 0
1.6465106 0.23450692 -0.15410784 0
1.7585843 0.25072816 -0.15482116 0
1.803 0.27200001 -0.155 0
1.255 0.36650002 -0.154 0
1.3378222 0.35971296 -0.15321609 0
1.4146444 0.38342592 -0.1524322 0
1.575 0.36899999 -0.152 0
1.6334931 0.35793582 -0.14824012 0
1.7266024 0.36535406 -0.14275618 0
1.8273349 0.33493888 -0.16144173 0
1.941335 0.3544389 -0.17594174 0
2.0439999 0.37200001 -0.189 0
-2.619 0.48800001 -0.115 0
-2.5322659 0.47288728 -0.10163946 0
1.221 0.49399999 -0.153 0
1.3328083 0.44425446 -0.1521565 0
1.4539775 0.44172487 -0.15096678 0
1.552539 0.45842543 -0.15089484 0
1.6450845 0.44182584 -0.15028563 0
1.7629719 0.4458178 -0.14115252 0
1.8558099 0.44921833 -0.13096601 0
1.9382392 0.43567786 -0.10181411 0
2.0627518 0.45382965 -0.10096304 0
2.1411679 0.47255307 -0.11264203 0
2.219584 0.49127653 -0.12432102 0
-1.1437832 0.57452077 -0.12526804 0
-1.0377804 0.53684855 -0.11531238 0
-1 0.54100001 -0.102 0
-0.89099997 0.56699997 -0.111 0
1.171 0.53299999 -0.153 0
1.2671394 0.54602492 -0.15179956 0
1.3639231 0.55235964 -0.15121774 0
1.4356809 0.56407046 -0.14933541 0
1.5588882 0.54560441 -0.14886367 0
1.6747316 0.54323453 -0.14750688 0
1.7597145 0.57025337 -0.14680493 0
1.8360144 0.55679321 -0.14669143 0
1.942546 0.5415597 -0.14674091 0
2.0538173 0.54730403 -0.14617093 0
2.1590006 0.5718357 -0.14495224 0
2.2904582 0.55437446 -0.13968754 0
-1.518 0.68800002 -0.17900001 0
-1.4061569 0.66881222 -0.17323159 0
-1.3452095 0.65036082 -0.16554606 0
-1.2684247 0.6588183 -0.14220995 0
-1.1427851 0.64470983 -0.12467278 0
-1.0427589 0.66930407 -0.11052755 0
1.151 0.65200001 -0.1525 0
1.2302673 0.65916532 -0.15159583 0
1.3353513 0.6420024 -0.15050416 0
1.4559554 0.64877188 -0.15016344 0
1.5447922 0.6359514 -0.14943267 0
1.6410273 0.66203445 -0.14842872 0
1.7228286 0.68455732 -0.14749515 0
1.8519496 0.62273747 -0.14651428 0
1.9378865 0.61964476 -0.14523754 0
2.0400796 0.66018653 -0.14460018 0
2.1460383 0.66719776 -0.14391616 0
2.2581551 0.61205214 -0.14397857 0
2.3571835 0.62845773 -0.14270207 0
2.4482212 0.65534323 -0.14181823 0
2.5491507 0.67221373 -0.14003573 0
2.6378181 0.69552726 -0.13013092 0
-1.824 0.78600001 -0.177 0
-1.7587616 0.7764163 -0.1809127 0
-1.654057 0.76024336 -0.1712842 0
-1.5594418 0.7455098 -0.15279284 0
-1.4463419 0.72080946 -0.15842579 0
-1.3311138 0.72318184 -0.15464571 0
-1.2419645 0.75588191 -0.14257041 0
-1.1659534 0.78890657 -0.13574857 0
-1.0952712 0.74087542 -0.12333143 0
1.085 0.75166661 -0.153 0
1.1474967 0.75330889 -0.15255135 0
1.2480415 0.74655563 -0.15136711 0
1.358181 0.75190091 -0.14983661 0
1.4568566 0.7573871 -0.14979444 0
1.533815 0.73310447 -0.14931746 0
1.6574986 0.76314914 -0.14871089 0
1.7619721 0.74515837 -0.14744873 0
1.8499885 0.75221068 -0.14712721 0
1.9530587 0.77104068 -0.14667006 0
2.1614521 0.72007936 -0.14431375 0
2.2719848 0.73722476 -0.14338869 0
2.3683193 0.73557854 -0.14339243 0
2.4338229 0.74737936 -0.14268763 0
2.5172303 0.7734828 -0.13928473 0
2.6283813 0.77189666 -0.12470837 0
2.7193542 0.75669974 -0.11791219 0
2.8523636 0.75184536 -0.10545821 0
-2.0116239 0.87853527 -0.17873214 0
-1.9542328 0.86867601 -0.15952857 0
-1.8459669 0.84321243 -0.17257598 0
-1.7481606 0.84132618 -0.15525597 0
-1.6714052 0.8191517 -0.13810179 0
-1.4505 0.83500004 -0.17649999 0
-1.3289518 0.85346079 -0.16130552 0
-1.2366357 0.83693773 -0.14816572 0
-0.57168692 0.87880325 -0.1056376 0
0.97033334 0.84566665 -0.15466666 0
1.0601561 0.84243411 -0.15314744 0
1.157348 0.83033782 -0.15218893 0
1.238755 0.85968006 -0.15126124 0
1.3604486 0.85354012 -0.15054961 0
1.441918 0.84052396 -0.14924243 0
1.5513833 0.84455186 -0.14906254 0
1.6480936 0.85857892 -0.14830652 0
1.7526293 0.84836471 -0.14730257 0
1.8585441 0.84493667 -0.14668751 0
1.9507521 0.86048192 -0.14598151 0
2.0578301 0.83054 -0.14557226 0
2.1411908 0.86424112 -0.14500098 0
2.2248144 0.88272929 -0.1444806 0
2.362998 0.81727618 -0.14366323 0
2.4427159 0.84074688 -0.14137819 0
2.5547357 0.8449527 -0.12811533 0
2.6566141 0.86391306 -0.11544993 0
2.7605171 0.86648023 -0.11354122 0
2.8237262 0.85605013 -0.10523584 0
-2.1559999 0.93800002 -0.17900001 0
-2.0905485 0.91104233 -0.17887858 0
-1.9587517 0.93049926 -0.14328425 0
-1.851263 0.90987921 -0.16350447 0
-1.378 0.93300003 -0.17299999 0
-0.6283769 0.94421774 -0.11426795 0
-0.56644785 0.96928251 -0.11140946 0
-0.48587817 0.93250805 -0.10232463 0
0.50090456 0.98214519 -0.11179405 0
0.88499999 0.98100001 -0.155 0
0.95100403 0.93544108 -0.15328695 0
1.0546175 0.9418934 -0.15295447 0
1.153262 0.92664456 -0.15194166 0
1.2467976 0.95742863 -0.150877 0
1.3602519 0.94756168 -0.15033321 0
1.4558972 0.94465673 -0.15061828 0
1.5599809 0.96168309 -0.14887212 0
1.6565698 0.93267536 -0.14787932 0
1.7616384 0.95732713 -0.14653727 0
1.8373394 0.93638849 -0.14681277 0
1.9327285 0.95636755 -0.14544882 0
2.0425415 0.94407445 -0.14459498 0
2.1489515 0.97284144 -0.1448227 0
2.2556415 0.92275226 -0.14335331 0
2.3411195 0.95319843 -0.14354908 0
2.4394109 0.94596946 -0.14260417 0
2.5580866 0.94831318 -0.12603769 0
2.6661143 0.96001899 -0.11322568 0
2.7099462 0.91566426 -0.10178469 0
-0.7393769 1.0897177 -0.14126796 0
-0.64464706 1.0287595 -0.11992223 0
-0.5165 1.02 -0.1125 0
0.56102562 1.0483074 -0.1161707 0
0.84182853 1.0532129 -0.15350001 0
0.94337797 1.049713 -0.15478233 0
1.0431813 1.0527573 -0.15291725 0
1.1414649 1.0410804 -0.15171623 0
1.2535121 1.0547235 -0.15009663 0
1.3307098 1.0553067 -0.15155762 0
1.4464866 1.047634 -0.14931557 0
1.5415765 1.0371722 -0.1494558 0
1.635726 1.0365937 -0.14828952 0
1.7414619 1.056198 -0.14770131 0
1.843117 1.0388378 -0.14719702 0
1.9446855 1.0461104 -0.14462972 0
2.0494931 1.0539893 -0.14387204 0
2.1447654 1.0632209 -0.14263797 0
2.269345 1.0452064 -0.14314236 0
2.5955489 1.0171617 -0.11795768 0
2.6793232 1.0487427 -0.10443652 0
2.7442431 1.0171584 -0.10932232 0
2.8295538 1.046948 -0.1006529 0
-0.75958121 1.17375 -0.15479435 0
-0.67570966 1.1361499 -0.12930346 0
-0.51740468 1.1860622 -0.11660923 0
-0.44764495 1.1537238 -0.11101735 0
-0.36599091 1.1328688 -0.10804424 0
-0.29074007 1.1892571 -0.10577355 0
-0.089534894 1.1893334 -0.10380895 0
0.5799523 1.1395726 -0.13539702 0
0.66483432 1.1545686 -0.12019944 0
0.76563692 1.1450113 -0.13658887 0
0.82824707 1.1573802 -0.14581493 0
0.93191558 1.1512522 -0.15339266 0
1.0376338 1.1555363 -0.15318713 0
1.1539108 1.1646273 -0.15162781 0
1.2436531 1.1418945 -0.15138625 0
1.3436216 1.1566901 -0.15042469 0
1.4534498 1.151594 -0.14942633 0
1.5636513 1.1501042 -0.14821698 0
1.6538727 1.1512171 -0.14733215 0
1.7675326 1.1419729 -0.14837508 0
1.8481156 1.1407343 -0.14626005 0
1.9631765 1.1551542 -0.14504315 0
2.05141 1.1415231 -0.14365008 0
2.1600528 1.1641113 -0.14238887 0
2.2205434 1.1379625 -0.14178272 0
-0.83600003 1.235 -0.17 0
-0.75786352 1.2621945 -0.15450016 0
-0.55212379 1.2672498 -0.13068739 0
-0.45959347 1.2591114 -0.12832037 0
-0.36198658 1.2450728 -0.11752576 0
-0.2536256 1.2508749 -0.1103856 0
-0.14208575 1.231391 -0.10399482 0
-0.079181023 1.2840443 -0.10998938 0
0.65915871 1.2467622 -0.15406616 0
0.75112063 1.2538117 -0.14923385 0
0.8491022 1.2421943 -0.14586431 0
0.95573044 1.2504076 -0.15240201 0
1.0692124 1.266041 -0.15222196 0
1.141768 1.2396257 -0.15180872 0
1.2451199 1.252718 -0.15047294 0
1.3552824 1.2509072 -0.15006521 0
1.4647007 1.2589806 -0.14930902 0
1.5446811 1.2361834 -0.14843997 0
1.6478466 1.2449969 -0.14748922 0
1.7477642 1.2560438 -0.14662732 0
1.8413962 1.2381833 -0.14570069 0
1.9371364 1.2506485 -0.1458834 0
2.0322702 1.2440487 -0.14421819 0
2.1487663 1.2549312 -0.14306758 0
2.204 1.251 -0.14300001 0
-0.78415132 1.3432593 -0.15233353 0
-0.54520643 1.3373799 -0.14224216 0
-0.44039217 1.3588969 -0.14103326 0
-0.37421763 1.3367532 -0.1290793 0
-0.27924925 1.3513449 -0.12471646 0
-0.13817573 1.3410823 -0.11832236 0
-0.067489423 1.3772812 -0.11848775 0
0.14577815 1.3234425 -0.10578077 0
0.76460117 1.3488684 -0.15011646 0
0.84598809 1.3490375 -0.15379156 0
0.94584316 1.3572125 -0.15031308 0
1.0391233 1.3252308 -0.15246649 0
1.1562396 1.3481061 -0.15258603 0
1.262514 1.3501192 -0.15174747 0
1.3593509 1.3461778 -0.15073448 0
1.4535279 1.3458817 -0.15008603 0
1.5560838 1.3431777 -0.14843892 0
1.6490569 1.339465 -0.14745115 0
1.7491801 1.3526062 -0.14641884 0
1.8541863 1.3649096 -0.14550628 0
1.9638458 1.3428929 -0.14467774 0
2.0742989 1.3512654 -0.14398217 0
2.145653 1.3508303 -0.14388059 0
-0.85228783 1.4600649 -0.16933338 0
-0.62156188 1.4296249 -0.1588437 0
-0.53368741 1.4436914 -0.15896009 0
-0.44697699 1.4545268 -0.15121339 0
-0.34240174 1.4519151 -0.12598993 0
-0.2814855 1.4584999 -0.12457282 0
-0.15692714 1.4480695 -0.1313878 0
-0.072244711 1.4631406 -0.13024387 0
0.15549999 1.4115 -0.115 0
0.46236384 1.4441159 -0.10595252 0
0.53100002 1.494 -0.107 0
0.64988083 1.4575354 -0.12181839 0
0.78303021 1.4589643 -0.15567753 0
0.85855305 1.4515315 -0.15462843 0
0.94025457 1.445886 -0.15499526 0
1.0939178 1.425463 -0.15173712 0
1.1576965 1.4548383 -0.15213981 0
1.2503418 1.4526018 -0.15134339 0
1.3442141 1.4390259 -0.15068731 0
1.4364792 1.443872 -0.14889181 0
1.5524435 1.4543912 -0.14932342 0
1.6561573 1.4419087 -0.14774793 0
1.7448077 1.4491982 -0.14676219 0
1.8389498 1.4668878 -0.14603505 0
1.9409525 1.4459026 -0.14404151 0
2.0420549 1.4493785 -0.14463356 0
2.1377635 1.4454718 -0.14130569 0
2.21 1.4579999 -0.139 0
-0.67364049 1.5514061 -0.17996094 0
-0.51750004 1.531 -0.16749999 0
-0.45032668 1.5561091 -0.15620431 0
-0.34686002 1.5513619 -0.14430816 0
-0.29750001 1.5409999 -0.1365 0
-0.16686919 1.5547333 -0.14339414 0
-0.077 1.549 -0.142 0
0.66362727 1.5177546 -0.13822882 0
0.72567958 1.5679336 -0.15555105 0
0.81699997 1.516 -0.154 0
1.1711187 1.5564396 -0.15225253 0
1.2409066 1.5548327 -0.15051632 0
1.3496919 1.5360895 -0.15045866 0
1.4498838 1.5528146 -0.1497875 0
1.5466143 1.5430453 -0.14890195 0
1.6566746 1.5553389 -0.14846487 0
1.7508912 1.5408652 -0.14709735 0
1.8585212 1.5618429 -0.145805 0
1.9501715 1.5447139 -0.1446244 0
2.0457935 1.555142 -0.14365496 0
2.1496665 1.526 -0.14299999 0
-0.45499998 1.6465001 -0.1045 0
-0.39429 1.6165428 -0.16096227 0
-0.20200001 1.6799999 -0.156 0
-0.12 1.626 -0.15099999 0
0.78960454 1.665858 -0.15864444 0
1.24286 1.6468611 -0.15013401 0
1.3481984 1.6431835 -0.14971572 0
1.4438055 1.6653996 -0.15045068 0
1.5511827 1.6409993 -0.14850876 0
1.6386845 1.6619689 -0.14867947 0
1.7427273 1.646975 -0.14774679 0
1.8466406 1.6630731 -0.14689444 0
1.9562044 1.643472 -0.1447778 0
2.0356667 1.6826668 -0.14366667 0
2.1129999 1.615 -0.14300001 0
-0.41499999 1.702 -0.17200001 0
1.2585852 1.7383336 -0.15000001 0
1.3548547 1.7351097 -0.14944109 0
1.4452956 1.7682774 -0.14988568 0
1.5397391 1.732795 -0.14939165 0
1.6300195 1.7644157 -0.1476125 0
1.7523495 1.7449688 -0.14740881 0
1.8707985 1.7667792 -0.1469892 0
1.9540854 1.7209395 -0.14478636 0
2.0678234 1.7578551 -0.13346937 0
1.3456626 1.8318223 -0.15016948 0
1.4574527 1.8608789 -0.14826648 0
1.5592017 1.8363034 -0.15012299 0
1.6583223 1.8657504 -0.14877053 0
1.7608331 1.8548601 -0.14699538 0
1.8599517 1.8228366 -0.146017 0
1.9449294 1.84496 -0.1393016 0
2.0521619 1.8636051 -0.12524188 0
2.1533594 1.836171 -0.11760093 0
2.2241571 1.8700371 -0.11189093 0
1.4446138 1.9495263 -0.14975591 0
1.5651951 1.973994 -0.14707182 0
1.653493 1.943436 -0.14804316 0
1.7403876 1.9525455 -0.1471463 0
1.8497005 1.9115882 -0.13452351 0
1.9370508 1.9629121 -0.11977132 0
2.0470123 1.9323796 -0.12148437 0
2.15925 1.9691689 -0.10708593 0
2.2925427 1.9283828 -0.10118791 0
1.4649259 2.0236678 -0.15000001 0
1.5448408 2.0671058 -0.14917623 0
1.6548021 2.0582008 -0.14586538 0
1.7494035 2.0413628 -0.12503302 0
1.8513732 2.0503087 -0.12178947 0
1.965101 2.0387645 -0.10757051 0
2.0513816 2.0079112 -0.10650395 0
2.1395679 2.0211051 -0.10635463 0
1.5680963 2.1663351 -0.15000001 0
1.653559 2.1544166 -0.14316061 0
1.8288071 2.1417258 -0.10306603 0
1.9085598 2.111963 -0.10868421 0
1.6502765 2.2437155 -0.14563724 0
1.7580624 2.2580657 -0.11900426 0
1.7914444 2.3674331 -0.11473511 0
1.847779 2.3411727 -0.10256384 0
1.8405925 2.4359109 -0.10364681 0
1.968726 -2.1116939 -0.088359311 0
1.9065305 -2.0486183 -0.098187402 0
0.74304366 -1.9545546 -0.094870903 0
0.70955092 -1.8718135 -0.082682721 0
1.8806839 -1.81497 -0.07764703 0
1.906 -1.86 -0.086000003 0
0.46105847 -1.7217214 -0.090142667 0
0.65931177 -1.7477022 -0.064400449 0
1.8324804 -1.7629548 -0.081782959 0
0.45459872 -1.6486788 -0.083435401 0
0.60753632 -1.6197956 -0.045559086 0
1.7500978 -1.6760669 -0.090386629 0
1.873 -1.625 -0.064999998 0
1.9189892 -1.6647534 -0.055646263 0
0.25099999 -1.5549999 -0.093999997 0
0.44069278 -1.5580388 -0.064007692 0
-0.32755506 -1.4465615 -0.08649005 0
0.2419762 -1.4646981 -0.090402894 0
0.33884826 -1.4467521 -0.074836724 0
0.4413349 -1.4780195 -0.0369852 0
-0.27663794 -1.3382467 -0.047324419 0
-0.105 -1.322 -0.029999999 0
-0.056266867 -1.3463099 -0.022495095 0
0.056131948 -1.3425486 -0.018983889 0
0.15249962 -1.3315431 -0.022620231 0
0.2442264 -1.3537444 -0.042926326 0
0.32409626 -1.3584255 -0.054495335 0
1.7471716 -1.3147548 -0.086163342 0
1.836381 -1.3608619 -0.079249263 0
-0.22339161 -1.2476677 -0.035450783 0
-0.12083265 -1.2607615 -0.017623063 0
-0.061271649 -1.2485182 -0.026728658 0
0.052169554 -1.2540177 -0.01694639 0
0.15635566 -1.2325548 -0.02514891 0
0.24411756 -1.2490585 -0.045996349 0
1.7735848 -1.2353673 -0.098906651 0
1.8407509 -1.2838204 -0.087043986 0
-0.322 -1.122 -0.027000001 0
-0.24909718 -1.1512589 -0.032425512 0
-0.16585855 -1.1639467 -0.019161843 0
-0.062139362 -1.1407655 -0.0212371 0
0.037386786 -1.152388 -0.018871574 0
0.16077773 -1.1386184 -0.027976684 0
0.24136296 -1.1479236 -0.040505894 0
-0.32340613 -1.0779923 -0.012396674 0
-0.24265258 -1.0491444 -0.026491007 0
-0.16543804 -1.0465155 -0.029853409 0
-0.04880818 -1.0384157 -0.024143904 0
0.05391733 -1.0642198 -0.029291874 0
0.15442444 -1.0438555 -0.031406328 0
0.22817086 -1.0642105 -0.042064089 0
0.84014165 -1.0286726 -0.097723864 0
0.97309172 -1.0380858 -0.0878001 0
-0.73281157 -0.90357685 -0.055981804 0
-0.32273421 -0.9647665 -0.028031843 0
-0.24993418 -0.95725083 -0.026908288 0
-0.1474642 -0.95390117 -0.025479753 0
-0.044858281 -0.93957764 -0.030899638 0
0.047464035 -0.95189071 -0.03121064 0
0.15817828 -0.94764727 -0.036758251 0
0.2193138 -0.95533305 -0.049391266 0
0.78436995 -0.95960712 -0.085468635 0
0.84978896 -0.90678114 -0.063066803 0
0.91144037 -0.97243345 -0.075433448 0
-2.2413502 -0.84145993 -0.010372482 0
-2.1641786 -0.82975298 -0.027213417 0
-2.0808973 -0.81869769 -0.037786685 0
-1.199 -0.824 -0.083999999 0
-1.0574508 -0.81516063 -0.091799237 0
-0.71180856 -0.89000225 -0.012812358 0
-0.66338015 -0.85863286 -0.057551216 0
-0.58840334 -0.84159487 -0.060629979 0
-0.41257212 -0.87432486 -0.042804576 0
-0.36390138 -0.83132827 -0.052834403 0
-0.2535221 -0.85729373 -0.036499076 0
-0.16294412 -0.85170257 -0.030059334 0
-0.039084785 -0.84827244 -0.035520155 0
0.058464129 -0.85061073 -0.031900663 0
0.12489823 -0.85612804 -0.03274266 0
0.67758018 -0.82093483 -0.080149673 0
0.7510519 -0.86634308 -0.074048705 0
-2.4200001 -0.71499997 -0.013000004 0
-2.3998053 -0.70887965 -0.014673352 0
-2.2363772 -0.74338031 -0.037291199 0
-2.1580687 -0.74629045 -0.01212172 0
-2.0778599 -0.75714463 -0.027999125 0
-1.9526479 -0.74639618 -0.042855747 0
-1.8423156 -0.72941464 -0.023167811 0
-1.7397878 -0.72464144 -0.0017341198 0
-1.6588687 -0.73220819 -0.0077084112 0
-1.4213905 -0.73694205 -0.0042804331 0
-1.3357935 -0.74276614 -0.071719691 0
-1.2690184 -0.72345239 -0.065203078 0
-1.1284503 -0.77569568 -0.071288332 0
-1.0880001 -0.74800003 -0.064000003 0
-0.983513 -0.75601041 -0.07654956 0
-0.63442457 -0.7828207 -0.047265671 0
-0.54796493 -0.74607325 -0.034478463 0
-0.34968138 -0.77324611 -0.048781447 0
-0.26636153 -0.75200111 -0.050865103 0
-0.153 -0.7845 -0.034000002 0
-0.048999999 -0.77683336 -0.037666667 0
0.076750003 -0.78274995 -0.03475 0
0.12014294 -0.76739144 -0.038063031 0
0.38300845 -0.71021938 -0.020603376 0
0.583 -0.70566672 -0.061999995 0
0.6324178 -0.74208933 -0.058530264 0
0.72648621 -0.7754764 -0.038333505 0
-2.3586016 -0.68018121 -0.0081976326 0
-2.2420368 -0.64654112 -0.019305607 0
-2.1249852 -0.64657664 -0.037902817 0
-2.0314429 -0.65421683 -0.039731301 0
-1.9341787 -0.64899153 -0.043523628 0
-1.8401804 -0.64887458 -0.05632909 0
-1.7476451 -0.65691251 -0.045469157 0
-1.6377678 -0.64963895 -0.038162962 0
-1.5588704 -0.65343016 -0.029509677 0
-1.4566611 -0.64749295 -0.034547511 0
-1.3420433 -0.64196247 -0.051994532 0
-1.2693565 -0.69386983 -0.065417692 0
-1.1639205 -0.66219902 -0.063106053 0
-2.2428432 -0.54970384 -0.065172121 0
-2.1498022 -0.55956554 -0.046112914 0
-2.0584428 -0.54690683 -0.055424999 0
-1.9510705 -0.54361427 -0.051545449 0
-1.870859 -0.5566079 -0.050821722 0
-1.7658484 -0.5376941 -0.058892559 0
-1.654994 -0.55482274 -0.063500047 0
-1.5348721 -0.55425477 -0.076283693 0
-1.4632932 -0.55038631 -0.073099352 0
-1.3743604 -0.53923649 -0.068121545 0
-1.821987 -0.48678246 -0.07091932 0
-1.7419935 -0.46489123 -0.080959655 0
-1.6480778 -0.46532065 -0.079349808 0
-1.5348083 -0.45649046 -0.086339712 0
-1.4379963 -0.46679103 -0.084681772 0
-1.347 -0.48100001 -0.083499998 0
1.874 0.28799999 -0.041999999 0
1.9174961 0.29673347 -0.04867854 0
-2.4549568 0.38092393 -0.069338799 0
-2.3463113 0.38398138 -0.047847752 0
-2.2488165 0.37949607 -0.04280014 0
-2.1641889 0.36245343 -0.032142349 0
-2.0563908 0.36928692 -0.028532689 0
-1.9493287 0.36156934 -0.023765547 0
-1.8591425 0.37347418 -0.041264892 0
-0.69099998 0.3775 -0.089000002 0
1.9876641 0.31082231 -0.059452362 0
2.057832 0.32491115 -0.070226178 0
2.128 0.33899999 -0.081 0
-2.882 0.484 -0.071999997 0
-2.7494488 0.46281677 -0.064835079 0
-2.6168981 0.44163352 -0.057670161 0
-2.5285306 0.42751136 -0.052893549 0
-2.4555888 0.44863307 -0.068146773 0
-2.3568501 0.43579966 -0.064276196 0
-2.2524781 0.45032844 -0.05046301 0
-2.14711 0.44769707 -0.049564 0
-2.0495999 0.44199622 -0.047360253 0
-1.9691426 0.42407358 -0.0064223185 0
-0.90227973 0.48309898 -0.090267763 0
-0.84319711 0.4683398 -0.089772008 0
-0.74292213 0.45718002 -0.080620103 0
-0.64961439 0.4713541 -0.077912733 0
-0.583 0.46349999 -0.074249998 0
-0.41 0.49200001 -0.059999999 0
1.875 0.40900001 -0.072999999 0
1.9553277 0.43093938 -0.081451163 0
2.0331101 0.44753712 -0.052831031 0
2.1516929 0.47643995 -0.037704311 0
-2.5633311 0.56123364 -0.061589651 0
-2.4585843 0.5533427 -0.048464738 0
-2.3422961 0.53583723 -0.054256428 0
-2.2344797 0.56071723 -0.076418504 0
-2.1389437 0.58404779 -0.063469715 0
-2.066 0.56900001 -0.064999998 0
-1.0537577 0.57867128 -0.090990707 0
-0.93323034 0.55726701 -0.082425259 0
-0.84638965 0.56790888 -0.077377439 0
-0.74087435 0.54558671 -0.064885713 0
-0.65294349 0.55484033 -0.053824976 0
-0.52624011 0.58663779 -0.048480392 0
-0.47220269 0.54061049 -0.051267628 0
0.0955 0.57300001 -0.0185 0
0.15594919 0.57040507 -0.019534597 0
0.229 0.583 -0.032250002 0
0.32774997 0.57524997 -0.018750001 0
2.2702756 0.50534278 -0.022577584 0
2.3139999 0.51599997 -0.017000001 0
-2.5663285 0.64732307 -0.059315898 0
-2.4546604 0.61902887 -0.072519869 0
-2.3225381 0.65456975 -0.051149994 0
-2.246383 0.65220129 -0.052712452 0
-2.1424294 0.63171339 -0.058933109 0
-2.0459375 0.62480927 -0.082079001 0
-1.9086399 0.68842047 -0.08961834 0
-1.825 0.65899998 -0.093000002 0
-1.3466824 0.69079393 -0.091411158 0
-1.2384031 0.66680503 -0.084989168 0
-1.1519397 0.65174139 -0.078394018 0
-1.0480196 0.64613843 -0.070893839 0
-0.96025765 0.65172416 -0.070358939 0
-0.85765433 0.65148169 -0.042158842 0
-0.75048941 0.64846677 -0.026876355 0
-0.64496344 0.64459866 -0.023604987 0
-0.55501795 0.65184557 -0.024809144 0
-0.44216532 0.64973783 -0.031387061 0
-0.35891426 0.65968263 -0.037061587 0
-0.26100001 0.64700001 -0.057999998 0
0.062498193 0.64689904 -0.031600926 0
0.15435778 0.65486205 -0.025201367 0
0.24519616 0.64551967 -0.026494812 0
0.33882895 0.65237433 -0.02838471 0
0.4281795 0.65213382 -0.031430162 0
-2.1276796 0.78263664 -0.068511128 0
-2.0369799 0.76056528 -0.06846375 0
-1.9922796 0.71784097 -0.086236671 0
-1.4586701 0.77027643 -0.074681267 0
-1.3512448 0.75631094 -0.070446827 0
-1.2509218 0.74512225 -0.065098278 0
-1.1488001 0.7458564 -0.062668942 0
-1.0488055 0.74893022 -0.045873627 0
-0.95616341 0.75365704 -0.027775547 0
-0.8543933 0.73509079 -0.010637482 0
-0.7653268 0.75256371 -0.0030426793 0
-0.63198966 0.75578719 -0.0084260441 0
-0.53381902 0.75868952 -0.053985953 0
-0.44483733 0.75457746 -0.043935642 0
-0.36162874 0.750139 -0.039229598 0
-0.28099462 0.76093411 -0.027370118 0
0.063220099 0.7510736 -0.026486674 0
0.14836784 0.75163442 -0.025405554 0
0.25361544 0.74672025 -0.028076166 0
0.35680971 0.74097353 -0.024037421 0
0.4575437 0.75178021 -0.053861305 0
0.50522226 0.74457341 -0.041343562 0
2.9810905 0.78563625 -0.090654589 0
-2.4401593 0.88746804 -0.054407414 0
-2.3498149 0.8720516 -0.044396032 0
-2.2658825 0.84708095 -0.044723731 0
-2.1736488 0.8497262 -0.058826815 0
-2.0782614 0.84778476 -0.06432645 0
-1.9806 0.84940004 -0.068200007 0
-1.563398 0.8132965 -0.074823171 0
-1.4431866 0.81507093 -0.068985067 0
-1.3434813 0.81013113 -0.047961183 0
-1.2742138 0.81647652 -0.059119873 0
-1.1424141 0.83891737 -0.034185965 0
-1.0524141 0.83184272 -0.016959811 0
-0.72667646 0.88558602 -0.013248495 0
-0.67725658 0.8342194 -0.0082152449 0
-0.54546744 0.8455736 -0.079690918 0
-0.4473711 0.8528536 -0.039482664 0
-0.34218577 0.85165572 -0.042924877 0
-0.28250059 0.84506863 -0.039581414 0
-0.063333333 0.89700001 -0.047666669 0
0.066165656 0.85289121 -0.028672896 0
0.12826855 0.83849007 -0.026810491 0
0.26453453 0.83084202 -0.038290139 0
0.34276342 0.851331 -0.026948452 0
0.43759981 0.84978145 -0.062120561 0
0.53977269 0.83304518 -0.059240218 0
0.60561728 0.89377928 -0.065933876 0
2.7547109 0.89241266 -0.096398875 0
2.8884535 0.84224164 -0.097270906 0
2.9751441 0.86568999 -0.08812508 0
3.0643716 0.84865093 -0.079882383 0
3.1527267 0.83069074 -0.070916422 0
3.2385449 0.85321802 -0.061047345 0
3.3381815 0.87937266 -0.049589131 0
-2.6088176 0.99499238 -0.051736996 0
-2.5494721 0.9541223 -0.053812113 0
-2.448878 0.93971252 -0.053233735 0
-2.3432822 0.95536047 -0.047376383 0
-2.2307146 0.93723357 -0.057368055 0
-2.1528487 0.95066452 -0.05961914 0
-2.0562377 0.92662787 -0.066545054 0
-1.154 0.91799998 -0.014 0
-1.084433 0.91464436 -0.0052285437 0
-0.78359556 0.9544825 -0.010810619 0
-0.62536931 0.92878526 -0.086421907 0
-0.51776075 0.93448782 -0.058242053 0
-0.44148892 0.94328701 -0.054264743 0
-0.33701965 0.94133306 -0.059538797 0
-0.25859201 0.95789587 -0.053766411 0
-0.14844485 0.95503926 -0.042189829 0
-0.079687819 0.9394511 -0.061479978 0
0.070289575 0.93518525 -0.060272876 0
0.12998755 0.91412407 -0.037427004 0
0.35178769 0.92472279 -0.034721602 0
0.43813691 0.94629693 -0.057957821 0
0.54886687 0.94398206 -0.08414264 0
0.63549411 0.94963497 -0.080128431 0
2.7763281 0.95305574 -0.092496201 0
2.8539865 0.96180171 -0.081579693 0
2.9402733 0.95569372 -0.076245464 0
3.013139 0.9633413 -0.073640227 0
3.124866 0.94318688 -0.072714806 0
3.2352161 0.93603492 -0.060687624 0
3.3339534 0.96274161 -0.0502709 0
-2.7735374 1.0608162 -0.060004342 0
-2.691062 1.0278584 -0.055871755 0
-2.5531237 1.0673097 -0.061522909 0
-2.4659324 1.048793 -0.048967451 0
-2.3567472 1.0310949 -0.043381564 0
-2.254632 1.0228256 -0.039249673 0
-0.86897421 1.0578272 -0.0071538039 0
-0.43044591 1.0529969 -0.092874959 0
-0.33359647 1.0478853 -0.081794657 0
-0.23573151 1.0529295 -0.057292059 0
-0.14859281 1.0519899 -0.065442033 0
-0.078622118 1.035682 -0.062857859 0
0.097894967 1.0678446 -0.077254899 0
0.13533029 1.0506946 -0.078991197 0
0.36803135 1.0498774 -0.062314995 0
0.45444936 1.0684148 -0.063615583 0
0.62958986 1.04514 -0.089259446 0
0.70336533 1.0477855 -0.094215229 0
2.7630978 1.0803236 -0.090915367 0
2.9207284 1.051038 -0.082951352 0
3.0629444 1.0438471 -0.052731685 0
3.1672783 1.029549 -0.046199959 0
3.252389 1.057155 -0.034658298 0
3.3364999 1.0695 -0.033999998 0
-2.5401011 1.116203 -0.0066277757 0
-0.95435297 1.161172 -0.0034969877 0
-0.32332259 1.1627699 -0.067925259 0
-0.23412032 1.1348455 -0.06610015 0
-0.12964578 1.1574916 -0.070549145 0
-0.078708552 1.1081016 -0.071871459 0
0.12633446 1.1473272 -0.087342285 0
0.37792593 1.1493573 -0.072043583 0
0.45432764 1.1465743 -0.069252506 0
0.51465374 1.1686535 -0.07837043 0
2.8468723 1.1119044 -0.077394202 0
2.9306467 1.1434853 -0.063873045 0
3.0333607 1.1393033 -0.069436871 0
3.1753428 1.1420572 -0.052677035 0
3.2602141 1.1723969 -0.042585596 0
3.3159401 1.1276269 -0.0095385415 0
-1.0112721 1.2300686 -0.0010591112 0
-0.34337536 1.2596754 -0.072105072 0
-0.24140778 1.2355249 -0.057088565 0
-0.13669415 1.2542804 -0.059594959 0
-0.057978846 1.2055625 -0.094975479 0
0.1360563 1.2353847 -0.096561521 0
0.39418292 1.2296953 -0.08571507 0
0.44726157 1.2411674 -0.077439629 0
0.54098511 1.2477196 -0.083683625 0
3.0981956 1.2066472 -0.036830731 0
3.1819701 1.238228 -0.023309566 0
3.2657444 1.2698089 -0.0097884089 0
3.3210001 1.2544999 -0.026000001 0
-0.36578044 1.3434449 -0.081812404 0
-0.26739237 1.3557647 -0.05134609 0
-0.14603776 1.3417754 -0.065694712 0
0.44653988 1.3215903 -0.088205278 0
0.55151868 1.3295145 -0.090165399 0
0.61091095 1.3245549 -0.090234861 0
-0.40396115 1.422786 -0.08040981 0
-0.39038935 1.4486508 -0.087448977 0
-0.27940732 1.4680443 -0.022127585 0
-0.16203097 1.4419971 -0.071002305 0
0.47598532 1.4106969 -0.085616767 0
0.54096991 1.4405549 -0.094841309 0
0.6317277 1.4478886 -0.097808719 0
-0.43071857 1.5440372 -0.093711436 0
-0.31267118 1.5704305 -0.022256723 0
-0.29438066 1.5755962 -0.021075703 0
-0.16727135 1.5386527 -0.080040008 0
-0.31937036 1.6573373 -0.02300192 0
-0.20652963 1.6477324 -0.08417654 0
-0.14829032 1.6184648 -0.088676475 0
2.2560458 1.9344573 -0.096567057 0
2.343118 1.9892751 -0.087346852 0
2.0884016 2.074296 -0.090991259 0
2.1376164 2.0638006 -0.095685937 0
2.2376213 2.0534282 -0.092750192 0
2.3945687 2.049186 -0.07185059 0
2.4293141 2.0450742 -0.07978186 0
1.9657464 2.1736174 -0.095578946 0
2.0516515 2.1341467 -0.087355778 0
2.1492519 2.1361198 -0.077239074 0
2.2445211 2.1507039 -0.077481642 0
2.3548656 2.1491058 -0.072444342 0
2.4638941 2.1348951 -0.063737072 0
2.5495884 2.1628401 -0.052754968 0
1.8817428 2.2086344 -0.088421375 0
1.9346786 2.275543 -0.073776715 0
2.0515263 2.266099 -0.075921044 0
2.1670523 2.261323 -0.060402777 0
2.2709527 2.259768 -0.049734704 0
2.3515694 2.2370148 -0.066510089 0
2.4601805 2.2538605 -0.05261806 0
2.6361463 2.2400112 -0.034955446 0
2.7028568 2.2784569 -0.036969773 0
1.9876143 2.3424516 -0.059132062 0
2.1210001 2.3410001 -0.060000002 0
2.233 2.3340001 -0.045000002 0
2.3657589 2.3197982 -0.039338596 0
2.463264 2.3253679 -0.055273961 0
2.5535634 2.3235481 -0.039516676 0
2.7354999 2.319 -0.021499999 0
1.9296129 2.4447246 -0.089533001 0
2.0522749 2.42418 -0.041243702 0
1.8897407 2.5043886 -0.092558518 0
1.9388888 2.5728664 -0.081470214 0
2.0287232 2.5701382 -0.073751077 0
1.972 2.619 -0.074000001 0
-2.0699999 -1.3099999 0.0080000004 0
-0.15477715 -1.3370039 0.012820553 0
-0.039935749 -1.343852 0.0095301801 0
0.045671143 -1.3448863 0.043424498 0
0.19400001 -1.364 1.0008525e-14 0
0.25926661 -1.3557358 0.0056593707 0
0.31976551 -1.3434691 0.0040177219 0
-1.9572891 -1.2367456 0.016717119 0
-0.15944433 -1.2550063 0.019342249 0
-0.035661969 -1.2580514 0.014146606 0
0.044135459 -1.2358031 0.01849027 0
-1.8445783 -1.1634911 0.025434241 0
-1.7694378 -1.1146549 0.031245653 0
-0.255 -1.135 0.0039999988 0
-0.16291603 -1.1213617 0.015680717 0
-0.02378238 -1.1384506 0.0064041205 0
0.055055242 -1.1498449 0.013855698 0
0.11718711 -1.1364449 0.0050914697 0
1.8565649 -1.1933695 0.020260809 0
-2.066757 -1.0822392 0.07573805 0
-1.9701233 -1.0305363 0.063756533 0
-1.6567268 -1.0414004 0.039962772 0
-0.250909 -1.0690491 0.013436195 0
-0.16445059 -1.0398713 0.007163493 0
0.039261937 -1.0486653 0.012180692 0
-2.2019999 -0.99000001 0.030999999 0
-2.176682 -0.93128079 0.057672102 0
-2.049484 -0.91540724 0.032975893 0
-1.8525378 -0.96762329 0.049177185 0
-1.7349522 -0.90471023 0.034597836 0
-1.5440161 -0.96814609 0.048679892 0
-1.4688754 -0.91930985 0.054491308 0
-0.23878169 -0.96668303 0.011175275 0
-0.15229642 -0.92011559 0.028548002 0
0.038404837 -0.9482882 0.014326728 0
-2.1259325 -0.85025436 0.039252032 0
-2.0425012 -0.85411423 0.030603319 0
-1.9439474 -0.83772671 0.026770908 0
-1.8684264 -0.83254093 0.019147296 0
-1.6565617 -0.86276817 0.024878269 0
-1.5781714 -0.82082617 0.015158702 0
-1.3633674 -0.85073674 0.062651359 0
-0.60600001 -0.89399999 0.012 0
-0.57018262 -0.83861566 0.0080202892 0
0.035499997 -0.89249998 0.018000003 0
-2.0238905 -0.79447019 0.012246221 0
-1.9455124 -0.76177621 0.0031969771 0
-1.8421854 -0.78170985 0.01651926 0
-1.7607859 -0.76559258 0.006058855 0
-1.4997809 -0.77888411 0.0054391343 0
-0.95664978 -0.74409491 0.010635025 0
-0.82688385 -0.73735267 0.0096473116 0
-0.53409129 -0.78280783 0.0040101446 0
-0.498 -0.727 2.2816598e-15 0
-2.1860001 -0.68300003 2.5854078e-14 0
-1.8331314 0.36499512 0.006414935 0
-2.1437519 0.48955703 0.015866943 0
-2.0583022 0.47086847 0.03084033 0
-1.9728526 0.45217985 0.045813717 0
-1.8609505 0.41828704 0.045625299 0
-2.2292016 0.50824565 0.00089355931 0
0.087358519 0.58153844 0.0058438657 0
0.103 0.574 0.003 0
0.221 0.56999999 0.015000001 0
0.13951457 0.65658855 0.0052821869 0
0.24184582 0.62214386 0.010888649 0
0.37901893 0.64803863 0.0038665871 0
-2.1156828 0.79022723 0.018424097 0
-2.0704999 0.77249998 0.024 0
-0.81088793 0.74898732 0.0027080439 0
-0.72029352 0.78173566 0.013008861 0
-0.64075679 0.75523114 0.0086036129 0
-0.5408743 0.75153244 0.0050306814 0
-0.46080613 0.76432973 0.0060243821 0
-0.347 0.79500002 0.0049999999 0
0.16098695 0.74939227 0.0067147878 0
0.23927431 0.74977684 0.010214699 0
0.30837038 0.77305865 0.0060756691 0
0.43894306 0.75486004 0.012895981 0
-2.2009451 0.83066994 0.0033209734 0
-2.1904047 0.81090736 0.011567805 0
-0.95533949 0.84914678 0.0092178844 0
-0.85582519 0.82548469 0.0068042292 0
-0.74828112 0.86876583 0.021364274 0
-0.64475554 0.8078717 0.014263239 0
-0.54160887 0.8357867 0.015939767 0
-0.44505751 0.84711176 0.011561893 0
-0.37876806 0.84511685 0.01127534 0
0.064500004 0.898 5.4545483e-14 0
0.14274521 0.8518514 0.018569129 0
0.24431562 0.84942365 0.014578736 0
0.3985346 0.80313587 0.0072670598 0
0.4278284 0.85992289 0.013455634 0
0.5046016 0.84902328 0.027730202 0
-2.4779201 0.99748921 0.0049579516 0
-1.1254938 0.98625624 0.020632196 0
-1.0627449 0.93004686 0.015026832 0
-0.95450002 0.90999997 0.016999999 0
-0.84332108 0.95381063 0.039039873 0
-0.77537304 0.95205122 0.013215035 0
-0.44723001 0.96444708 0.0082475683 0
-0.39899999 0.90100002 0.017999999 0
-0.26444989 0.99689037 0.00012734719 0
-0.18467063 0.95838732 0.037177943 0
0.087469332 0.91258287 0.0043366589 0
0.14333333 0.912 0.026333334 0
0.25139764 0.90883571 0.026576387 0
0.30789778 0.90671009 0.025448894 0
0.46474779 0.91690135 0.025513358 0
0.54579616 0.91987127 0.039100926 0
-2.5821939 1.0340599 0.022495121 0
-2.4361379 1.0709525 0.038885992 0
-1.152 1.01 0.022999998 0
-0.91309631 1.0585339 0.052614223 0
-0.84926689 1.0354927 0.02478236 0
-0.48534504 1.0466707 0.0093713524 0
-0.24428669 1.0683544 0.01603305 0
-2.609 1.146 0.0059999987 0
-2.5462825 1.1187716 0.017931592 0
-0.95326442 1.1500214 0.044778109 0
-0.52346003 1.1288941 0.010495136 0
-0.30934966 1.168671 0.0063820411 0
-0.21700594 1.1400809 0.021266919 0
-1.0227557 1.2690827 0.013255882 0
-0.9593488 1.2013316 0.016349018 0
-0.58063257 1.2522295 0.012180813 0
-0.33179954 1.2545614 0.0095093884 0
-0.23233828 1.2262342 0.013722431 0
-0.6378051 1.3755648 0.013866489 0
-0.35424942 1.3404517 0.012636736 0
-0.24767062 1.3123872 0.0061779451 0
-0.67592013 1.4577882 0.014990273 0
-0.37669933 1.4263421 0.015764084 0
-0.71403509 1.5400119 0.016114056 0
-0.42159909 1.5981228 0.022018781 0
-0.39914918 1.5122325 0.018891433 0
-0.76507509 1.6501176 0.017618921 0
-0.44299999 1.6799999 0.025 0
