# .PCD v0.7 - Point Cloud Data file format
VERSION 0.7
FIELDS x y z intensity
SIZE 4 4 4 4
TYPE F F F F
COUNT 1 1 1 1
WIDTH 1385
HEIGHT 1
VIEWPOINT 0 0 0 1 0 0 0
POINTS 1385
DATA ascii
-1.9026121 -2.6750786 -0.20643955 0
-1.8496768 -2.6017323 -0.20519963 0
-2.4434776 -2.5462837 -0.21038806 0
-1.7967415 -2.5283856 -0.2039597 0
-0.77899998 -2.5510001 -0.20900001 0
-2.3471911 -2.4507134 -0.20895523 0
-1.7438061 -2.4550393 -0.20271978 0
-0.80500001 -2.4330001 -0.204 0
-2.283 -2.3870001 -0.208 0
-1.6644031 -2.3450196 -0.20085989 0
-0.85500002 -2.3929999 -0.206 0
-0.88 -2.293 -0.20200001 0
1.879941 -3.9813719 -0.10465147 0
1.8244115 -3.8610582 -0.11647719 0
1.7719409 -3.7473722 -0.12765147 0
1.7369606 -3.6715813 -0.13510098 0
1.6670001 -3.52 -0.15000001 0
1.7019804 -3.5957906 -0.1425505 0
-0.64488804 -3.2748916 -0.10112455 0
-0.65638185 -3.1609862 -0.10643505 0
-1.1570129 -3.0463157 -0.16313848 0
-1.064 -3.01 -0.15800001 0
-0.63713819 -3.0737791 -0.11534971 0
-0.59144402 -3.0099459 -0.12756227 0
-0.38912117 -3.0865777 -0.1050515 0
-1.1253562 -2.9602277 -0.16757953 0
-1.0316186 -2.9777088 -0.14919525 0
-0.98472035 -2.9111078 -0.1463863 0
-0.88200003 -2.925 -0.146 0
-0.6443451 -2.9631979 -0.12096648 0
-0.54671431 -2.9436934 -0.11708745 0
-0.37138486 -2.9541044 -0.11823606 0
-1.0580878 -2.8806627 -0.16982269 0
-0.97425389 -2.8170037 -0.16506234 0
-0.86256897 -2.8544445 -0.15788503 0
-0.62367254 -2.877099 -0.12998325 0
-0.55181921 -2.8394175 -0.13496703 0
-0.45678672 -2.8454278 -0.11845738 0
-0.35364848 -2.8216312 -0.13142061 0
-1.0486825 -2.751719 -0.17833593 0
-0.9454031 -2.736203 -0.17304987 0
-0.83123058 -2.7406528 -0.17705315 0
-0.60299999 -2.7909999 -0.139 0
-0.5345 -2.7525001 -0.14649999 0
-0.456 -2.7119999 -0.139 0
-0.37078553 -2.7458763 -0.13309965 0
-0.027611492 -2.7478855 -0.10422969 0
-1.0026782 -2.6266139 -0.18478976 0
-0.93824452 -2.6387503 -0.18688165 0
-0.89486021 -2.6720538 -0.17519315 0
-0.79989225 -2.6268611 -0.19622126 0
-0.3585 -2.658 -0.1445 0
-0.025740996 -2.6659236 -0.11715313 0
-0.94125247 -2.5500221 -0.19117337 0
-0.84993011 -2.552527 -0.18959658 0
-0.022171889 -2.5220962 -0.13983487 0
-0.94133902 -2.4598069 -0.19339488 0
-0.88274819 -2.4749167 -0.19962722 0
-0.013 -2.49 -0.145 0
0.030933261 -2.4708483 -0.14273942 0
0.13658462 -2.409904 -0.13814616 0
-0.91066951 -2.3764033 -0.19769745 0
0.17627139 -2.3818216 -0.1383357 0
0.68031114 -2.3174527 -0.10020821 0
-1.585 -2.2349999 -0.199 0
0.65665555 -2.2322264 -0.10960411 0
0.57999998 -2.1860001 -0.108 0
0.63300002 -2.1470001 -0.119 0
2.3024795 -2.1454983 -0.1130479 0
-1.1799999 -2.0050001 -0.191 0
1.9763525 -2.0048296 -0.10861391 0
2.0280001 -2.0580001 -0.101 0
2.1741903 -2.0218863 -0.12485228 0
2.2380745 -2.0834417 -0.11897403 0
-1.1673255 -1.94863 -0.19014756 0
1.917127 -1.943858 -0.11734493 0
2.110306 -1.9603312 -0.13073052 0
-1.2309999 -1.8335 -0.18799999 0
-1.1445856 -1.8444228 -0.19010729 0
-1.067 -1.8150001 -0.192 0
1.6003398 -1.8451623 -0.10362368 0
1.7986763 -1.8219148 -0.13480696 0
1.8579016 -1.8828864 -0.12607594 0
1.9825373 -1.8372208 -0.14248702 0
2.0464215 -1.8987761 -0.13660876 0
2.1536562 -1.8025107 -0.1285231 0
2.2418938 -1.8758065 -0.11701386 0
-1.2338716 -1.7469072 -0.18765882 0
-1.1321201 -1.7322667 -0.19048229 0
-1.0930001 -1.762 -0.192 0
1.372622 -1.7211006 -0.19114611 0
1.4563333 -1.7176666 -0.13866667 0
1.5462042 -1.7474031 -0.10820509 0
1.6262007 -1.736649 -0.10626218 0
1.7394508 -1.7609433 -0.14353797 0
1.8308038 -1.7236432 -0.12791692 0
1.918653 -1.7756655 -0.14836526 0
2.0717845 -1.725018 -0.12135783 0
-1.2576432 -1.6518697 -0.18554288 0
-1.1640011 -1.6633873 -0.18865089 0
1.356514 -1.6485367 -0.1946888 0
1.4447858 -1.645126 -0.19447786 0
1.5546666 -1.6773334 -0.11566667 0
1.6610563 -1.646493 -0.13731724 0
1.7556847 -1.6533456 -0.12171906 0
1.8934517 -1.6271085 -0.10054664 0
1.9733125 -1.6434779 -0.13523701 0
2.0233939 -1.6943065 -0.14551386 0
-3.3180001 -1.538 -0.19 0
-3.2396472 -1.5022433 -0.18991342 0
-1.301 -1.551 -0.183 0
-1.2371613 -1.5481075 -0.18490484 0
-1.1569999 -1.5599999 -0.18799999 0
1.3785 -1.5344999 -0.19400001 0
1.463505 -1.5514233 -0.1951855 0
1.522 -1.575 -0.197 0
1.727 -1.591 -0.16599999 0
1.8505329 -1.5562756 -0.14562616 0
1.9278407 -1.552938 -0.12011619 0
2.0311534 -1.5520467 -0.1036256 0
2.14744 -1.5308447 -0.10471593 0
2.2386043 -1.5213954 -0.10114439 0
-3.1569824 -1.464519 -0.18982208 0
-3.0743177 -1.4267946 -0.18973073 0
-1.807 -1.442 -0.183 0
-1.7845064 -1.4250506 -0.18263039 0
-1.2318097 -1.4698588 -0.184258 0
-1.184 -1.448 -0.1855 0
1.413 -1.464 -0.19400001 0
1.988 -1.484 -0.114 0
2.0590732 -1.4380347 -0.14027479 0
2.1759009 -1.4468489 -0.10978609 0
2.2730236 -1.4374013 -0.10492522 0
2.4322278 -1.4190323 -0.10503358 0
-2.9503207 -1.3702083 -0.18959372 0
-2.8263237 -1.3136216 -0.1894567 0
-1.7172554 -1.3743756 -0.18152532 0
-1.6500043 -1.3237004 -0.18042025 0
1.8929758 -1.3128376 -0.18612427 0
1.9651711 -1.3600051 -0.18474913 0
2.0738668 -1.3146586 -0.17555451 0
2.1417892 -1.3660249 -0.16773252 0
2.2576666 -1.3346667 -0.13466667 0
2.3566139 -1.3730161 -0.11251679 0
-2.743659 -1.2758974 -0.18936537 0
-2.6609943 -1.238173 -0.18927403 0
-2.5783296 -1.2004486 -0.18918268 0
-1.5491277 -1.2476878 -0.17876266 0
1.7485855 -1.2185025 -0.18887456 0
1.8207806 -1.2656701 -0.18749942 0
1.9457322 -1.239354 -0.17599304 0
2.0536656 -1.2340407 -0.18100141 0
2.1640339 -1.2512577 -0.16977829 0
2.2405381 -1.2974148 -0.16712558 0
-2.4543324 -1.1438622 -0.18904567 0
-1.849658 -1.1494157 -0.17894766 0
-1.4482511 -1.1716752 -0.17710507 0
-1.381 -1.1210001 -0.176 0
1.6402926 -1.1477513 -0.19093728 0
1.7815542 -1.1295977 -0.18577641 0
1.8546324 -1.1758628 -0.18322094 0
1.9345212 -1.1127861 -0.17773643 0
2.0110254 -1.1589432 -0.17508373 0
2.1396227 -1.1348159 -0.18986729 0
2.23 -1.181 -0.19 0
2.5749388 -1.1273005 -0.13530456 0
2.6539998 -1.1245 -0.131 0
2.9326804 -1.121392 -0.1080953 0
3.2263446 -1.1278428 -0.11331412 0
3.3111806 -1.1565535 -0.10414264 0
-1.7611278 -1.096427 -0.17862456 0
-1.6498458 -1.0298202 -0.17821842 0
1.5319999 -1.077 -0.193 0
1.6537958 -1.0504676 -0.18844135 0
1.7539365 -1.0549339 -0.18807811 0
1.858017 -1.0666288 -0.18038915 0
1.9427484 -1.0342107 -0.18957819 0
2.0214982 -1.0744528 -0.18969382 0
2.1241014 -1.0023292 -0.1864122 0
2.2300727 -1.0288216 -0.18210115 0
2.3487754 -1.0353202 -0.16452183 0
2.4744565 -1.0642452 -0.15027757 0
2.5708406 -1.0351424 -0.13955279 0
2.6495087 -1.0671709 -0.13126335 0
2.7461522 -1.0758991 -0.12306223 0
2.8684566 -1.0283417 -0.14161375 0
2.9718361 -1.0417107 -0.14082853 0
3.0566723 -1.0704215 -0.13165706 0
3.1415083 -1.0991321 -0.12248559 0
-1.538564 -0.96321344 -0.17781228 0
-1.464376 -0.91880894 -0.17754152 0
1.545 -0.97899997 -0.192 0
1.6285043 -0.92815721 -0.18834728 0
1.7322522 -0.94717503 -0.18809092 0
1.8639988 -0.99396855 -0.18946254 0
1.964644 -0.92937803 -0.18715158 0
2.0443726 -0.96585357 -0.1867819 0
2.1899998 -0.93000001 -0.18266666 0
2.2644141 -0.93852878 -0.17425159 0
2.3348365 -0.93905699 -0.16442111 0
2.4372327 -0.97276121 -0.15231383 0
2.5255346 -0.90747309 -0.15969115 0
2.6454344 -0.93972129 -0.15756722 0
2.7636046 -0.96009034 -0.15351662 0
2.8596961 -0.92578173 -0.14656591 0
2.9583757 -0.94531375 -0.1406464 0
3.0485597 -0.93558061 -0.14106557 0
3.1489091 -0.99314535 -0.10000262 0
-1.8572214 -0.81790924 -0.17382014 0
-1.353094 -0.85220224 -0.17713538 0
1.5505 -0.85750002 -0.19 0
1.6277497 -0.87324214 -0.18911563 0
1.7254575 -0.81995118 -0.18826063 0
1.8450507 -0.87466455 -0.18770611 0
1.9618896 -0.81735659 -0.18378432 0
2.0426676 -0.85002792 -0.18314119 0
2.147655 -0.84840226 -0.18073933 0
2.2627778 -0.84857321 -0.17342116 0
2.3602674 -0.85023654 -0.17034557 0
2.456965 -0.85160828 -0.17095423 0
2.5364425 -0.84655046 -0.1707229 0
2.6420949 -0.84455043 -0.16234472 0
2.7565126 -0.85738766 -0.15569742 0
2.864006 -0.84551287 -0.15927647 0
2.956666 -0.8558265 -0.15843628 0
3.0451441 -0.85299301 -0.1617948 0
3.1494999 -0.87099999 -0.15700001 0
3.3738873 -0.81241918 -0.12990759 0
3.4617743 -0.83283836 -0.1218152 0
3.5496616 -0.85325754 -0.1137228 0
3.6375489 -0.87367678 -0.1056304 0
-2.0190001 -0.79699999 -0.17299999 0
-1.9443235 -0.7659868 -0.17286398 0
-1.8249856 -0.74060792 -0.1682809 0
-1.7550141 -0.7287119 -0.17098574 0
-1.6422213 -0.72540921 -0.17232016 0
1.566 -0.74699998 -0.189 0
1.6457288 -0.78347558 -0.18863031 0
1.7195559 -0.71934265 -0.18571374 0
1.8431551 -0.74390227 -0.18423933 0
1.9724369 -0.7406894 -0.18287547 0
2.0530429 -0.77027404 -0.18196112 0
2.1737907 -0.75675243 -0.18068886 0
2.2774005 -0.73393524 -0.17493138 0
2.3618007 -0.76187038 -0.16986276 0
2.439352 -0.75191027 -0.174436 0
2.5422711 -0.75868022 -0.1696528 0
2.6596134 -0.75096029 -0.16975109 0
2.7365737 -0.75516534 -0.16697669 0
2.8229241 -0.77938205 -0.16485223 0
2.9223318 -0.74720299 -0.16157347 0
3.0558591 -0.7369945 -0.14785948 0
3.1872308 -0.7683934 -0.14223137 0
3.2822707 -0.79110861 -0.13815977 0
-1.7520298 -0.64692694 -0.16705586 0
-1.6513373 -0.63935775 -0.1689183 0
-1.5485287 -0.64257628 -0.1710778 0
-1.4716146 -0.63111132 -0.17085379 0
1.5599999 -0.63300002 -0.18700001 0
1.6462675 -0.6437909 -0.18647416 0
1.7306186 -0.65193534 -0.18561848 0
1.8526393 -0.6467616 -0.18400687 0
1.9755262 -0.63694674 -0.18206628 0
2.0583315 -0.66323608 -0.18127953 0
2.1718025 -0.65757251 -0.18022624 0
2.230057 -0.63209945 -0.17899151 0
2.3753433 -0.67259681 -0.17394905 0
2.4621563 -0.65249068 -0.17398702 0
2.5761106 -0.65706766 -0.17152449 0
2.6617436 -0.64279777 -0.16474378 0
2.7493248 -0.66373038 -0.16099171 0
2.836906 -0.684663 -0.15723965 0
3.5650001 -0.60699999 -0.18799999 0
3.6519644 -0.6207425 -0.17329121 0
3.7271581 -0.61821324 -0.15885796 0
3.8406103 -0.63231164 -0.14318036 0
3.9644096 -0.66148287 -0.12338495 0
4.0830545 -0.63335449 -0.12239689 0
4.1715956 -0.64799201 -0.11205749 0
4.2745614 -0.63366884 -0.10950188 0
-1.819 -0.53400004 -0.1645 0
-1.7643894 -0.57072639 -0.16367114 0
-1.644978 -0.54610288 -0.16623537 0
-1.534759 -0.53025681 -0.16842036 0
-1.4475383 -0.56003708 -0.1712846 0
-1.335 -0.55599999 -0.17299999 0
1.559 -0.52499998 -0.186 0
1.6443052 -0.53178936 -0.18521327 0
1.7271105 -0.55807865 -0.18442652 0
1.8548024 -0.55057245 -0.18297622 0
1.9759698 -0.53565341 -0.18157211 0
2.0599637 -0.5582841 -0.18098652 0
2.1414576 -0.52650642 -0.18038499 0
2.2045002 -0.542 -0.18000001 0
2.3989999 -0.57999998 -0.176 0
3.5650001 -0.51899999 -0.18799999 0
3.6403477 -0.56016684 -0.17409387 0
3.7423904 -0.54766721 -0.16837546 0
3.8310857 -0.56200081 -0.1585632 0
3.9197807 -0.57633442 -0.14875093 0
4.0084758 -0.59066802 -0.13893867 0
-1.807 -0.461 -0.163 0
-1.7685583 -0.44037461 -0.16264299 0
-1.6449947 -0.45233783 -0.16616431 0
-1.5370328 -0.44995692 -0.16802131 0
-1.4619999 -0.44700003 -0.16933334 0
1.5586666 -0.44366667 -0.185 0
1.6399939 -0.44513068 -0.18391442 0
1.722188 -0.44542465 -0.18320839 0
1.8454789 -0.45375323 -0.1821925 0
1.9730449 -0.43605912 -0.18089931 0
2.0579538 -0.45497093 -0.18037917 0
2.1700838 -0.45331815 -0.1791659 0
2.2362571 -0.4091751 -0.17942213 0
2.3249142 -0.42544699 -0.17922489 0
2.4197857 -0.44285944 -0.17901383 0
3.477 -0.41999999 -0.184 0
3.5665505 -0.42937794 -0.17223157 0
3.6561007 -0.43875593 -0.16046315 0
3.7456512 -0.44813389 -0.14869472 0
3.8352015 -0.45751184 -0.13692629 0
3.924752 -0.46688983 -0.12515786 0
4.0143023 -0.47626778 -0.11338945 0
4.1038527 -0.48564577 -0.10162102 0
-1.6704514 -0.38432962 -0.16425534 0
-1.5471822 -0.36816597 -0.16758293 0
-1.4478064 -0.35029119 -0.16990691 0
-1.352 -0.31 -0.17299999 0
1.5485001 -0.34149998 -0.18349999 0
1.633409 -0.36041182 -0.18297985 0
1.7384444 -0.33241853 -0.18098859 0
1.8575988 -0.3712413 -0.1808476 0
1.9705316 -0.33708143 -0.17979833 0
2.0567074 -0.35231778 -0.17939757 0
2.1585886 -0.36203611 -0.17866452 0
3.464 -0.33399999 -0.184 0
3.5489185 -0.34454805 -0.17038099 0
3.633837 -0.3550961 -0.156762 0
3.7187552 -0.36564413 -0.143143 0
3.846133 -0.38146621 -0.1227145 0
3.9735107 -0.39728826 -0.102286 0
1.527 -0.27900001 -0.18099999 0
1.6258285 -0.27613595 -0.18140137 0
1.7196944 -0.27120084 -0.18139571 0
1.8537229 -0.26376927 -0.17987251 0
1.9549297 -0.21673815 -0.1781853 0
2.0391622 -0.2271727 -0.17773162 0
2.1491971 -0.24080363 -0.17713898 0
1.497 -0.127 -0.178 0
1.583259 -0.13539925 -0.17760004 0
1.6585075 -0.14038391 -0.17857648 0
1.7551208 -0.16055198 -0.17837447 0
1.8530246 -0.13782839 -0.17699414 0
1.9401563 -0.14520465 -0.17655887 0
2.027288 -0.1525809 -0.17612359 0
2.1242797 -0.16997142 -0.17545886 0
2.2160311 -0.14047283 -0.17570572 0
2.3260179 -0.14841305 -0.17511755 0
4.1789999 -0.107 -0.177 0
4.2596965 -0.11290463 -0.1630436 0
4.3403931 -0.11880925 -0.14908722 0
4.4210896 -0.12471388 -0.13513082 0
4.5421343 -0.13357082 -0.11419623 0
1.474 -0.054000001 -0.176 0
1.5604173 -0.058576617 -0.17559618 0
1.6234174 -0.079576619 -0.17709619 0
1.7332519 -0.067729853 -0.17478853 0
1.8196692 -0.072306469 -0.17438471 0
1.9492953 -0.079171404 -0.17377898 0
2.0789211 -0.086036325 -0.17317326 0
2.1159999 -0.088 -0.17299999 0
-1.8290964 0.039918013 -0.164791 0
1.4529999 0.017000001 -0.17399999 0
1.5419369 0.016668146 -0.17366815 0
1.6308738 0.016336292 -0.17333628 0
1.7198108 0.016004438 -0.17300443 0
1.8532162 0.015506657 -0.17250666 0
1.9866216 0.015008875 -0.17200887 0
2.0755587 0.014677021 -0.17167702 0
2.1644955 0.014345166 -0.17134517 0
2.2552161 0.014006656 -0.17100665 0
-1.8138434 0.1286547 -0.16405307 0
-1.7892507 0.1631093 -0.16443232 0
1.4630001 0.19499999 -0.167 0
-1.8590561 0.28803724 -0.15682323 0
-1.7756441 0.24400452 -0.16404505 0
-1.6670001 0.294 -0.15700001 0
1.4557312 0.26524019 -0.16237599 0
1.5642338 0.24376005 -0.16315129 0
1.6482365 0.25427994 -0.16192663 0
1.7166286 0.2206782 -0.16339603 0
1.8434429 0.2335173 -0.16159406 0
1.970257 0.2463564 -0.15979208 0
2.026 0.252 -0.15899999 0
-1.9032992 0.38417739 -0.15173954 0
-1.8237801 0.36308903 -0.15200217 0
-1.7503465 0.34706897 -0.15349358 0
-1.6461935 0.34977147 -0.15347236 0
1.7478496 0.30892143 -0.15800786 0
1.8313119 0.32140177 -0.15675983 0
1.9318871 0.33644104 -0.15525588 0
-2.6259999 0.498 -0.155 0
-2.528394 0.49741918 -0.15691631 0
-2.4390948 0.48124179 -0.15617676 0
-2.3497953 0.46506441 -0.15543723 0
-2.2659578 0.46538368 -0.15484884 0
-2.1770639 0.44737497 -0.15447907 0
-2.0607646 0.42703089 -0.1544062 0
-1.955032 0.40143749 -0.15373954 0
-1.8064897 0.41040349 -0.15103728 0
-1.7553881 0.46531713 -0.1509963 0
-1.6532569 0.46266538 -0.15392113 0
-1.5895 0.43849999 -0.15450001 0
-3.1229899 0.59609008 -0.15686838 0
-3.0401583 0.57974172 -0.15655699 0
-2.9573267 0.56339341 -0.15624559 0
-2.8594756 0.57159162 -0.15600951 0
-2.7502248 0.54011554 -0.15681055 0
-2.626128 0.54874396 -0.15575436 0
-2.536885 0.54140055 -0.155 0
-2.4483964 0.52156049 -0.155 0
-2.3599081 0.50172043 -0.155 0
-1.8186953 0.59724808 -0.1502075 0
-1.7375202 0.55739915 -0.15126109 0
-1.6496983 0.56180835 -0.15361355 0
-1.5543333 0.55000001 -0.155 0
-3.158 0.60299999 -0.15700001 0
-3.0275474 0.62644851 -0.15690401 0
-2.9252758 0.60951769 -0.15644643 0
-2.6636529 0.65161598 -0.15482807 0
-2.5606246 0.64267981 -0.15329343 0
-2.0517635 0.68067276 -0.15206695 0
-1.945891 0.64337426 -0.15162687 0
-1.8586476 0.62841195 -0.15438235 0
-1.7331865 0.65696031 -0.15191114 0
-1.656021 0.64886409 -0.15343076 0
-1.5557421 0.65654486 -0.15586607 0
-1.494 0.69400001 -0.155 0
-3.3772297 0.78445321 -0.13008615 0
-3.2458935 0.75353324 -0.13980384 0
-3.1145573 0.72261333 -0.14952154 0
-3.027 0.70200002 -0.156 0
-2.9520762 0.77833873 -0.15490942 0
-2.8303828 0.74541306 -0.15438262 0
-2.7505372 0.72380984 -0.15403695 0
-2.6706915 0.70220655 -0.15369131 0
-2.4398715 0.77046418 -0.15070683 0
-2.3494051 0.77698624 -0.15129974 0
-2.2642827 0.74962682 -0.15146562 0
-2.156872 0.71945292 -0.1520092 0
-2.0428774 0.77374047 -0.15259659 0
-1.956539 0.75815123 -0.15263408 0
-1.8558863 0.7329483 -0.15226674 0
-1.7495763 0.75157696 -0.15362751 0
-1.6492443 0.7483725 -0.15354362 0
-1.5535505 0.75466549 -0.15504356 0
-1.473 0.74900001 -0.156 0
1.449 0.76950002 -0.1415 0
1.5583111 0.7903738 -0.14035559 0
-3.7274594 0.86690634 -0.10417229 0
-3.6399019 0.84629309 -0.11065076 0
-3.5523446 0.82567978 -0.11712922 0
-3.4350669 0.84475529 -0.1207435 0
-3.3188775 0.86435533 -0.12530345 0
-3.232408 0.84426647 -0.13272759 0
-3.130702 0.85325253 -0.13743088 0
-3.045851 0.83187628 -0.14571545 0
-2.9489999 0.83700001 -0.153 0
-2.8557892 0.88724339 -0.15253289 0
-2.7342105 0.85063154 -0.1518421 0
-2.6386125 0.85765934 -0.15272051 0
-2.5452688 0.82369465 -0.15195704 0
-2.4355853 0.85493338 -0.15088993 0
-2.3482924 0.85874683 -0.1505322 0
-2.2514014 0.85870713 -0.15227181 0
-2.1329479 0.84159017 -0.15082045 0
-2.05322 0.82647455 -0.15050192 0
-1.9385443 0.8542636 -0.1514497 0
-1.8283663 0.8484146 -0.15230173 0
-1.7277998 0.85539407 -0.15105645 0
-1.642 0.83850002 -0.153 0
-1.5815939 0.83050579 -0.15391648 0
-1.4573257 0.85319781 -0.15566279 0
-1.2423666 0.84879184 -0.1602715 0
-1.1720001 0.88499999 -0.16 0
1.381 0.84100002 -0.14 0
1.4769526 0.88729191 -0.13829175 0
1.5428625 0.8511079 -0.13970698 0
1.6261549 0.85252446 -0.13957842 0
1.718456 0.87250185 -0.14017038 0
-3.5782857 0.92462188 -0.10303104 0
-3.491816 0.90453303 -0.11045519 0
-3.3651628 0.95031828 -0.10727508 0
-3.2819302 0.92765462 -0.11642006 0
-3.1641786 0.9583928 -0.13246621 0
-3.0215676 0.94123745 -0.14616673 0
-2.9372652 0.93945593 -0.15206943 0
-2.8499999 0.96799999 -0.15700001 0
-2.7288554 0.96875888 -0.15399571 0
-2.6331258 0.97606277 -0.14951253 0
-2.5459161 0.95752746 -0.15318887 0
-2.4636886 0.92859107 -0.1515203 0
-2.3642912 0.95531386 -0.14814611 0
-2.2406056 0.96475184 -0.15008529 0
-2.1552792 0.94876486 -0.14946364 0
-2.0564713 0.93214083 -0.15082377 0
-1.971632 0.94798875 -0.14615658 0
-1.8702731 0.95406121 -0.14574413 0
-1.773293 0.95821315 -0.14734793 0
-1.6547298 0.92101258 -0.15212843 0
-1.5691009 0.93826371 -0.15421705 0
-1.4475869 0.96329695 -0.15615065 0
-1.3571553 0.92938918 -0.15669532 0
-1.2657307 0.95772755 -0.15811911 0
-1.1658769 0.97233045 -0.1583505 0
1.3789999 0.98100001 -0.139 0
1.4437499 0.93900001 -0.13824999 0
1.5417521 0.95109046 -0.13809893 0
1.6526526 0.95294881 -0.13857251 0
1.7632328 0.95594949 -0.13976683 0
1.8575901 0.93680042 -0.13976042 0
1.9766135 0.97990239 -0.13951816 0
-3.4394057 1.0874248 -0.11200035 0
-3.3558381 1.0581872 -0.11883362 0
-3.2756231 1.0643944 -0.1243542 0
-3.1502829 1.0602872 -0.13322905 0
-3.0215902 1.0207355 -0.14341661 0
-2.9694815 1.095693 -0.12749508 0
-2.8591506 1.0620555 -0.1344782 0
-2.7421699 1.0639855 -0.13421218 0
-2.6213484 1.0355128 -0.14865103 0
-2.5526602 1.0471351 -0.14477003 0
-2.4637005 1.0381658 -0.14711288 0
-2.3547816 1.0643736 -0.14384073 0
-2.256979 1.0522133 -0.14540249 0
-2.1640091 1.0880218 -0.136608 0
-2.038177 1.0591805 -0.139653 0
-1.9210861 1.0374262 -0.14119586 0
-1.8333795 1.0260755 -0.1427706 0
-1.7167112 1.0680938 -0.13883904 0
-1.6323056 1.0403061 -0.14556554 0
-1.5494473 1.0427662 -0.15247156 0
-1.4590445 1.0575482 -0.15535247 0
-1.3612391 1.0598975 -0.15661104 0
-1.264836 1.0551072 -0.15580069 0
-1.1520286 1.0587959 -0.15688616 0
-1.073 1.0350001 -0.1575 0
1.2663522 1.042716 -0.13740325 0
1.3563272 1.0747755 -0.13656878 0
1.4642756 1.0171027 -0.13800332 0
1.5454744 1.0395325 -0.13731992 0
1.6508871 1.0530938 -0.13738492 0
1.7318577 1.0533311 -0.13740134 0
1.8234205 1.0298821 -0.13845736 0
1.9370253 1.0556777 -0.13937606 0
2.0591564 1.0568322 -0.1397631 0
2.1376591 1.0586634 -0.13972543 0
2.2181816 1.0980438 -0.13982907 0
-3.5296674 1.1478022 -0.10391673 0
-3.4505661 1.1525744 -0.1094581 0
-3.3647709 1.1262066 -0.11624981 0
-3.2119632 1.194386 -0.10199015 0
-3.1311359 1.1614883 -0.11049179 0
-3.0476317 1.1451504 -0.11295137 0
-2.9540834 1.1543206 -0.10899899 0
-2.8539066 1.1477712 -0.11608893 0
-2.7633464 1.1280209 -0.12538867 0
-2.6561966 1.145281 -0.11440533 0
-2.5648525 1.1439114 -0.12027783 0
-2.4659145 1.1358756 -0.12429833 0
-2.3518116 1.1464391 -0.12180091 0
-2.2551136 1.1645343 -0.11758322 0
-2.1493859 1.127539 -0.12676707 0
-2.0640001 1.12175 -0.13249999 0
-1.9762992 1.1101259 -0.13528433 0
-1.8654222 1.1641874 -0.12367807 0
-1.7568718 1.1561913 -0.13476805 0
-1.6591953 1.1429765 -0.1425111 0
-1.5459929 1.1517017 -0.14966604 0
-1.4395027 1.1506586 -0.15382765 0
-1.3395379 1.1408803 -0.15576001 0
-1.2563939 1.1495528 -0.15527883 0
-1.1532444 1.1638813 -0.15403834 0
-0.95999998 1.179 -0.155 0
1.3377042 1.1449322 -0.13480648 0
1.4400028 1.1597601 -0.13488127 0
1.5549538 1.1646925 -0.13493821 0
1.6586318 1.1453443 -0.13542973 0
1.7664005 1.1331236 -0.13664518 0
1.8521643 1.1453818 -0.13724463 0
1.9554199 1.1434156 -0.13778014 0
2.0576038 1.1606834 -0.13837366 0
2.1579814 1.1724272 -0.13914591 0
2.2826421 1.1729666 -0.1393481 0
2.3510001 1.163 -0.14 0
-3.0252714 1.2102311 -0.10071855 0
-2.9089284 1.2033769 -0.10753009 0
-2.7081299 1.2546765 -0.10571809 0
-2.6291039 1.2157412 -0.11357448 0
-2.5365198 1.2444547 -0.1028811 0
-2.4329138 1.2409662 -0.10947189 0
-2.3537335 1.259599 -0.10655266 0
-2.2648845 1.2456815 -0.10852648 0
-2.1895897 1.2024544 -0.11635099 0
-2.0389738 1.2607424 -0.11539878 0
-1.9466853 1.2276869 -0.11855179 0
-1.8422873 1.2382033 -0.13100767 0
-1.7427994 1.2513828 -0.1354313 0
-1.6458647 1.2516416 -0.1425667 0
-1.5568554 1.2585871 -0.14600685 0
-1.461982 1.2551116 -0.14985126 0
-1.3555864 1.2291867 -0.15316364 0
-1.2409238 1.2522155 -0.15354408 0
-1.1486866 1.2711818 -0.15314464 0
-1.0476347 1.2548163 -0.1532982 0
-0.93530917 1.2670982 -0.1535764 0
-0.85600001 1.2869999 -0.152 0
0.69199997 1.267 -0.14 0
0.76081157 1.2445085 -0.13978471 0
0.949 1.256 -0.13600001 0
1.233 1.267 -0.133 0
1.3770082 1.2235671 -0.13352039 0
1.4724166 1.2599314 -0.13313335 0
1.5582775 1.2552811 -0.13347897 0
1.7645613 1.24028 -0.13351595 0
1.8552387 1.2297188 -0.13416219 0
1.9439011 1.2512995 -0.13579769 0
2.0397813 1.2613961 -0.13696001 0
2.1292164 1.2660993 -0.13666667 0
2.2413931 1.2409232 -0.13898839 0
-2.2054417 1.3516109 -0.10284133 0
-2.1346278 1.3064072 -0.11256088 0
-2.0497332 1.3495022 -0.11435923 0
-1.9388264 1.348583 -0.12954654 0
-1.8333428 1.3504019 -0.12830406 0
-1.7351649 1.3415911 -0.13544327 0
-1.6439151 1.3496572 -0.14020717 0
-1.553299 1.3448173 -0.14566275 0
-1.46482 1.3417176 -0.147866 0
-1.3347137 1.3357377 -0.15029146 0
-1.2616105 1.3582575 -0.1508494 0
-1.1534375 1.3465134 -0.15191408 0
-1.04252 1.3567176 -0.15170424 0
-0.96189535 1.3600152 -0.15080757 0
-0.85552001 1.3662436 -0.14992082 0
-0.773 1.364 -0.149 0
-0.50606322 1.3788327 -0.14810781 0
-0.45050001 1.334 -0.1485 0
-0.361 1.386 -0.146 0
0.44540343 1.3515338 -0.1404607 0
0.58899999 1.374 -0.14 0
0.74451756 1.354208 -0.13807276 0
0.81912315 1.3295169 -0.13556942 0
0.90399998 1.393 -0.13699999 0
1.0324731 1.3635012 -0.1346111 0
1.12 1.398 -0.131 0
1.2969642 1.3315132 -0.13254246 0
1.3609283 1.3960264 -0.13208492 0
1.5130246 1.3427014 -0.13256118 0
1.6446209 1.3248504 -0.13220571 0
1.7192757 1.3683081 -0.1321481 0
1.8829576 1.346807 -0.13121687 0
1.957 1.332 -0.132 0
2.0502753 1.3170592 -0.13556591 0
2.1695364 1.3482628 -0.1378594 0
2.2465959 1.3956254 -0.13795489 0
-2.167979 1.471768 -0.10814882 0
-2.0851288 1.4322885 -0.11215832 0
-1.956789 1.4491941 -0.11966129 0
-1.8676107 1.4649159 -0.12988207 0
-1.7610009 1.4473842 -0.13384357 0
-1.6445843 1.4503729 -0.13903381 0
-1.5538821 1.4201915 -0.14391255 0
-1.4395448 1.4635563 -0.14544471 0
-1.322221 1.4230152 -0.14819883 0
-1.2441509 1.4386113 -0.14844331 0
-1.1359882 1.4323499 -0.15015918 0
-1.0354062 1.4516083 -0.15011479 0
-0.94475907 1.4460073 -0.14875664 0
-0.8345198 1.4619859 -0.1475216 0
-0.74568504 1.4381943 -0.14767273 0
-0.6713413 1.4689517 -0.14725 0
-0.53312641 1.4436655 -0.14721562 0
-0.4574306 1.4497583 -0.14608483 0
-0.34636837 1.4745951 -0.14409456 0
-0.26899999 1.448 -0.145 0
0.28600001 1.47 -0.14300001 0
0.35094184 1.440354 -0.14160332 0
0.44131842 1.4563986 -0.13993834 0
0.54158437 1.4698348 -0.13725846 0
0.62014544 1.4512806 -0.13800137 0
0.7970351 1.4414161 -0.1361455 0
0.801 1.448 -0.13600001 0
0.95359778 1.4652321 -0.13563946 0
1.069 1.473 -0.131 0
1.1458341 1.4693543 -0.13178837 0
1.4248924 1.4605396 -0.13162738 0
1.5810328 1.4022685 -0.13208157 0
1.6744853 1.4324304 -0.13062367 0
1.7698654 1.4256634 -0.13062321 0
1.8585286 1.4933215 -0.13368121 0
2.283 1.418 -0.138 0
-2.0255859 1.5663369 -0.10659156 0
-1.9331707 1.5522796 -0.11968038 0
-1.8449024 1.5454333 -0.12873755 0
-1.7658641 1.5656238 -0.13595769 0
-1.6850356 1.5395757 -0.13777857 0
-1.5510454 1.5497923 -0.14163819 0
-1.4434421 1.5525305 -0.14289765 0
-1.346997 1.5186045 -0.14517123 0
-1.2504498 1.5410976 -0.14642912 0
-1.0525436 1.5635612 -0.14700404 0
-0.94444537 1.5227103 -0.14659774 0
-0.84980243 1.569 -0.145831 0
-0.75066835 1.52666 -0.14630508 0
-0.56509483 1.5202491 -0.14616171 0
-0.46760681 1.5649441 -0.14360239 0
-0.36223677 1.5446901 -0.14268914 0
-0.24913889 1.5427647 -0.14265497 0
-0.15026641 1.5526471 -0.14406908 0
0.0625 1.5905 -0.14050001 0
0.13349999 1.552 -0.141 0
0.24811916 1.5340408 -0.1416785 0
0.35309505 1.5582768 -0.14033355 0
0.44560733 1.5460042 -0.13822882 0
0.54428339 1.5640377 -0.13489173 0
0.62700176 1.5478054 -0.13295491 0
0.98000002 1.5779999 -0.13 0
1.0031955 1.5374644 -0.13427892 0
1.1460407 1.5428562 -0.13132143 0
1.2314438 1.5374123 -0.12970914 0
1.4888567 1.5250528 -0.13116984 0
1.5528208 1.589566 -0.1307123 0
1.7510532 1.5511863 -0.13088256 0
1.9294612 1.5496532 -0.1334928 0
-2.0632291 1.6744363 -0.10123322 0
-1.9742113 1.6398785 -0.11265259 0
-1.8189433 1.6710767 -0.12947212 0
-1.769047 1.6159614 -0.13391662 0
-1.643759 1.64153 -0.13792965 0
-1.5519816 1.6567858 -0.13842024 0
-1.4633284 1.647341 -0.14028537 0
-1.3541826 1.6399659 -0.1426875 0
-1.2654158 1.6107078 -0.14489639 0
-1.1590241 1.6570126 -0.1448376 0
-1.0651455 1.6646298 -0.14441103 0
-0.90099788 1.6591638 -0.1448833 0
-0.77406633 1.6393859 -0.14443457 0
-0.42399999 1.635 -0.142 0
-0.34612548 1.6536274 -0.13946494 0
-0.24423146 1.6482744 -0.13975827 0
-0.13897324 1.6479099 -0.13994132 0
-0.032193072 1.6489506 -0.14187711 0
0.045518924 1.6611338 -0.1393649 0
0.1587355 1.6619009 -0.13944055 0
0.24531385 1.6594042 -0.13906908 0
0.32010475 1.6433387 -0.13915063 0
0.47128978 1.6490457 -0.1313349 0
0.5611847 1.6557759 -0.12946767 0
0.66040838 1.6577238 -0.12816991 0
0.75029087 1.6790613 -0.13200273 0
1.0388557 1.628037 -0.13109548 0
1.137182 1.6475068 -0.13062555 0
1.2551904 1.6476469 -0.12997957 0
1.3428875 1.6768246 -0.1284183 0
1.6167849 1.6540792 -0.13025476 0
1.8530655 1.6405369 -0.13016315 0
2.0358603 1.6341507 -0.13321021 0
2.115 1.697 -0.133 0
-2.1053123 1.7619102 -0.10326454 0
-2.0326622 1.7010384 -0.10847617 0
-1.9526412 1.7933843 -0.12274987 0
-1.8857923 1.7322304 -0.126111 0
-1.717 1.714 -0.13500001 0
-1.6416328 1.7644861 -0.13424742 0
-1.5539745 1.7612003 -0.13619077 0
-1.4388126 1.7397366 -0.1391921 0
-1.3750265 1.746513 -0.14082733 0
-1.2450577 1.7482302 -0.14321025 0
-1.152353 1.7461021 -0.14235213 0
-1.048936 1.7435204 -0.14227727 0
-0.92799789 1.7451637 -0.1428833 0
-0.82145303 1.7623088 -0.14214766 0
-0.76899999 1.774 -0.141 0
-0.67299998 1.776 -0.14 0
-0.5575 1.778 -0.139 0
-0.442 1.771 -0.13699999 0
-0.31099999 1.7589999 -0.13600001 0
-0.25099999 1.7314999 -0.1365 0
-0.101 1.743 -0.13699999 0
-0.027386148 1.7564013 -0.13775422 0
0.03385881 1.7545526 -0.13749059 0
0.13542733 1.7511481 -0.13675715 0
0.24842283 1.7535993 -0.13675126 0
0.32567647 1.7459191 -0.13555457 0
0.46758422 1.7530066 -0.1266783 0
0.55706578 1.7447785 -0.12579773 0
0.64269024 1.7504375 -0.12298629 0
0.74236143 1.7639501 -0.12263454 0
0.82563257 1.7517011 -0.13016707 0
0.91500002 1.73 -0.127 0
1.0698361 1.7147546 -0.12854517 0
1.1333716 1.7686464 -0.12900753 0
1.2749459 1.75317 -0.12838647 0
1.3685753 1.7521014 -0.12864566 0
1.6807491 1.7185924 -0.12979722 0
1.7447133 1.7831056 -0.12933968 0
1.9550778 1.7298876 -0.12944373 0
2.0179999 1.785 -0.12899999 0
-2.0511634 1.8835129 -0.11779624 0
-1.744751 1.8367517 -0.13031515 0
-1.5612586 1.8626208 -0.13442476 0
-1.4572344 1.848367 -0.13777553 0
-1.3490865 1.8898451 -0.13981536 0
-1.2582188 1.8534776 -0.14024475 0
-1.1504533 1.8316913 -0.14124283 0
-1.0559924 1.8564644 -0.14095791 0
-0.9704212 1.8205726 -0.14185181 0
-0.83966523 1.8434981 -0.14083654 0
-0.70428777 1.8591744 -0.13955462 0
-0.60813969 1.864282 -0.13808389 0
-0.55945283 1.8616914 -0.13825762 0
-0.4635798 1.8581374 -0.13628408 0
-0.32625905 1.8479134 -0.13502187 0
-0.23712838 1.8418758 -0.13486831 0
-0.10673812 1.8333988 -0.13549492 0
-0.029360274 1.8441322 -0.13590235 0
0.042323418 1.8525187 -0.135194 0
0.14621627 1.855132 -0.13462366 0
0.24552137 1.8472556 -0.13417956 0
0.33414176 1.8408077 -0.13307132 0
0.48616713 1.8838828 -0.11928555 0
0.55030614 1.8428676 -0.11558873 0
0.65361673 1.8275375 -0.12345421 0
0.75805479 1.8415228 -0.11854454 0
0.83961767 1.8301136 -0.12748839 0
0.96972156 1.8559088 -0.12569167 0
1.1596723 1.8515092 -0.12709033 0
1.2263856 1.8625091 -0.12815651 0
1.3661804 1.8486024 -0.12780178 0
1.4543313 1.8162369 -0.12712744 0
1.5100532 1.8859429 -0.12648201 0
1.8086774 1.8476188 -0.12888214 0
-2.1298897 1.9590734 -0.10383176 0
-2.0503922 1.9690394 -0.1144189 0
-1.8700789 1.9691771 -0.12471183 0
-1.6196529 1.9584808 -0.12389005 0
-1.5319999 1.941 -0.13500001 0
-1.401101 1.9606527 -0.13811792 0
-1.3329512 1.9560388 -0.1373509 0
-1.2433338 1.9725677 -0.13878012 0
-1.1567047 1.9347115 -0.13941795 0
-1.0552678 1.9713902 -0.13978881 0
-0.94782078 1.9690971 -0.13853104 0
-0.87491149 1.9390578 -0.13933316 0
-0.73557556 1.9423486 -0.13910925 0
-0.63527942 1.9485641 -0.13716778 0
-0.58490574 1.9473827 -0.13751525 0
-0.48515961 1.9452747 -0.13556816 0
-0.3415181 1.9368267 -0.13404372 0
-0.24825674 1.9317515 -0.13373661 0
-0.11247623 1.9237976 -0.13398984 0
-0.0313344 1.9318632 -0.13405046 0
0.039669763 1.9510864 -0.13317448 0
0.14723316 1.9532455 -0.13230091 0
0.24411443 1.9352512 -0.13175619 0
0.35374022 1.9520417 -0.13077457 0
0.54808003 1.9580773 -0.1134637 0
0.64276695 1.9338325 -0.11958881 0
0.75190455 1.9272295 -0.11023439 0
0.84555072 1.944903 -0.12499333 0
0.94473934 1.9472203 -0.12543586 0
1.0401647 1.9537264 -0.12307498 0
1.2157952 1.9369433 -0.12618145 0
1.302891 1.9739287 -0.12605785 0
1.439622 1.9321523 -0.12704645 0
1.5356312 1.9641619 -0.12628861 0
1.8726416 1.912132 -0.1284246 0
1.932 1.972 -0.12800001 0
-1.9449582 2.0514102 -0.11198587 0
-1.7309587 2.0994425 -0.10367014 0
-1.6576028 2.0555148 -0.11128646 0
-1.5859499 2.0115342 -0.12189642 0
-1.4492788 2.049365 -0.13585514 0
-1.345474 2.0272512 -0.13693862 0
-1.259254 2.0699263 -0.13718161 0
-1.1446561 2.0384333 -0.13858461 0
-1.0524943 2.0607421 -0.13762936 0
-0.95238113 2.0463786 -0.13878503 0
-0.76686335 2.0255229 -0.13866387 0
-0.6363889 2.0329599 -0.13651228 0
-0.50673938 2.0324121 -0.13485225 0
-0.35677719 2.0257401 -0.13306557 0
-0.25938514 2.0216274 -0.13260491 0
-0.11821435 2.0141964 -0.13248476 0
-0.030621819 2.0441434 -0.13185512 0
0.045297384 2.0500612 -0.13095661 0
0.15667506 2.0507851 -0.12976736 0
0.23973806 2.0269883 -0.12958552 0
0.34449291 2.0614781 -0.12780403 0
0.40557128 2.0260801 -0.12725964 0
0.53935993 2.0534329 -0.10333413 0
0.64739108 2.0395861 -0.12208376 0
0.74092358 2.0581918 -0.11914298 0
0.86835188 2.0534878 -0.12276018 0
0.95152187 2.0574026 -0.12270294 0
1.0562792 2.0500224 -0.12215235 0
1.4630001 2.0090001 -0.126 0
1.55 2.03 -0.126 0
1.6297485 2.0356777 -0.12509558 0
-1.5401531 2.1570058 -0.11916329 0
-1.3617837 2.1316304 -0.13404661 0
-1.2243875 2.1774714 -0.13635282 0
-1.1517313 2.1362882 -0.13710733 0
-1.0402582 2.1725225 -0.13644527 0
-0.96303898 2.1396091 -0.13548325 0
-0.82943892 2.1918716 -0.13777311 0
-0.79815114 2.1086972 -0.13821849 0
-0.66268516 2.1179466 -0.13568303 0
-0.52831918 2.1195495 -0.13413632 0
-0.37203625 2.1146536 -0.13208742 0
-0.2705135 2.1115031 -0.13147321 0
-0.12682152 2.1497946 -0.13022713 0
-0.036063701 2.1521053 -0.12961775 0
0.027721355 2.1465347 -0.12910813 0
0.13226031 2.1574044 -0.12752625 0
0.24697328 2.1296744 -0.12734777 0
0.36423874 2.1627488 -0.12434701 0
0.42053378 2.1339285 -0.12478733 0
0.89913583 2.1253171 -0.12101357 0
0.95561713 2.1653748 -0.12040439 0
1.0579782 2.1511095 -0.12027737 0
1.1444687 2.1401651 -0.11980412 0
-1.6143063 2.2650113 -0.10232658 0
-1.4376192 2.2639205 -0.11518607 0
-1.3641068 2.2160056 -0.11808474 0
-1.2576661 2.250798 -0.13368143 0
-1.17 2.221 -0.13600001 0
-1.0670288 2.2268071 -0.13781253 0
-0.86072671 2.2750459 -0.13732775 0
-0.73026848 2.243551 -0.13396141 0
-0.67399073 2.2473023 -0.13491693 0
-0.56068885 2.2502556 -0.13306245 0
-0.40255439 2.2924802 -0.13013114 0
-0.38729531 2.203567 -0.13110928 0
-0.28720605 2.2463167 -0.12977564 0
-0.1354287 2.285393 -0.12796952 0
-0.041358553 2.2325575 -0.12751058 0
0.029419709 2.250438 -0.12674996 0
0.14550394 2.2563858 -0.12513047 0
0.25351924 2.2559156 -0.12430926 0
0.35843235 2.2367988 -0.12357491 0
0.42665905 2.2500272 -0.12338048 0
1.0592139 2.2154541 -0.11908475 0
1.127 2.2260001 -0.118 0
1.202 2.243 -0.118 0
-1.5201977 2.3587532 -0.10093112 0
-1.3249927 2.3685758 -0.11817712 0
-1.2512679 2.3449736 -0.12732477 0
-1.0750673 2.3310502 -0.14039586 0
-0.8920145 2.3582201 -0.13688236 0
-0.74157405 2.3729067 -0.13319531 0
-0.59305859 2.3809617 -0.13198857 0
-0.41781345 2.3813937 -0.12915298 0
-0.30389863 2.3811305 -0.1280781 0
-0.14116681 2.3757918 -0.12646444 0
-0.029934712 2.3619235 -0.12679426 0
0.025100194 2.350364 -0.12559922 0
0.15489952 2.3355668 -0.12333518 0
0.24566875 2.3657537 -0.12143964 0
0.39327395 2.3481114 -0.12188552 0
0.44460222 2.3373649 -0.12111056 0
2.6630001 2.306 -0.132 0
2.7298226 2.3670442 -0.12640816 0
-1.352514 2.4356766 -0.11509634 0
-1.2907846 2.4634256 -0.11801081 0
-1.1442692 2.4433715 -0.14004168 0
-0.92330229 2.4413943 -0.13643698 0
-0.76787031 2.4578934 -0.13236606 0
-0.61463839 2.4680991 -0.13127266 0
-0.43307251 2.4703071 -0.12817484 0
-0.315027 2.4710062 -0.1269464 0
-0.14690492 2.4661906 -0.12495936 0
-0.031496815 2.451484 -0.1253363 0
0.025543079 2.4392731 -0.12382768 0
0.13699999 2.4000001 -0.122 0
0.289 2.4130001 -0.12 0
0.43511429 2.4306641 -0.11923093 0
2.7966452 2.4280884 -0.12081632 0
2.8634675 2.4891326 -0.11522448 0
-1.4170315 2.5505652 -0.10310411 0
-1.3540522 2.5248594 -0.11195245 0
-1.2458988 2.5421724 -0.1305002 0
-1.1769278 2.5519047 -0.13500699 0
-0.954 2.523 -0.13600001 0
-0.81800002 2.516 -0.131 0
-0.76853788 2.5656109 -0.13215931 0
-0.63621819 2.5552363 -0.13055673 0
-0.44833159 2.5592203 -0.1271967 0
-0.32615539 2.5608819 -0.12581471 0
-0.15264302 2.5565894 -0.12345429 0
-0.03352946 2.5680223 -0.12343918 0
0.025992982 2.5295911 -0.12202807 0
0.46116289 2.5153468 -0.1168569 0
2.93029 2.5501769 -0.10963264 0
-1.3380526 2.6436939 -0.11350919 0
-1.2148554 2.6338093 -0.13001397 0
-0.653 2.6229999 -0.13 0
-0.46529531 2.6580667 -0.12610927 0
-0.33728376 2.6507578 -0.12468301 0
-0.15838115 2.6469882 -0.1219492 0
1.326 2.6440001 -0.112 0
2.753 2.6619999 -0.121 0
2.9971125 2.6112213 -0.1040408 0
-1.4115691 2.7058516 -0.10002162 0
-1.3440635 2.7424603 -0.11466717 0
-1.271747 2.7566662 -0.12252446 0
-0.34400001 2.7049999 -0.124 0
-0.162 2.704 -0.121 0
0.103 2.7590001 -0.115 0
2.8413706 2.742337 -0.1070154 0
-1.355984 2.8510492 -0.11168444 0
0.10722895 2.8492496 -0.11230885 0
0.72299999 2.855 -0.105 0
2.0150001 2.8599999 -0.113 0
2.105 2.8440001 -0.115 0
2.289 2.8069999 -0.117 0
2.3470252 2.8740563 -0.11451643 0
-1.4225954 2.9026904 -0.10200076 0
-1.3665663 2.9614277 -0.11004192 0
-0.46200001 2.98 -0.12 0
0.1114579 2.9394994 -0.1096177 0
2.0666807 2.927016 -0.11054632 0
2.1364822 2.9529631 -0.10736108 0
2.4050505 2.9411128 -0.11203286 0
-1.4044939 3.0433323 -0.1050489 0
-0.47609097 3.068773 -0.11698051 0
0.11568686 3.0297489 -0.10692655 0
2.170042 3.0610485 -0.10563896 0
2.4630756 3.0081692 -0.10954929 0
2.5211008 3.0752254 -0.10706572 0
-1.4424217 3.125237 -0.10005589 0
-0.71899998 3.1600001 -0.117 0
-0.49018189 3.157546 -0.11396102 0
0.068000004 3.1389999 -0.107 0
0.11991581 3.1199987 -0.1042354 0
2.2475629 3.1615727 -0.10195844 0
2.5791261 3.1422818 -0.10458215 0
-0.73902297 3.2451911 -0.11401521 0
-0.50427288 3.2463188 -0.11094153 0
0.06701608 3.2248826 -0.10390767 0
0.12414476 3.2102482 -0.10154425 0
2.6371512 3.2093382 -0.10209858 0
-0.75904602 3.3303821 -0.11103041 0
-0.51836377 3.3350918 -0.10792205 0
-0.38499999 3.391 -0.105 0
-0.16354726 3.3537092 -0.10594259 0
0.066032149 3.3107653 -0.10081533 0
-1.068 3.4560001 -0.107 0
-0.97799999 3.448 -0.107 0
-0.7485345 3.4222865 -0.10702281 0
-0.63700002 3.441 -0.106 0
-0.55572736 3.4499326 -0.10545128 0
-1.0985374 3.529372 -0.10474556 0
-0.9959147 3.525075 -0.10450028 0
-0.83905751 3.5849776 -0.10353801 0
-0.75798196 3.5330689 -0.10305914 0
-0.65743881 3.5206409 -0.10089029 0
-0.54654568 3.5126376 -0.10188307 0
-1.1443436 3.6394298 -0.10136389 0
-1.0394146 3.6405749 -0.10350028 0
-0.72107339 -3.6525764 -0.063437127 0
-0.61594403 -3.641016 -0.01832369 0
0.87759578 -3.6484375 -0.026600223 0
-0.79002655 -3.5699456 -0.057424579 0
-0.69833201 -3.5398374 -0.074686825 0
-0.55079961 -3.5061145 -0.02109132 0
0.84638321 -3.5207496 -0.0044008903 0
-0.76838058 -3.4797924 -0.066865921 0
-0.67370206 -3.4625609 -0.04182421 0
-0.54001617 -3.4401803 -0.030309346 0
-0.43970907 -3.4644201 -0.067446351 0
0.35821766 -3.4522266 -0.077468336 0
-0.73737168 -3.3506436 -0.080391064 0
-0.65573406 -3.3609238 -0.06576927 0
-0.5630216 -3.3336225 -0.058253169 0
-0.45678443 -3.361011 -0.05329711 0
0.34687066 -3.3179064 -0.060873337 0
-0.70636284 -3.2214952 -0.093916208 0
-0.63194174 -3.2731206 -0.053479917 0
-0.54773283 -3.2448192 -0.069788426 0
-0.4444989 -3.2731347 -0.064697474 0
0.339306 -3.2283597 -0.049810011 0
-0.61511815 -3.1876006 -0.067733265 0
-0.56536925 -3.1290481 -0.081655145 0
-0.43838701 -3.1595676 -0.07404685 0
0.33174133 -3.1388128 -0.038746681 0
0.91850722 -3.1660781 -0.0028404314 0
-0.54931307 -3.0418866 -0.094549455 0
-0.43798751 -3.0207489 -0.083955899 0
0.32417664 -3.0492661 -0.027683355 0
0.88275361 -3.0420389 -0.018420218 0
-0.42524061 -2.9333117 -0.097966924 0
-0.032176245 -2.9479046 -0.072691411 0
0.31661198 -2.9597192 -0.016620025 0
0.84663326 -2.9166791 -0.034145642 0
-0.02948199 -2.8298473 -0.091306254 0
0.30904731 -2.8701725 -0.0055566952 0
0.74699998 -2.8180001 -0.028999999 0
0.82224441 -2.8288107 -0.043832824 0
0.76635969 -2.7564402 -0.044158343 0
0.69009322 -2.6026404 -0.055919975 0
0.74352258 -2.672163 -0.054064296 0
0.66807455 -2.5193124 -0.066335976 0
0.7512778 -2.5731316 -0.072020516 0
0.64605594 -2.4359841 -0.076751985 0
0.71579444 -2.445292 -0.086114362 0
2.0598044 -2.448102 -0.0043288954 0
0.62403727 -2.3526561 -0.087167993 0
1.982748 -2.356184 -0.017692007 0
2.028147 -2.304652 -0.023569247 0
0.60201865 -2.2693281 -0.097583994 0
1.8670262 -2.218143 -0.037760451 0
1.9524721 -2.2545171 -0.037505571 0
2.0412726 -2.2407746 -0.045656208 0
2.1229968 -2.2428613 -0.019373536 0
1.8511254 -2.1337454 -0.060580105 0
1.9426594 -2.1543694 -0.047143508 0
2.0304947 -2.1441021 -0.036622562 0
2.1641295 -2.1182511 -0.014518862 0
2.2458136 -2.1516755 -0.037332796 0
2.3900001 -2.109 -0.0050000027 0
1.6934435 -2.0110817 -0.067863122 0
1.7766701 -2.0536983 -0.064815976 0
1.8535709 -2.0371101 -0.066736996 0
1.9247041 -2.0623939 -0.065073103 0
2.062402 -2.0329149 -0.027908668 0
2.1374903 -2.0448937 -0.054140761 0
2.2863915 -2.0231409 -0.020066597 0
2.3592019 -2.0525157 -0.018892057 0
2.4360325 -2.0864878 -0.016459864 0
1.6594688 -1.9198189 -0.083022922 0
1.7547026 -1.961561 -0.079051912 0
1.8494968 -1.9508612 -0.070373535 0
1.981934 -1.9306102 -0.055048931 0
2.0594337 -1.9628849 -0.069274575 0
2.1535943 -1.913094 -0.039377734 0
2.2496216 -1.9501756 -0.038609479 0
2.3453846 -1.9405656 -0.058813389 0
2.4761372 -1.9552977 -0.055092152 0
2.6450593 -1.9280281 -0.047034085 0
2.8796597 -1.913368 -0.067964181 0
2.944 -1.956 -0.064999998 0
1.5487914 -1.8385307 -0.092948675 0
1.6488552 -1.8248199 -0.092993379 0
1.7330106 -1.8732594 -0.088494442 0
1.8462625 -1.8202684 -0.071573228 0
1.9351448 -1.8664438 -0.074038558 0
2.0539966 -1.8305588 -0.053861082 0
2.1758325 -1.8334606 -0.071447581 0
2.2550879 -1.8662552 -0.073394381 0
2.3399558 -1.8444465 -0.06963823 0
2.4629018 -1.8506202 -0.054961022 0
2.5537949 -1.8588891 -0.05077057 0
2.6466603 -1.850435 -0.060671374 0
2.7169788 -1.8320875 -0.063930519 0
2.8048086 -1.8637716 -0.071412608 0
1.5662713 -1.7742172 -0.096411973 0
1.6986653 -1.7898272 -0.09849935 0
1.7845083 -1.7595123 -0.084048823 0
1.854064 -1.7663708 -0.09340208 0
1.9283516 -1.7736199 -0.080361232 0
2.0620809 -1.7698793 -0.074413225 0
2.1217251 -1.7565033 -0.094929591 0
2.2384667 -1.761835 -0.080478676 0
2.3639145 -1.7194605 -0.072508998 0
2.4506662 -1.7646995 -0.06672515 0
2.568037 -1.7516532 -0.071468323 0
2.6420531 -1.7377894 -0.064154729 0
2.9579999 -1.739 -0.052999996 0
1.7227541 -1.6987561 -0.09652441 0
1.888 -1.693 -0.078000002 0
1.9609034 -1.6842167 -0.09009327 0
2.0693185 -1.6241488 -0.098546073 0
2.1369779 -1.6792233 -0.091319114 0
2.2532978 -1.6464812 -0.081210315 0
2.3540938 -1.6434412 -0.085567676 0
2.4441404 -1.64718 -0.07951764 0
2.5206325 -1.6579856 -0.07400123 0
2.6281426 -1.6669077 -0.057051286 0
2.7321048 -1.6464866 -0.046152085 0
2.8482046 -1.6727731 -0.047205273 0
2.1341107 -1.5652027 -0.094155215 0
2.2457342 -1.5644032 -0.092524566 0
2.3467424 -1.5529678 -0.089903973 0
2.5561111 -1.5492114 -0.080162644 0
2.6590695 -1.5570807 -0.082583949 0
3.6449785 -1.5131577 -0.038540386 0
3.7274892 -1.5495788 -0.047270194 0
3.8099999 -1.586 -0.056000002 0
2.142 -1.498 -0.097000003 0
2.2060001 -1.467 -0.098999999 0
2.3627508 -1.452571 -0.098982394 0
2.4346261 -1.4988565 -0.08947359 0
2.5078416 -1.4650484 -0.097550362 0
3.3974462 -1.4038943 -0.012350958 0
3.4799569 -1.4403154 -0.021080766 0
3.5624676 -1.4767365 -0.029810576 0
3.3149352 -1.3674731 -0.0036211498 0
3.7366805 -1.3005536 -0.05814264 0
3.1677008 -1.2044802 -0.06773825 0
3.2585204 -1.2365881 -0.052142944 0
3.4808528 -1.2139748 -0.085799702 0
3.5656888 -1.2426856 -0.076628231 0
3.6505249 -1.2713963 -0.067456752 0
3.0501904 -1.162936 -0.087916777 0
3.3960166 -1.1852641 -0.094971165 0
3.2283635 -1.0162181 -0.087003924 0
3.3475454 -1.050827 -0.067505881 0
3.4728637 -1.087218 -0.047003921 0
3.7158713 -1.0059459 -0.017174993 0
3.8008282 -1.0289279 -0.0032333173 0
4.2199998 -1.0089999 -0.052000001 0
3.461 -0.93699998 -0.059 0
3.5459571 -0.95998198 -0.045058329 0
3.6309142 -0.98296392 -0.031116659 0
3.8133233 -0.91451514 -0.089445606 0
3.945154 -0.94514394 -0.077307001 0
4.0769849 -0.97577268 -0.065168403 0
4.1648722 -0.99619186 -0.057076007 0
3.725436 -0.89409596 -0.097538002 0
4.1737504 -0.7031976 -0.085038513 0
4.2607145 -0.7169401 -0.070329726 0
4.3522601 -0.7240715 -0.063229583 0
4.4224877 -0.72147322 -0.072201282 0
4.5244379 -0.7387073 -0.059667379 0
4.0867863 -0.68945509 -0.099747293 0
4.2457128 -0.69159031 -0.093934335 0
4.3632565 -0.64800239 -0.09968961 0
4.4694757 -0.66516799 -0.087938674 0
4.2829533 -0.50440168 -0.078084178 0
4.3725038 -0.51377964 -0.066315748 0
4.4510002 -0.52200001 -0.056000009 0
4.0584292 -0.40783632 -0.088667005 0
4.1467018 -0.45401186 -0.085926302 0
4.2659998 -0.329 -0.086999997 0
4.3551607 -0.3348482 -0.073194429 0
4.4443216 -0.34069636 -0.059388869 0
4.5334826 -0.34654456 -0.0455833 0
4.6226435 -0.35239276 -0.031777736 0
4.7118049 -0.35824096 -0.017972171 0
4.8009658 -0.36408913 -0.0041666031 0
4.6300001 -0.14 -0.098999999 0
-3.8150167 0.88751966 -0.097693831 0
-4.0341244 0.97853494 -0.064987011 0
-3.922879 0.92546684 -0.08656963 0
-3.8599999 0.93400002 -0.092 0
-3.7457416 0.97593325 -0.088394254 0
-3.6647549 0.94471073 -0.095606908 0
-3.5316281 0.99564558 -0.088985115 0
-3.4483955 0.97298193 -0.098130092 0
-4.3823729 1.0676048 -0.010961041 0
-4.2517796 1.0342035 -0.031220781 0
-4.1211863 1.0008024 -0.051480517 0
-4.060575 1.0883086 -0.029072464 0
-3.9756813 1.0649815 -0.044304345 0
-3.8483405 1.0299907 -0.067152172 0
-3.5769999 1.008 -0.083999999 0
-4.1454692 1.1116358 -0.013840578 0
-3.6452703 1.1594498 -0.095166892 0
-3.1269472 1.1958287 -0.098894194 0
-3.0383275 1.1890967 -0.090383887 0
-2.7471285 1.1824292 -0.093508467 0
-2.3423934 1.1963073 -0.090559542 0
-3.7084758 1.2318389 -0.089041501 0
-3.6221564 1.20531 -0.095874697 0
-3.3555393 1.2653937 -0.083328955 0
-3.257129 1.2523173 -0.077676639 0
-3.141849 1.2582722 -0.084395111 0
-3.0732999 1.2663276 -0.092142135 0
-2.9643438 1.2588325 -0.072079532 0
-2.8369799 1.2534872 -0.075317286 0
-2.7539921 1.2550195 -0.095079266 0
-2.6371574 1.2657212 -0.077334039 0
-2.5458326 1.2397935 -0.083980821 0
-2.4600837 1.2392236 -0.080398008 0
-2.3537209 1.2606378 -0.086309761 0
-3.4608274 1.3535967 -0.029883876 0
-3.3713894 1.3187741 -0.042690977 0
-3.2243335 1.368 -0.032666668 0
-3.1383269 1.3793385 -0.025905941 0
-3.0574572 1.3433564 -0.039305281 0
-2.9556491 1.3723317 -0.062388171 0
-2.8473904 1.3693759 -0.061316077 0
-2.7474031 1.3367701 -0.06123253 0
-2.6602466 1.3600079 -0.070921689 0
-2.5572114 1.3389925 -0.072292671 0
-2.4578052 1.3439461 -0.081410028 0
-2.2762556 1.3968146 -0.093121774 0
-2.1628447 1.356375 -0.093356147 0
-2.0752633 1.369319 -0.085660301 0
-1.9785339 1.3033917 -0.098269343 0
-3.1340001 1.405 -0.027000003 0
-2.96 1.4275 -0.019499999 0
-2.8355 1.4315 -0.044500001 0
-2.7407377 1.4338263 -0.034549151 0
-2.6461725 1.4380064 -0.045632988 0
-2.5660636 1.4185903 -0.077228472 0
-2.4178834 1.4872218 -0.073682666 0
-2.3470695 1.4420182 -0.083402216 0
-2.231957 1.4312127 -0.082583271 0
-2.158457 1.4187126 -0.081583269 0
-2.453095 1.562521 -0.070638783 0
-2.3392298 1.5552319 -0.082623884 0
-2.2503815 1.530623 -0.085233241 0
-2.1296282 1.5514414 -0.094198257 0
-2.0847557 1.5401036 -0.093082875 0
-2.4561422 1.6722293 -0.072840288 0
-2.3675799 1.6442983 -0.067212433 0
-2.271714 1.6527358 -0.067663759 0
-2.1391895 1.6726949 -0.091682836 0
-2.0909126 1.6414819 -0.098465607 0
-2.5190001 1.783 -0.020999998 0
-2.4421785 1.759047 -0.035698269 0
-2.3293116 1.7367055 -0.056665801 0
-2.2319994 1.7706906 -0.071401387 0
-2.146009 1.7431452 -0.086805284 0
-2.5250001 1.88 -0.020999998 0
-2.4707489 1.8402741 -0.03088773 0
-2.3358107 1.8310442 -0.055842135 0
-2.2799425 1.8551846 -0.060592964 0
-2.1928077 1.8067517 -0.078704804 0
0.64429331 1.8917871 -0.098862424 0
-2.5233688 1.9762228 -0.023198403 0
-2.4228399 1.9489108 -0.035445407 0
-2.3469095 1.9112041 -0.047486804 0
-2.2451284 1.9270462 -0.068831593 0
0.5962429 1.9683135 -0.094718814 0
0.6450119 1.9694412 -0.090288676 0
0.74608541 1.9575586 -0.090945758 0
0.82390559 1.9861717 -0.095515996 0
-2.5396152 2.0905035 -0.023409605 0
-2.4558187 2.0329216 -0.0251795 0
-2.3415132 2.0021849 -0.047326364 0
-2.2556691 2.0812201 -0.077495277 0
-2.1701741 2.0396523 -0.094169565 0
0.59254849 2.0715237 -0.094003111 0
0.65740162 2.0354235 -0.089378208 0
0.74030232 2.0661736 -0.083212607 0
0.8220765 2.0687473 -0.080859981 0
-2.5476415 2.1302314 -0.012157951 0
-2.4700265 2.10237 -0.018652726 0
-2.3185587 2.1422937 -0.064327031 0
-2.2447455 2.1492758 -0.080932327 0
-2.0333955 2.1495256 -0.093964681 0
-1.7866116 2.1699233 -0.093560174 0
-1.6938497 2.1526024 -0.095689252 0
0.56143391 2.1386619 -0.096330278 0
0.64712936 2.1436634 -0.080642 0
0.7335 2.1145 -0.080499999 0
0.83899999 2.1069999 -0.075999998 0
-2.4255226 2.2819567 -0.045508701 0
-2.3616853 2.2213807 -0.057673912 0
-2.1218328 2.2476408 -0.075943485 0
-1.8220071 2.2670374 -0.076466151 0
-1.7477996 2.2231367 -0.082585663 0
0.58350778 2.2238908 -0.089326426 0
-2.5386729 2.3560505 -0.018238194 0
-2.4714913 2.3595519 -0.041864656 0
-2.2397492 2.3784614 -0.051915236 0
-2.1807911 2.3130512 -0.063929364 0
-1.9535702 2.3813658 -0.063230313 0
-1.8768084 2.3375449 -0.064859383 0
-1.6637418 2.3370152 -0.091102108 0
-1.4532137 2.3680115 -0.099169478 0
0.58458149 2.335866 -0.058692355 0
0.62052613 2.3505499 -0.079881914 0
-2.6106865 2.4679031 -0.01284676 0
-2.5362759 2.4196308 -0.030702472 0
-2.2987075 2.4438717 -0.039901108 0
-2.0092232 2.4518466 -0.053120352 0
-1.9096494 2.4347391 -0.043274909 0
-1.737895 2.4450209 -0.074265391 0
-1.5655971 2.4313378 -0.08924149 0
-1.4977671 2.4440143 -0.089711845 0
