# .PCD v0.7 - Point Cloud Data file format
VERSION 0.7
FIELDS x y z intensity
SIZE 4 4 4 4
TYPE F F F F
COUNT 1 1 1 1
WIDTH 381
HEIGHT 1
VIEWPOINT 0 0 0 1 0 0 0
POINTS 381
DATA ascii
-2.5108702 -0.52535188 -0.095498294 2
-2.564224 -0.25633496 -0.097471245 2.2
-2.5962772 0.22688416 -0.06982509 2.5
-2.5971065 0.57280856 -0.063214831 2.5
-2.5999401 0.99187165 -0.065302998 3
-2.525707 -0.47880635 0.19090338 5.4000001
-2.5782795 -0.23734179 0.18989803 5.5
-2.5950127 0.25948459 0.069525667 4
-2.5810134 -0.41934162 0.6004591 10
-2.5885906 -0.23426123 0.60659778 10.2
-2.6903565 0.90131676 0.79517168 12
-2.5620942 -0.46000287 1.0742477 15
-2.6157651 -0.21864207 0.90552235 13.3
-2.6131973 0.30050614 0.97784072 14
-2.6431129 0.76035559 1.0350232 14.2
-2.6635225 0.8921541 0.99784118 13.666667
-2.6226959 0.85142273 1.2292143 16
-2.6259606 -0.72135162 1.9026444 22
-2.5000682 -1.3200455 2.2423813 23.5
-2.5284691 -0.97701794 2.252521 24.142857
-2.5481381 -0.60009384 2.1846759 24.571428
-2.5423422 -0.2674875 2.2430034 25.125
-2.4824283 0.29225156 2.3237364 25.75
-2.5901062 0.665151 2.261081 24.666666
-2.5921443 0.83908325 2.2814815 24.5
-2.3150809 -0.8257789 -0.0031764547 3
-2.398448 -0.59069753 -0.1653014 1
-2.2102025 0.6203925 -0.077876173 2.3333333
-2.0233071 0.83026141 -0.065492831 2
-2.2327554 -0.90487081 0.080892399 4
-2.109895 0.45739415 0.84128779 14.5
-2.168046 -1.7826622 2.3526709 24.666666
-2.237649 -1.3858494 2.3512805 25.428572
-2.2754021 -0.97299558 2.3496094 26.285715
-2.2732608 -0.61698556 2.36112 27.333334
-2.2812047 -0.26296726 2.3513839 27.6
-2.2876999 0.24575506 2.3548384 27.6
-2.2925427 0.56827718 2.3714294 27.200001
-2.295681 1.0925589 2.357326 26
-2.0981998 -1.8046155 2.4811339 25.5
-2.1071346 -1.3174607 2.5236893 27
-2.161767 -0.98064601 2.4843168 27.625
-2.1573935 -0.75081629 2.493866 28.5
-2.0399792 -0.21253496 2.5397913 30
-2.0923555 0.27995494 2.5303907 29.666666
-2.232178 0.6269567 2.480557 28
-2.1578228 0.98968881 2.5032098 27.5
-1.8850976 0.36998677 -0.042338826 3
-1.8570451 0.65703577 -0.09438052 2
-1.654063 0.80841827 -0.060306042 2.5
-1.6209151 -0.37580454 0.32797009 9
-1.8589309 0.39199191 0.015668994 4
-1.9044484 0.55322075 0.18089387 6
-1.7381006 0.82576585 0.1898158 6.3333335
-1.6321535 -0.32936448 0.46870047 11.5
-1.8644779 -1.3469869 2.5446336 28.4
-1.7617642 -1.013441 2.5501966 30.5
-1.9119474 -0.63450599 2.5458238 30.6
-1.9754413 -0.22047856 2.539793 31
-1.990664 0.27671069 2.533133 30.666666
-1.9510959 0.5372712 2.5317395 30.333334
-1.8956245 1.0276428 2.5368564 29.333334
-1.8421079 1.2226993 2.5405312 29
-1.3944495 -0.62127495 -0.060108032 2
-1.2221144 0.79758269 -0.067082144 2
-1.4301633 0.81496006 -0.039567608 2.5
-1.2965944 -0.55793619 0.11654479 5.8000002
-1.4768213 -0.39112994 0.24593812 8.1999998
-1.4544888 0.81728685 0.13524948 5.6999998
-1.3983285 -0.3852393 0.44807056 12.5
-1.2429545 1.6323959 2.3697789 29
-1.4456534 -1.6552563 2.555645 29
-1.5090828 -1.4220133 2.552099 30.166666
-0.8937574 -1.028367 -0.1254171 0
-0.99686068 -0.74726123 -0.065307915 1.5
-0.83372885 0.59925765 -0.047847245 2
-1.1571188 0.82607871 -0.01455149 3
-1.0613959 1.2577393 -0.0010623442 3
-1.0149971 -0.74574405 0.18803287 7.8333335
-1.159667 0.82561392 0.075947203 5
-0.95628512 -0.66298538 0.5396651 16.6
-1.091157 -0.37882614 0.47395146 15.5
-0.92229247 -0.74107617 0.83592111 22.5
-1.1922052 1.7461169 2.3732858 28.5
-0.89462692 2.090163 2.3638771 27.5
-0.90164238 -2.0206115 2.5561893 29
-0.98093897 -1.9081922 2.5584354 29.6
-0.49753332 -0.88732481 -0.042221416 1.75
-0.66717839 -0.73595655 -0.041231554 2
-0.6109941 0.61542678 -0.037136465 2
-0.54216361 0.88912886 -0.054214511 1.6666666
-0.49464396 1.5826763 -0.16981536 0
-0.74762404 1.7577438 -0.17498191 0
-0.65602386 -1.2736477 0.21719252 8
-0.45814905 -0.8720063 0.070196517 5.5
-0.68327725 -0.73765975 0.18980297 9
-0.64455259 0.3137413 0.30317864 15.714286
-0.58681083 0.5993709 0.10666305 7.3846154
-0.54807824 0.8684684 0.024284894 4
-0.46355677 1.7142987 0.18547329 6.5999999
-0.66086775 -0.71814501 0.57370913 19.75
-0.5058111 0.29025751 0.50353205 25.5
-0.72168636 -0.73430282 0.84031183 24.5
-0.61554736 2.1437852 2.3668675 27.5
-0.59922624 2.0934949 2.4280255 29
-0.60702342 3.374547 2.5551896 22.4
-0.2213086 -1.3576357 -0.031807799 3
-0.32082736 -0.92169082 -0.019875018 2.5999999
-0.091216505 -0.79747891 -0.041110251 2
-0.34239787 0.71076679 -0.030013753 2
-0.18090549 0.90850073 -0.037158359 2
-0.22566725 1.5474522 -0.14692235 0
-0.30414993 1.6638552 -0.045611091 2.5
-0.12236524 -1.3574356 0.10042545 5.5
-0.22607915 -0.9385106 0.022651251 4
-0.14769678 -0.64151984 0.23748282 13.8
-0.35115945 0.52122545 0.25758344 15.2
-0.10509361 0.90547895 0.18087061 9.1176472
-0.33153561 1.6995059 0.15590891 6
-0.23308513 -0.65043092 0.56227362 24.125
-0.14360459 0.91222674 0.57889605 19.833334
-0.024953628 0.90989304 0.83404624 25.666666
-0.20726332 2.2183788 2.3705647 27.6
0.24836656 -1.3634697 -0.031882357 2.6666667
0.12346435 -0.8401202 -0.035017442 2
0.37572563 -0.71227634 -0.0095314654 3
0.23605159 0.6501891 -0.023637297 2.25
0.0981474 0.89814758 -0.0303658 2.25
0.25962159 -1.3698044 0.10049254 5.4000001
0.24031369 -0.90054542 0.16915798 9
0.13348225 -0.65552956 0.23604916 13
0.22118624 0.56671083 0.0097754141 4
0.17799127 0.91202164 0.18613589 9.0689659
0.22827898 -3.0396578 0.63397086 9.666667
0.16326346 -0.66856003 0.58015066 24.166666
0.15670906 0.91446364 0.53987867 18.894737
0.25519553 0.91587675 0.82853472 24.666666
0.12476412 2.2071714 2.3726983 27.75
0.28244644 -2.1995347 2.5609746 29
0.74569929 -1.7869657 -0.070283942 2
0.53228796 -1.5449024 -0.064411841 2
0.54013354 -0.7119565 -0.027775088 2.1666667
0.76990932 1.177282 -0.15719341 0
0.6300714 1.4329445 -0.12954371 0.5
0.78452826 1.680027 -0.1593042 1
0.42305678 -1.6610899 0.36464083 9.5
0.55116433 -1.5612372 0.071611017 4.5
0.45596573 -0.76046062 0.14024632 8
0.44372618 0.92582417 0.20173509 9
0.47588137 -3.0273449 0.58270186 8.75
0.67243969 -1.6291684 0.46058837 11
0.42462882 -0.81184423 0.55469471 19.5
0.43486366 -0.71388537 0.55968362 21
0.43546057 0.91793293 0.48922899 16.75
0.78282505 -1.7687372 2.3640518 30
0.59858543 2.1876495 2.3826134 27.4
0.61488241 -2.0652432 2.564497 29.5
0.73374516 -1.9793763 2.5486743 30
0.72760767 2.114852 2.4418268 28.5
0.8161875 -2.5927591 -0.17046984 1
0.89017451 -1.7360244 -0.16477889 1
1.0748247 -1.4429244 -0.16288672 0.66666669
0.99217266 1.0724993 -0.15301137 0.33333334
0.93859434 1.3278399 -0.15329722 0.66666669
1.0065329 -1.7122023 2.3757644 29.5
1.0124472 2.2114458 2.389106 26.4
1.0504929 -1.6848754 2.4208524 30
1.0397327 1.9794459 2.590199 29
1.0165787 2.0886068 2.5253756 28
1.2793989 -2.6688082 -0.16250315 2
1.3769145 -1.6557541 -0.15927204 1
1.5596683 -1.5463898 -0.15724957 1
1.2814512 -0.56194478 -0.15405461 0
1.3403009 -0.21263632 -0.15418066 0
1.2982341 0.12281612 -0.15266162 0
1.5274082 0.64823884 -0.14966957 0.66666669
1.340364 0.99079633 -0.15305533 0.5
1.4856874 -2.5894852 2.3794007 23.333334
1.4261204 -1.6819996 2.3844714 28
1.3863865 2.2335289 2.3868549 25.333334
1.4642793 -2.5089734 2.5258367 24.666666
1.5706077 -2.3576181 2.5713155 25
1.4558666 -1.6589131 2.436254 28.666666
1.4611365 -1.4491831 2.5819163 30.285715
1.5920144 -1.1739397 2.5861628 31
1.5276005 1.486876 2.5873544 29.666666
1.3925445 1.7918164 2.5879357 28.555555
1.3945172 2.1581068 2.4704971 26.166666
1.7972196 -2.9448097 -0.083574258 3
1.9061768 -2.6709144 -0.14950955 2
1.9404099 -1.8253435 -0.078312844 2.5
1.8432631 -1.241275 -0.087629691 2
1.8418288 -1.0254818 -0.08631438 2
1.8390182 -0.52896404 -0.082163446 2
1.8060064 -0.21987377 -0.095847353 1.7142857
1.8190541 0.17831168 -0.089657508 1.9
1.7557276 0.42624119 -0.12598521 1.5
1.7738867 1.0688446 -0.14701866 1
1.8322952 1.8058273 -0.14660832 2
1.9524716 2.39205 -0.14918455 2
1.9109732 2.6142554 -0.095732622 2.5
1.8735321 2.844872 -0.037284233 3
1.8638866 -4.4584718 0.0070651737 3
1.9229307 -4.3506885 0.20392349 4.5
1.976724 -2.1128495 0.21262152 5.5
1.954697 -1.6900284 0.23365115 6
1.8895125 -1.2899215 0.21717119 6
1.8951951 -0.94816554 0.17467703 5.6999998
1.9176141 -0.61269343 0.2003163 6.2142859
1.8304847 -0.19751732 0.19932808 6.5
1.8249378 0.16605356 0.18478091 6.375
1.9650333 2.6260645 0.22321565 5.4000001
1.9007069 -4.3490806 0.53309083 6.5
1.9682539 -2.8652949 0.62011105 8.666667
1.9793743 -2.7914963 0.68046188 9
1.9588046 -2.1279311 0.63308465 9.8000002
1.9474233 -1.7154485 0.60383123 10.142858
1.9562689 -1.3042537 0.49405146 9.5
1.8678949 -1.0438464 0.67092532 12.428572
1.8436819 -0.53398883 0.54280001 11.571428
1.8192323 -0.20336953 0.43007335 10.333333
1.7995223 0.072916985 0.41700697 10
1.9548297 2.6350842 0.58887202 8.6000004
1.9784467 3.036931 0.70520067 9.5
1.9391868 -2.9147468 1.0025992 12
1.9563137 -2.1198759 1.0272999 13.4
1.9518684 -1.6821737 0.97040963 14
1.9676976 -1.4250503 0.99299783 15
1.9434029 -0.91576529 0.95221168 16
1.9351618 2.6188869 0.98302132 12
1.9663564 3.0559664 0.98236114 11
1.9540325 -2.8905435 1.2591884 13.5
1.9715358 -2.1256843 1.3122853 16
1.9735262 -1.6680967 1.3483897 18
1.9593002 -1.2767475 1.3403072 19
1.9320306 -1.0163471 1.378975 20.25
1.9529177 -0.64836425 1.4199246 21
1.9281461 2.6228225 1.3314915 15
1.9524177 3.0613091 1.4335238 14.5
1.9240195 2.9561007 1.7037052 16.5
1.8726585 -2.563844 2.3811407 22.5
1.8300323 -1.6533606 2.3916116 26.333334
1.9323583 -1.3813776 2.3874846 27
1.9340644 -0.98472184 2.3931153 28.333334
1.9266312 -0.609864 2.3918805 29.5
1.9424096 -0.22678511 2.3934815 29.666666
1.9627738 0.25826484 2.3951826 29.666666
1.944479 0.57435632 2.3953314 29.5
1.9795367 1.008644 2.3930004 27.5
1.8581936 1.4190907 2.394917 27
1.8425318 1.7945144 2.3882124 25.6
1.7626153 2.1591227 2.3872375 24.25
1.7763226 -2.5157948 2.4766986 23.4
1.847772 -2.2434924 2.5676119 24.75
1.755168 -1.6341021 2.4407306 27.333334
1.7756344 -1.3820361 2.5584662 28.666666
1.8283406 -1.0242174 2.5054274 29.5
1.8609394 -0.66145927 2.5251131 30.428572
1.8754184 -0.20051469 2.4497764 30.5
1.9328867 0.17883661 2.4790139 31
1.8718874 0.54574788 2.4408498 30
1.8318572 0.99711049 2.5447633 30
1.7727926 1.4133022 2.4831142 28
1.7253746 1.7275506 2.4615486 26.799999
1.6116357 2.133456 2.4739654 25.5
2.0153956 -0.76819283 -0.015095761 3
2.1269453 0.0099891312 -0.14199638 1
2.3051369 1.0582423 -0.14273129 2
2.0702896 1.4256463 -0.14327826 2
2.2051139 2.3407214 -0.040051073 3
2.0394788 2.5080287 -0.052689336 3
2.1411185 -2.093524 0.23862666 5.6666665
2.0753744 -1.6790414 0.22849831 5.8333335
2.0068102 -0.84013587 0.2138917 6
2.2423861 0.49217978 0.27824977 7
2.2096565 2.3370068 0.17781921 5
2.0409737 2.5117249 0.1791911 5
2.0073686 -2.8309648 0.52845258 8
2.0137641 -2.1107762 0.56262219 9
2.071944 -1.6486319 0.52914393 9.25
2.0166221 -1.4226974 0.61177617 10.5
2.327549 -0.30271223 0.78097165 13
2.2043607 2.3402216 0.58056581 8.5555553
2.0529609 2.5681732 0.56867719 8.5
2.0120487 3.0289264 0.63270932 8.5
2.0382583 -2.1179934 0.97295392 12.666667
2.0591738 -1.692082 1.1607176 16
2.0150414 -1.5114071 0.87125731 13.5
2.116852 -0.8340857 1.0340173 16
2.1394985 -0.75928074 1.0545719 16
2.227046 -0.17554763 1.0625859 16.6
2.2006257 0.17162241 1.0977055 17
2.2254636 2.3378778 1.0263799 12.5
2.0171046 2.6117549 1.0350382 12.5
2.0226963 -1.6656083 1.3432235 17.5
2.0081079 -1.287845 1.2708048 18
2.006026 -1.0887481 1.3140948 19
2.0338001 -0.65412068 1.3661731 20.5
2.1861579 -0.16633995 1.2524869 19
2.1635289 0.19290079 1.292016 19.5
2.220098 2.3442779 1.3981426 15.625
2.0936821 2.5528886 1.4711454 16
2.0064132 3.0410335 1.3867058 14
2.3025217 -1.8146422 1.9836912 21
2.2397599 2.3288169 1.7900394 18.5
2.0536587 2.5907226 1.6217988 17
2.0386887 -2.5258305 2.3735249 22
2.193306 -2.091475 2.2678359 22.5
2.2035854 -1.8066368 2.2904563 23.555555
2.1934075 -1.3578149 2.327651 25.333334
2.1286464 -1.0102223 2.3675928 26.799999
2.1777215 -0.61456734 2.3027737 27.181818
2.1286025 -0.3140527 2.3491368 28
2.003617 0.18907936 2.3905141 29
2.1425714 0.61050069 2.2508988 27
2.1234174 0.95958811 2.2689416 26.285715
2.1576276 1.3625095 2.211108 24.714285
2.0880761 1.7999475 2.214062 23.714285
2.1811249 2.1877577 2.1601243 21.571428
2.1455472 -1.2280059 2.4038172 26
2.0139771 0.17134622 2.4015138 29
2.0526075 0.60446966 2.4006894 28.333334
2.0150769 1.1263956 2.4023294 27
2.7592444 0.67739278 -0.15195803 2
2.5895784 2.3337157 -0.023579078 3
2.5194814 2.3300874 0.20350739 5.2857141
2.506084 2.3351665 0.56875986 8.1999998
2.5286775 2.335691 1.0512128 12.2
2.5495267 2.3423579 1.3510146 14.4
2.5264153 2.3424048 1.7963488 17.75
2.6435089 0.60639805 2.1829126 23.5
2.5108261 2.2624829 2.185921 20
2.9098997 0.95768017 -0.14695241 2
3.1798756 2.5512207 0.19424818 4.7142859
3.1718016 2.5409629 0.56996274 7.8000002
3.165992 2.4898314 1.0054681 10.5
3.1581903 2.4918671 1.3729669 13
2.9361219 2.3817825 1.922622 17.333334
3.1627593 2.4406776 1.7352231 15.5
3.1807137 1.2920182 2.1919696 20
2.9509723 2.376472 2.1067073 18.5
3.3561621 0.85331887 -0.015941452 3
3.3198752 1.2780013 -0.0069410047 3
3.4343233 1.7422003 -0.053951036 3
3.4103401 2.1729345 -0.059480388 3
3.258158 2.4012833 -0.070013516 3
3.3607118 0.99100357 0.19456303 5.0714288
3.332397 1.3581367 0.21732837 5.25
3.4760377 1.8330969 0.22122556 5
3.3967919 2.2318885 0.20928887 5
3.2363787 2.429292 0.20514818 5
3.4025598 0.62601888 0.67946804 9
3.3678603 0.97625232 0.55544019 8
3.3239675 1.3880794 0.57908988 8
3.4711258 1.8089676 0.59631455 8
3.3968508 2.2288327 0.59670836 7.8333335
3.2398198 2.4683905 0.56093615 7.5
3.3915536 0.70888227 0.98766589 11.666667
3.3537993 0.98484945 0.97903252 11.333333
3.3423176 1.3916496 0.95600152 11
3.4965227 1.8118148 1.0292398 10.857142
3.392545 2.2380586 1.0440999 10.777778
3.2273798 2.4921737 1.0286406 10.75
3.3866055 0.6276201 1.3988847 15
3.3370035 1.0449892 1.4098108 14.75
3.3599067 1.4371681 1.383932 14.125
3.4941552 1.7898685 1.438856 14
3.4030495 2.2080431 1.4331828 13.5
3.2956448 2.4507494 1.5176518 14
3.3959816 0.66419089 1.821553 17.833334
3.3816092 1.0581301 1.8665619 17.75
3.3601928 1.3538095 1.8203756 17.200001
3.4491599 1.8362519 1.7894617 16.166666
3.345576 2.2506993 1.8232579 16
3.2546999 2.4226921 1.6947339 15.5
3.3797851 0.64254677 2.1099515 19.799999
3.3135471 1.0257833 2.130893 19.5
3.3379886 1.2931103 2.0895591 19
3.3833954 1.8300449 2.0470417 18
3.2499378 2.2423158 2.0779591 17.5
3.3070331 2.4005041 2.176991 18
