# .PCD v0.7 - Point Cloud Data file format
VERSION 0.7
FIELDS x y z intensity
SIZE 4 4 4 4
TYPE F F F F
COUNT 1 1 1 1
WIDTH 573
HEIGHT 1
VIEWPOINT 0 0 0 1 0 0 0
POINTS 573
DATA ascii
-13.742319 -29.447449 15.926702 17
-13.512157 -29.420488 15.740687 17
-10.863855 -6.5492988 -0.078281894 3
-9.6102104 -6.4359941 1.3357661 7
-9.6675329 -6.4276066 1.6618679 8
-9.6000977 -6.4766526 2.1924129 9
-9.6014481 -6.4751678 2.5164411 10
-9.6107807 -6.48773 2.8433366 11
-9.7101784 -6.497263 3.2802787 12
-9.5657759 -6.3618031 -0.093593173 3
-9.515975 -6.4653378 2.9415412 11
-9.3255072 -6.4266472 3.2768958 12
-9.411231 -6.3528204 3.9386458 13
-8.8245258 -6.2625761 0.053235929 4
-8.8793955 -6.3196716 0.94373614 6
-8.9795141 -6.3758378 2.0892668 9
-9.0148191 -6.3903823 2.4061475 10
-9.0999775 -6.4098392 3.0865064 12
-8.9223433 -6.3683639 2.8063574 11
-8.4796104 -6.2164569 -0.13441016 3
-8.6328583 -6.2576342 0.23224631 4
-8.7201691 -6.2927461 0.60694414 5
-7.6248479 2.7315028 3.8550122 17
-7.6431904 -18.181837 4.137907 10
-7.2550359 0.64923882 0.21912706 4.3333335
-7.2986822 0.98453367 0.2820929 4.4000001
-7.3079624 1.0158534 0.65049976 6
-7.2896724 1.1114466 0.94220102 7
-7.2688475 0.55576313 1.4156955 9
-7.3055553 1.0016412 1.2802553 8.5
-7.3621731 1.5153927 1.4335722 9
-7.4298158 1.9021055 1.4372245 9
-7.4624257 2.156821 1.4595944 9
-7.5158367 2.6593401 1.5213482 9
-7.5368991 2.9936011 1.5843389 9
-7.278966 0.67423111 1.807138 11
-7.3000226 0.90313286 1.7449127 10.5
-7.4004774 1.465585 1.7382534 10
-7.4278722 1.8954155 1.8401933 10.5
-7.475975 2.2231984 1.8342787 10.333333
-7.5291123 2.6230633 1.7252454 9.75
-7.5533428 2.9259553 1.7434983 9.75
-7.2505875 0.54626417 2.0116658 11
-7.3598256 1.4431249 2.1871631 11.5
-7.4051223 1.8697572 2.2705743 11.666667
-7.4422245 2.1857953 2.3822823 12
-7.4965711 2.5901148 2.0083575 11
-7.522656 2.9348278 2.1240647 11.333333
-7.5172091 2.356071 2.5326347 12.5
-7.4972076 2.5378683 2.5882623 12.666667
-7.5532551 2.9562011 2.7326601 13
-7.5304327 2.947345 3.0046334 14
-7.5770669 2.6939337 4.1648588 17.5
-7.4006815 -17.783918 4.5257654 10
-7.3906322 2.2906744 4.5279107 19
-7.3065019 2.5463364 4.5255456 19
-7.2775598 -17.658627 4.9479299 11
-7.2739902 -17.742102 5.4220757 12
-7.215343 -2.6225314 7.8464179 27
-6.9611273 3.1230965 1.4962946 9
-6.9780726 3.1592584 1.8179568 10.5
-6.9557266 3.1107981 2.3632498 12
-6.94489 3.0857236 2.5781405 13
-6.8335209 3.0189421 3.5659015 17
-7.0762467 -17.875681 4.6613607 11
-6.9093432 -2.6774147 7.5560355 27
-7.0891743 -2.6564987 7.8051653 27.75
-6.6535487 -5.930316 -0.18817179 2.6666667
-6.4281263 -2.9923079 -0.2009811 3
-6.4710588 -2.661346 -0.19498548 3
-6.6423368 -5.9417429 0.21456018 4
-6.4296227 -2.9489186 0.29343554 5
-6.4799776 -2.668447 0.23271483 4.5
-6.670548 -5.9445362 0.42805928 5
-6.4515004 -2.9603395 0.68684322 6.5
-6.4843411 -2.6869335 0.59864485 6
-6.7327161 -5.9318137 1.0642511 7
-6.4590101 -2.719847 1.0738708 8
-6.6330209 -6.0237994 1.3227841 8
-6.7659149 -5.9370689 1.273226 8
-6.4926467 -2.7559423 1.3987188 9.5
-6.671412 -6.0622535 1.7354397 9
-6.6697502 -5.99617 1.9761137 10
-6.4739704 -2.8300936 1.6905639 10
-6.4872441 -2.7129562 1.7531209 10.5
-6.6685858 -5.9875088 2.2642128 11
-6.4578481 -2.7802322 2.0645344 12
-6.7058024 -5.9939485 2.4951801 12
-6.4956388 -2.7361712 2.4014356 13
-6.5591345 -0.48090222 3.522934 18
-6.4383459 -3.4161704 3.9142613 18
-6.560185 -0.48992589 3.761373 19
-6.7615919 3.0189543 3.7939448 18
-6.4054899 -3.4219351 4.0202127 19
-6.6487064 3.046164 4.2121387 19
-6.467432 -1.2540057 6.6627741 27
-6.5031581 -2.9138808 6.8690014 27
-6.4734092 -1.302945 6.8558836 28
-6.4942336 -1.1614987 6.853004 28
-6.5316792 -0.73356664 6.8368139 28
-6.2713771 -6.3946624 -0.085274145 3
-6.3742509 -3.4089615 -0.11383626 3
-6.1026535 -0.2894057 -0.14821267 3
-6.2596817 -6.5092368 0.28306773 4.5
-6.2887516 -6.3330011 0.19337906 4
-6.3466601 -3.6420126 0.28798348 5
-6.3641067 -3.41346 0.22213319 4.5
-6.2771935 -3.1048741 0.21301654 4.5
-6.0249381 -0.96775758 0.20672266 4.5999999
-6.0650024 -0.61301005 0.17612253 4.5
-6.1039629 -0.3397513 0.14292219 4
-6.0313678 2.310796 0.35192046 5
-6.2556529 -6.6638665 0.41349444 5
-6.2910099 -6.3701921 0.45501563 5
-6.3786387 -3.4236476 0.5102998 5.5
-6.332016 -3.0869393 0.58219236 6
-6.3921366 -2.7904165 0.79290617 7
-6.0337982 -0.91734785 0.52230805 6.1666665
-6.0671597 -0.59824008 0.58761591 6.5999999
-6.1143827 -0.34396794 0.62572944 6.5
-6.057786 2.3060119 0.65971524 6.3333335
-6.0444684 2.4279728 0.71750158 7
-6.2742853 -6.5132403 0.81856489 6
-6.372201 -3.6541858 0.83289289 7
-6.3683195 -3.4116495 0.91418087 7.3333335
-6.3605804 -3.015573 1.0070283 7.6666665
-6.0418439 -1.2500696 1.1234008 9
-6.0189562 -0.99080646 0.94419116 8
-6.0539117 -0.60885078 0.85711712 7.3333335
-6.0209951 1.5378567 1.0177987 8
-6.3493929 -3.6384521 1.4690673 9.5
-6.3378968 -2.8934119 1.4800055 10
-6.0062494 -1.3472269 1.440134 10.5
-6.0499301 -0.99960834 1.4125028 10.333333
-6.0690384 -0.64295822 1.5291991 11
-6.3328261 -3.6629796 1.8698512 11
-6.3754025 -3.5296974 1.9731168 11
-6.3577142 -2.8788857 1.8166488 11
-6.0360293 -0.89823753 1.7312471 11.5
-6.0611062 -0.59652609 1.666567 11
-6.3225379 -3.6273494 2.0571959 12
-6.3496041 -3.5850055 2.1446018 12
-6.3399587 -2.896498 2.0384994 12
-5.9858217 -5.9827552 -0.35731018 2
-5.9302545 -1.7771599 -0.054002807 3
-5.9509549 -1.5085192 -0.1417314 3
-5.8871818 -2.102376 0.13885176 4
-5.9180317 -1.8192794 0.19801871 4.5
-5.9694586 -1.4019313 0.19565704 4.5
-5.9156814 1.4720112 0.23149589 4.5
-5.6128402 1.7203648 0.31513152 5
-5.893857 -2.1019351 0.58095098 6.25
-5.9338694 -1.7830346 0.5171029 5.8571429
-5.9804401 -1.3670741 0.53078449 6
-5.9998307 -1.1209288 0.67596263 7
-5.9426503 1.5276684 0.61354792 6.5
-5.7468648 1.6877806 0.57218194 6.3333335
-5.7600508 2.9427569 0.62346858 6.25
-5.8961573 -2.1278851 0.95998698 8
-5.9340372 -1.810582 0.97123808 8
-5.9708109 -1.4114635 0.95674491 8
-5.6552644 1.7412472 0.89322072 7.5
-5.7425342 2.8888161 0.89586383 7
-5.9031634 -2.1230333 1.4037941 10
-5.9555283 -1.7647175 1.447265 10.25
-5.9901795 -1.4079891 1.4743035 10.333333
-5.9030676 -2.0994635 1.7506826 11.5
-5.9524002 -1.6613604 1.792042 11.5
-5.9676414 -1.3935623 1.7882847 12
-5.5022693 -11.456244 -0.24275808 3
-5.4405975 -10.233685 -0.38702542 3
-5.4211597 -8.8988914 -0.34806859 3
-5.35569 -5.8826952 -0.32479638 2
-5.2069635 0.74308807 -0.12330814 3
-5.5556774 1.0886202 0.058539595 4
-5.5929222 1.7087961 0.42708555 5
-5.3564072 3.32618 0.5615803 6
-5.302897 3.3604338 1.037408 8
-5.3078079 3.4273844 1.3118465 9.5
-5.2934546 3.4796195 1.7160621 11.5
-5.0775065 1.5420718 0.1305732 4
-4.9888639 -7.0193424 2.2831781 11
-5.0160584 -6.5638976 2.1853213 11.25
-4.935039 -7.0569258 2.4137311 12
-4.8587246 3.3073385 3.0330062 17.5
-4.9411044 3.2912748 3.3389225 19
-4.7135944 -5.7497959 -0.38304546 2
-4.4256268 -6.139513 0.24776801 4.3333335
-4.5657578 1.6119435 0.10835874 4
-4.4494748 -6.4371066 0.73954183 6
-4.5090828 -6.1614819 0.60548896 5.5
-4.769577 -5.9653153 0.70682967 6
-4.4578104 -6.4174237 1.0017715 7
-4.6476254 -6.1500187 0.99640977 7.25
-4.6407537 -5.9097729 1.4853077 9
-4.781918 -7.1423435 2.2556458 11
-4.792057 -7.1788421 2.4212852 12
-4.200316 -8.808836 -0.47779155 2
-4.3947606 -10.310824 -0.00029442439 4
-4.2628789 -6.3588071 -0.041910563 3
-4.2692723 -5.7279477 -0.36531138 2
-4.3041453 0.86234862 -0.10574774 3
-4.3581581 -10.307324 0.27570206 4
-4.3223224 -6.2547102 0.27377135 4.5
-4.3186092 -10.266622 0.53108436 5
-4.3125067 -6.5589323 0.7470938 6
-4.2880268 -10.266358 0.83005702 6
-4.3697686 -6.5256553 0.98652738 7
-4.2482452 -10.300694 1.407166 7
-3.8609519 -9.1467304 -0.50686347 2
-3.730396 -2.4367979 -0.2428906 2
-3.6792123 -2.1637733 -0.23420623 2
-3.6297991 -1.8072712 -0.22424826 2
-3.8181369 1.0529983 -0.095665112 3
-3.7261806 3.5017672 0.36182281 5
-3.7571273 3.4930058 0.54054487 6.5
-3.6703494 3.5015075 0.94032031 8.5
-3.6648617 3.4955688 1.424553 11.5
-3.7001801 3.4838037 1.7850182 13.5
-3.6239789 1.6211218 4.1751752 28
-3.7677619 2.2178876 4.5356498 27.5
-3.2393904 -2.3818111 -0.23758595 2
-3.3284361 -1.3423508 -0.20731497 2
-3.3156898 -0.95843601 -0.19952536 2
-3.3727255 1.2805319 -0.084476806 3
-3.467864 3.540554 0.35185763 5.5
-3.4134912 3.5501802 0.56577653 7
-3.4607265 3.5310991 0.99489123 9
-3.3885641 3.5274823 1.3922017 11.666667
-3.3742101 3.516588 1.7126646 13.333333
-3.497931 1.5748227 4.2750354 29
-3.3933773 3.0955038 4.5607762 27
-3.2606769 3.3673892 4.5666823 26.333334
-3.1648252 -2.6790369 -0.24718978 2
-3.0135114 1.4256887 -0.027412642 3
-3.0991881 3.583427 0.34759712 5.5
-2.90747 3.6164954 0.28250584 5
-3.167347 3.5815377 0.55215371 7
-2.9236977 3.6117713 0.61199945 7.5
-3.0413802 3.5876608 0.88674659 8.666667
-2.9238615 3.6041706 0.91197801 9
-2.891042 3.5958557 1.4656097 12.333333
-2.9169981 3.6030331 1.2249733 11
-2.9718084 3.5540264 2.2798512 17
-2.9922512 3.5518639 2.5146027 18.5
-2.9446464 3.5528686 3.1498373 21
-2.9936221 3.5424311 3.3360124 22
-2.9633656 3.5294147 4.3342824 26
-2.9927604 3.4368885 4.5455089 26.6
-2.53532 -10.17059 -0.27179286 3
-2.5304346 -3.9389796 -0.29277822 2
-2.5308361 1.047945 -0.14901891 2
-2.7386701 1.459998 -0.025029402 3
-2.5544813 1.8811038 -0.019993639 3
-2.601496 2.2289934 -0.017126707 3
-2.5834658 2.5589509 -0.013415916 3
-2.567812 3.6581357 0.306566 5.1999998
-2.6946909 3.6395051 0.62064832 7.5
-2.73892 3.6255019 0.88746345 9
-2.7069907 3.5908618 2.3383546 17.666666
-2.5218565 3.6232347 2.2466037 17.333334
-2.7008848 3.5887911 2.5013463 19
-2.5321901 3.609309 2.4568224 19
-2.7495115 3.5694249 3.3373158 22.5
-2.7411609 3.5190232 4.5263376 27
-2.2570217 -4.1097112 -0.2970534 2
-2.2906148 -2.0297863 -0.22972809 1
-2.2865608 -1.7529197 -0.22330427 1
-2.2197704 -1.3860064 -0.21051571 1
-2.180644 1.0790322 -0.14327146 1.5
-2.1167693 1.4040648 -0.11383694 2
-2.2720976 2.6067166 -0.017260693 3
-2.1418908 -6.1817055 0.16669174 4.3333335
-2.1945946 3.7048082 0.2851195 5.1999998
-2.1213083 -6.2219071 0.50624633 6
-2.1539595 3.6991901 0.66540051 8
-2.082989 -6.1137362 0.81234056 7
-2.183079 3.6943645 0.83299422 9
-2.3052733 3.6509564 2.2609503 17.799999
-2.3212683 3.645916 2.4117987 19
-2.0966516 3.3853192 4.3354735 28
-1.6806906 -2.0822113 -0.22667442 1
-1.7817719 -1.8301501 -0.21974829 1
-1.8453279 -0.69078803 -0.18102448 1
-1.7305107 0.69903278 -0.15623544 1
-1.9039762 1.4767952 -0.13436024 2
-1.7382207 1.7112907 -0.13397838 2
-1.9537104 2.5807862 -0.11138311 2
-1.607172 2.9597304 -0.069454916 3
-1.6840551 -6.4919395 0.10555996 4
-1.7943752 3.7513061 0.2464035 5
-1.827302 -6.2559671 0.68885607 7
-1.8230603 3.7420096 0.68305755 8.1999998
-1.7524625 -6.2506204 0.87728351 7.6666665
-1.7916793 3.7405837 0.81787533 9
-1.8358928 3.7165926 2.1786518 17.833334
-1.7301973 3.8304665 3.8449576 25.333334
-1.6559434 3.705369 4.0804281 27
-1.597813 -2.2888424 -0.23359199 1
-1.3356497 -0.96842492 -0.19714026 0
-1.4189638 1.0591342 -0.15939572 1
-1.2680362 1.2468491 -0.15489478 1
-1.5889845 1.8902793 -0.13261682 2
-1.5019253 2.8028548 -0.084924839 2
-1.4218915 3.3907869 -0.094546683 2.3333333
-1.4101572 3.8009758 0.24192259 5
-1.4072219 3.7929101 0.6725328 8.125
-1.5504625 3.7514505 2.1980944 18.5
-1.3825139 -2.701571 2.8639944 26.5
-1.3008552 3.8749337 3.8126352 26
-1.3021379 3.7506866 4.0929155 27.5
-1.0255151 -2.9598064 -0.19417456 2
-0.83278257 -2.5422509 -0.24713896 1
-0.96347618 -2.2168972 -0.23491104 1
-1.0805148 1.172927 -0.15504827 0
-1.0398698 1.3740516 -0.15105791 0.60000002
-0.95335096 1.9943537 -0.1362998 1
-1.0465158 2.1892726 -0.13275112 2
-1.0829717 3.8207932 -0.088949494 3
-1.0104548 3.8486757 0.21860996 5
-1.0113462 3.8422346 0.64419049 8
-0.87323111 3.8414943 1.2948309 13
-0.83794093 3.8399363 1.9647825 17
-0.83444053 3.8447978 2.0257874 17.5
-1.1169429 -2.527571 2.981245 28.333334
-0.98612708 3.9450445 3.7853625 25.666666
-1.0210005 3.7895668 4.0706391 27.5
-0.77864355 -3.6692684 -0.11135218 3
-0.5619213 -3.4931436 -0.055987984 3
-0.76891285 -2.8306632 -0.177413 2
-0.51792377 -2.6987216 -0.18765715 2
-0.6425215 1.4958528 -0.14602086 0.66666669
-0.50504398 1.7757821 -0.13696131 1
-0.64798856 2.6244171 -0.12613891 2
-0.67896408 3.8937588 -0.058331918 3
-0.61053663 3.9018345 0.2156042 5
-0.61714119 3.8901727 0.64902514 8
-0.61603057 3.8776698 1.1635243 12
-0.61765939 3.8793547 1.2863045 13
-0.74545437 3.8550949 1.956688 17
-0.67098224 -2.2363381 2.0691645 25.6
-0.61503303 3.8715749 2.1262054 18.5
-0.6471312 3.9576335 3.7988262 26
-0.65650457 4.023241 3.750896 25.5
-0.61468047 3.8460019 4.0769906 27.5
-0.020534096 -2.8233895 -0.071287431 3
-0.23573546 -2.5630329 -0.19292314 1.5
-0.21400312 1.651332 -0.14031139 1
-0.29148066 2.6839497 -0.11819275 2
-0.17375319 3.3128417 -0.1041475 2
-0.17166688 3.9409785 -0.056245219 3
-0.085958123 -2.814172 0.1009877 5
-0.067843154 -2.7518728 0.12381514 5
-0.22222503 3.9483175 0.23102444 5
-0.21272054 3.9393349 0.65651232 8
-0.39200726 -3.7441928 1.0144281 11.5
-0.18044463 3.9376826 1.0114151 10.8
-0.080062717 -2.6650615 1.2425897 17
-0.23312107 3.923882 1.2563431 12.5
-0.10610375 3.9394817 1.9484056 17
-0.31652078 -2.3038001 2.0628152 25.666666
-0.10514808 3.9373732 2.1414003 18.5
-0.16041605 4.0991406 3.7542336 25.6
-0.1587308 3.90484 4.0904684 27.5
0.14900957 -2.4640563 -0.13357757 2
0.23948444 -2.3013623 -0.17632842 1.5
0.13231114 1.5424111 -0.14043884 0.33333334
0.24683475 1.635494 -0.13865374 1
0.15982072 2.2976801 -0.12211931 2
0.39393821 3.9516294 -0.077882782 3
0.04170008 -2.8367238 0.13175599 5
0.2701337 -2.6296442 0.28710359 7.1111112
0.13927603 3.9880979 0.2100378 4.8000002
0.32020375 4.0122752 0.21834366 5
0.10223982 -2.9652903 0.70646101 10.666667
0.19701673 -2.6145613 0.64646095 11
0.17396486 3.9870195 0.67670655 8.333333
0.34279433 4.0151248 0.68747842 8.333333
0.094546206 -2.9910128 0.80371767 12
0.1856173 3.9849043 1.0050179 10.5
0.32434019 4.0102239 0.83433408 9
0.15904976 3.9724395 1.2662879 12.5
0.35037738 4.0025105 1.2992778 13
0.19947369 3.9728158 1.962642 17
0.22716635 3.9839399 2.1497495 18.4
0.17013569 3.9699411 2.7645187 21
0.25184312 3.9738617 3.0020585 22.666666
0.039130576 4.1019826 3.7459683 25
0.11026043 3.940511 4.1225648 27.5
0.59525317 -2.1202574 -0.16643587 1.6666666
0.50831836 1.5695753 -0.13618106 1
0.73812068 1.6807944 -0.13168137 1
0.59940606 2.2094753 -0.060873982 2.5999999
0.71518326 2.856318 -0.10314583 2
0.69032586 4.0160217 -0.076767504 3
0.42926139 -2.5491226 0.086407021 5
0.6607244 2.1885934 0.18015079 5.5454545
0.57845086 4.0460691 0.22986096 5
0.69031721 -2.7444375 0.7041766 11
0.64256471 2.0405185 0.64560622 12
0.57488042 4.0378351 0.71899158 8.5
0.51275694 4.0352578 0.84706283 9
0.66559845 -2.701194 1.3313668 17
0.61755461 4.0313139 1.337463 13
0.63515383 4.0332971 1.9388546 17
0.5945012 -2.487654 2.2054036 25.333334
0.59194559 -2.0851698 2.3713117 28
0.61476409 4.030735 2.1520097 18
0.5421415 -2.4128985 2.5316341 27
0.53166813 -2.2709157 2.5420926 28.666666
0.45258236 4.0053587 2.7911143 21
0.45054024 3.9920437 3.0023458 22.5
0.542009 4.0099435 2.9456391 22
0.8622219 -3.7404773 -0.12473767 3
0.99508494 -1.9064761 -0.1879739 1.3333334
1.1573451 1.0944223 -0.13798267 1
1.0308793 1.8309978 -0.12624435 1.5
1.0417224 2.1900589 -0.10540809 2
1.045298 -3.3951416 0.09322644 4.5
1.1159515 3.1360021 0.0067033321 3
0.921911 4.0858045 0.23999552 5
1.1099882 -1.9192477 2.4470966 28.5
0.99250424 3.8766344 4.3496571 28
0.99469155 4.0613809 4.1939611 27
1.4088407 -1.6961757 -0.15030959 2
1.4680628 -0.81312716 -0.21466564 0
1.5261064 -0.63075739 -0.21111998 0
1.3765142 0.90907747 -0.13847683 1
1.2898455 3.153882 0.011480987 3
1.5889866 -1.8574996 0.68809861 12
1.5450666 -3.4366498 1.0248022 11.666667
1.3427931 3.9332325 4.3455167 27.333334
1.3572636 4.0856457 4.1750536 26.5
1.8220621 -3.9704812 -0.16261734 3
1.6047009 -3.502624 -0.20351645 2
1.9891472 -2.2598433 -0.063029893 3
1.8963385 -1.5040025 -0.13689375 2
1.8843739 0.2540434 -0.15682 1
1.6772269 0.61740112 -0.14262713 1
1.7401407 1.4320823 -0.12923713 2
1.6357038 2.4692698 -0.12373725 2
1.6026932 -1.867232 0.67032111 11
1.8081722 -1.2255594 2.1672347 26.5
1.8821205 -1.05495 2.237407 27.333334
1.9104267 4.0994453 2.3158324 17
1.8916836 4.0515943 2.4837966 18.5
1.8622838 3.9882109 4.384757 27
1.8273714 4.1135664 4.2015886 26
1.6549101 3.9533231 4.4060402 27
2.0902748 -4.013988 -0.033371624 3
2.2099621 -3.802372 -0.037292432 3
2.0377543 -2.5347297 -0.07593824 3
2.2948809 -1.9398352 -0.092680931 3
2.2303519 -1.4734482 -0.088818073 2
2.2259305 -1.0160918 -0.17757289 1
2.216028 -0.79869974 -0.17478643 1
2.2974782 -0.10637547 -0.16913515 1
2.0827031 0.0059934384 -0.16748948 1
2.1745391 2.1554117 -0.12643412 2
2.1971323 2.8254683 -0.11603533 2
2.0866733 3.5184941 -0.092184804 3
2.302592 4.1603308 1.4951282 12.666667
2.3073759 4.1849027 1.7268203 14
2.1262043 -0.9149757 2.1957772 26
2.193758 4.2176223 3.3020415 21.5
2.7664764 -1.3734611 -0.0073258951 3
2.713475 -1.1111761 -0.12470146 2
2.4572647 -0.75568557 -0.17328005 1
2.7514899 1.1254541 -0.15531017 2
2.7057719 1.4409785 -0.13561352 2
2.5461121 1.6814635 -0.13467756 2
2.4353938 2.2041812 -0.12762129 2
2.4246595 3.2820756 -0.060889572 3
2.6707261 3.9882889 -0.073465638 3
2.7146144 -1.9837252 0.019391352 3
2.748965 -1.3371156 0.16050316 5
2.7680893 -1.2039486 0.52624023 8.5
2.664438 4.2985229 1.5024145 12
2.6658292 4.2339625 1.729833 13.5
2.5676229 -0.62629253 2.5020068 26.333334
2.9678428 -1.9630904 -0.053220052 3
2.9694512 -0.98410898 -0.13513738 2
3.0940871 0.5979622 -0.17012629 2
2.8817275 0.9410398 -0.15907089 2
2.839597 1.3447052 -0.13958016 2
3.0175707 3.0093813 -0.026779778 3
2.8866487 3.3407197 -0.091892861 3
2.9524498 -1.2037821 0.044504005 4
3.0270636 2.9448988 0.16392279 4.5
2.9643023 3.4419363 0.18997665 4.5
2.9574652 3.6789145 0.30681965 5
3.18348 2.5987842 0.58738494 7.5
3.0288961 2.9254885 0.41816005 6
2.9586747 3.4233027 0.44559297 6
2.9353328 3.7022877 0.61687052 7
3.1624365 4.3660159 1.5172578 11
3.1290877 4.3253293 1.7805934 13
3.1891441 -0.63025874 2.1150539 21
2.9553387 -0.41974825 3.2748215 28.5
3.5190086 -1.0670049 -0.00075531064 3
3.5828683 -0.52484471 -0.18413995 2
3.4411469 -0.17020428 -0.18036696 2
3.3571641 0.23949935 -0.18012941 2
3.2334545 2.9401453 -0.015030766 3
3.5144517 -1.0713912 0.18427129 5
3.2639294 2.6735003 0.23922744 5
3.3191648 2.5824585 0.63900697 7.8000002
3.4535811 -5.6411428 0.88661885 7.5
3.3059185 2.5837803 0.95311642 10
3.4402578 -5.7017174 1.3888886 9.5
3.3429413 4.3880038 1.5490251 11
3.3410351 4.3442521 1.8362318 13
3.5093908 4.4069991 1.7308134 12
3.5094273 4.3950729 3.0438011 18
3.5665548 4.4130907 3.0347412 18
3.8311467 -1.5929644 -0.04749769 3
3.6289215 -1.0615469 0.15112625 4
4.1172428 -0.41869172 -0.078807071 3
4.5048513 -0.67426056 -0.082067847 3
4.4555655 -0.24369392 -0.090548389 3
4.6201386 2.4454012 -0.11812168 3
4.6673875 3.1110454 -0.069230914 3
4.5097508 -0.51599002 0.20660457 4.5
4.4896102 -0.52267575 0.40338925 6
4.8699479 2.3010263 -0.1302029 3
5.4369025 -0.0012556014 0.20935714 4
6.6356006 0.61723346 0.05743622 3
6.7434435 4.8028979 2.4983513 12
6.7069769 4.7807493 2.9173787 13.5
7.0828815 -0.041025117 -0.050119165 3
6.9997792 1.0570941 -0.10456057 3
7.9862313 1.5758913 -0.12677379 3
8.1973982 3.3639174 0.18833704 4
8.196166 3.2630429 0.66489339 5.5
8.2239342 3.1741323 1.1074313 7
8.1897621 3.2298412 0.87741637 6
8.7787857 1.5567876 0.59696567 5
8.7289276 1.5488762 1.1169968 7
8.8697338 1.542967 0.23145391 4
8.8739491 1.5232517 0.86598492 6
9.4807577 2.318507 -0.15237372 3
9.2490234 2.7571654 -0.10775214 3
10.291121 2.5301425 0.92903048 6
10.337137 2.6149259 1.3399121 7
10.443048 2.5977128 0.72588581 5
10.48335 2.594172 1.7958732 8.5
14.454843 4.2976398 0.35532129 4
17.738022 8.4732876 0.28547421 4
18.239347 9.7467308 0.24409707 4
18.770479 8.0189085 3.5337961 8
18.692654 7.8183303 3.8389037 9
18.93111 8.3806486 2.6026025 7
38.38419 23.323578 4.4870214 6
38.404846 23.361122 2.0810182 5
38.548149 23.113007 3.114773 5
38.607239 23.057266 3.4146912 6
38.66246 22.777754 4.0035319 6
41.140163 22.451155 8.1320772 8
40.974949 23.038862 8.6183844 9
41.112316 22.55761 9.3791246 9
41.121422 22.515244 9.937108 10
41.118191 21.681351 12.598929 11
41.12952 21.412914 13.888875 12
41.098026 22.630981 14.072154 12
41.189838 21.238506 15.188795 13
41.141487 21.981281 15.109966 13
40.858742 22.129364 17.744251 14
41.201454 21.330795 7.1888056 8
41.267803 21.434393 9.3457623 9
41.209694 21.892094 9.878891 10
41.443329 20.215532 15.095479 13
41.200123 21.099176 16.530766 14
41.297016 21.439083 16.541727 14
