# .PCD v0.7 - Point Cloud Data file format
VERSION 0.7
FIELDS x y z intensity
SIZE 4 4 4 4
TYPE F F F F
COUNT 1 1 1 1
WIDTH 91
HEIGHT 1
VIEWPOINT 0 0 0 1 0 0 0
POINTS 91
DATA ascii
-22.766354 -4.0172343 0.45232868 4
-7.6821265 5.6949124 0.45927656 5
-6.9760528 -14.248666 16.933626 28
-6.2599778 -12.221295 9.4156113 21
-5.2317581 5.691205 0.13283721 4
-5.3998652 5.6008639 0.35245246 5
-3.7472386 -12.786764 8.9435997 21
-3.3818104 -1.1209782 0.054090016 4
-3.371264 4.6176219 0.23556665 5
-2.9466588 -1.2138886 0.26535699 6
-2.9094703 -1.1980766 0.20942865 5
-2.669591 -1.2525487 0.074141517 4
-2.6341064 -1.2177049 0.49217951 8.5
-2.4472263 21.23637 13.845606 21
-2.0940778 -1.3127923 0.15427411 5.5
-1.9888163 -1.3044126 0.35604417 8
-1.9920496 -1.3062301 0.43203917 9
-1.7754143 -1.3549513 0.14872472 5.5
-1.517143 3.9123564 0.15193145 4.5
-1.4137881 -1.3886653 0.30782011 8
-1.4018869 -1.3879336 0.60585505 13
-1.2273197 -1.4221803 0.29594594 8
-1.2376904 -1.4182752 0.4584069 11
-1.1141511 -1.4605552 0.13238017 5.5
-1.07679 -1.4374164 0.39394248 10
-0.84047896 -1.4595076 -0.038751353 2.5
-0.87375194 -1.4673436 0.020659762 4
-0.88471931 -1.4684989 0.34062964 9
-0.86162883 -1.4499623 0.5506596 13
-0.74050486 -1.4786595 -0.10486918 1
-0.44349506 -1.5690763 0.78744137 17
-0.38901553 -1.5515873 -0.10441396 1
-0.33798009 -1.5479654 0.1140217 5.5
-0.36092785 -1.5444988 0.27967632 8
-0.16413945 -1.5848337 0.15355957 6
-0.13841119 20.863501 9.0946054 16
0.055008311 -1.6165141 0.10818129 5
0.046318229 -1.6006665 0.23820496 8
0.11097775 -1.6241882 0.4666234 11.5
0.18912606 20.743855 19.182367 26
0.4953419 20.856667 5.8878107 12
0.83436614 4.2153602 0.18163584 5
0.8427636 -2.4140429 0.271936 6
0.95621258 -2.3268509 0.34248155 7.5
0.83519644 4.1884985 0.3526634 6
0.89652067 -2.3255823 0.50500333 9.5
0.89202195 -2.2941537 0.61003572 11
0.96802241 20.711639 3.2238262 8
0.86994499 -13.420591 6.3822012 17
1.1943549 -2.4773803 0.14176147 5
1.1654642 4.0788126 0.08929269 4
1.1779283 -2.4339886 0.28930953 6.5
1.0264552 -2.2828698 0.57400304 10
1.5634998 -13.579856 10.934663 24
1.7344323 4.0063052 0.36715069 6
1.7317315 -13.580857 5.6225753 15
1.7245896 -13.31428 11.68484 25
1.6454514 20.373789 21.453419 28
1.9002482 4.0650868 0.30230647 5
2.0361621 -13.522771 5.9234867 16
2.3149006 -13.638994 5.383244 14
2.507324 -2.3210785 0.8337912 10.5
2.6492665 -2.0628142 0.88407469 11
2.7094195 -13.600055 5.9591184 15
2.7647824 -13.49029 11.026206 24
3.04843 -1.9772428 0.26817188 5
3.1150711 -1.9552492 0.4311969 7
3.4532394 -15.811978 4.2106314 11
3.7049527 -15.829194 3.5465226 10
3.8348534 -15.966348 2.6563406 8
3.8711054 -15.954581 2.9753399 9
5.4030557 3.236541 0.28500178 5
5.4408555 3.2956033 0.48600763 6
5.7268777 23.143526 21.425428 25
6.0439591 22.640985 22.564369 26
6.5179482 9.3347979 4.2490172 14
6.7735248 -16.108017 14.888473 25
10.294771 2.447747 0.79148287 5
10.234393 2.1588044 0.97134906 6
10.36517 4.1076345 1.036021 6
10.344643 2.9057837 1.3016706 7
10.387741 4.2806993 1.3710586 7
10.311066 3.5308752 1.9388725 9
11.029271 8.5219269 2.9430676 9
11.068745 21.817078 13.523416 18
11.328544 8.4829121 3.1391921 10
11.499992 21.52597 22.869102 26
11.822505 21.933628 22.678129 25
26.181025 -5.7223992 3.1828206 7
43.240044 5.2036304 10.065802 10
43.207466 4.9432821 18.160633 15
