# .PCD v0.7 - Point Cloud Data file format
VERSION 0.7
FIELDS x y z intensity
SIZE 4 4 4 4
TYPE F F F F
COUNT 1 1 1 1
WIDTH 1202
HEIGHT 1
VIEWPOINT 0 0 0 1 0 0 0
POINTS 1202
DATA ascii
-4.4174042 -6.3097124 -0.21034901 0
-4.364603 -6.2381415 -0.22189935 0
-4.3118014 -6.1665707 -0.23344967 0
-4.2589998 -6.0949998 -0.245 0
-0.10969643 -4.3559361 -0.2157774 0
-0.10795357 -4.2464843 -0.21449929 0
-0.10651428 -4.1560974 -0.21344382 0
-0.105075 -4.0657101 -0.21238834 0
-0.10363571 -3.975323 -0.21133286 0
-0.10219643 -3.8849359 -0.21027738 0
0.44600001 -3.825 -0.20900001 0
0.72324067 -3.8503737 -0.20864867 0
-0.31913248 -3.7636571 -0.21385844 0
-0.24409923 -3.7404051 -0.21240458 0
-0.14091904 -3.742183 -0.21107395 0
-0.099317856 -3.7041614 -0.20816644 0
0.17681104 -3.7284799 -0.208 0
0.43963566 -3.7458436 -0.20820446 0
0.70526975 -3.7422123 -0.20696914 0
0.89250791 -3.7863431 -0.20385244 0
0.97514886 -3.7440476 -0.20251632 0
-0.33056623 -3.6693285 -0.21242923 0
-0.24439886 -3.6208575 -0.21060687 0
-0.15321295 -3.6537607 -0.21101785 0
-0.046113316 -3.6385462 -0.20845591 0
0.017999999 -3.628 -0.208 0
0.17981105 -3.6414797 -0.208 0
0.43322676 -3.6661327 -0.20740335 0
0.6910581 -3.6566768 -0.20564096 0
0.86245036 -3.6457448 -0.20207271 0
0.9456355 -3.6208332 -0.20090358 0
-0.24459924 -3.540905 -0.20940459 0
-0.15186183 -3.566062 -0.20955269 0
-0.048826825 -3.5521305 -0.20728819 0
0.020271484 -3.5573001 -0.20771606 0
0.182 -3.5780001 -0.208 0
0.42361337 -3.5465665 -0.20620167 0
0.6768465 -3.5711415 -0.20431276 0
0.83488488 -3.5168037 -0.20044054 0
-0.24479963 -3.4609525 -0.2082023 0
-0.16936183 -3.450062 -0.20655268 0
-0.0735 -3.45 -0.20649999 0
0.023708593 -3.45032 -0.20728643 0
0.414 -3.427 -0.205 0
0.65552902 -3.4428387 -0.20232049 0
-0.245 -3.381 -0.207 0
-0.17 -3.332 -0.204 0
0.026000001 -3.3789999 -0.207 0
0.6342116 -3.3145354 -0.20032819 0
-2.7544999 -2.5489998 -0.21149999 0
-2.6768942 -2.5368698 -0.21038732 0
-2.7214551 -2.4580114 -0.21147172 0
-2.6111047 -2.4741828 -0.20974858 0
-2.5453153 -2.4114959 -0.20910986 0
-2.6542096 -2.3972104 -0.21072455 0
-2.5869641 -2.3364091 -0.20997737 0
-2.4795258 -2.3488088 -0.20847112 0
-2.5197186 -2.2756081 -0.2092302 0
-2.433105 -2.2504644 -0.20815772 0
-2.3479471 -2.2234349 -0.20719366 0
-2.3852277 -2.1540058 -0.20773587 0
-2.2821577 -2.160748 -0.20655492 0
-2.3179822 -2.0932045 -0.20698869 0
-2.2335525 -2.0652323 -0.20607886 0
-2.150579 -2.0353739 -0.20527746 0
-2.1498682 -1.9412017 -0.20512076 0
-2.0518947 -1.9413435 -0.20431936 0
-2.049 -1.85 -0.204 0
-1.2455099 -1.8649879 -0.20162056 0
-1.314 -1.781 -0.20100001 0
-1.2867906 -1.7409282 -0.20100001 0
-2.1178629 -1.6571414 -0.20200001 0
-2.0457563 -1.6026959 -0.20200001 0
-1.2589999 -1.7 -0.20100001 0
-2.1651254 -1.5361993 -0.2029565 0
-1.9747869 -1.549109 -0.20200001 0
-2.045042 -1.4534988 -0.20242751 0
-1.9038174 -1.495522 -0.20200001 0
-1.8328478 -1.4419351 -0.20200001 0
-2.2358565 -1.360389 -0.20395312 0
-2.1479673 -1.3082471 -0.20358332 0
-1.9348336 -1.3775991 -0.201942 0
-1.8613613 -1.3269992 -0.20161833 0
-1.7618783 -1.388348 -0.20200001 0
-1.6909087 -1.334761 -0.20200001 0
-2.0712214 -1.2627162 -0.20326039 0
-1.9944755 -1.2171853 -0.20293748 0
-1.7511529 -1.2510995 -0.20113283 0
-1.6199391 -1.2811741 -0.20200001 0
-1.5489696 -1.227587 -0.20200001 0
-1.9177296 -1.1716545 -0.20261458 0
-1.8409836 -1.1261235 -0.20229165 0
-1.6409445 -1.1751997 -0.20064734 0
-1.5674722 -1.1245998 -0.20032367 0
-1.478 -1.174 -0.20200001 0
-2.3755045 -1.0873222 -0.20898002 0
-2.2510076 -1.0308977 -0.20731603 0
-1.7642378 -1.0805926 -0.20196874 0
-1.6874919 -1.0350617 -0.20164584 0
-2.3156922 -0.9879542 -0.20096171 0
-2.2187345 -0.94754469 -0.2004534 0
-2.1321993 -0.94418883 -0.20284687 0
-2.0460052 -0.93798661 -0.20457602 0
-1.9640045 -0.90082216 -0.20348002 0
-1.6107459 -0.98953086 -0.20132291 0
-1.534 -0.94400001 -0.20100001 0
-2.347086 -0.87928599 -0.20299239 0
-2.2598958 -0.84676272 -0.2026464 0
-2.1765337 -0.81566739 -0.20231561 0
-1.8410032 -0.84507549 -0.20183602 0
-2.3527122 -0.75736952 -0.20385586 0
-2.2534883 -0.72521245 -0.20285486 0
-2.0514908 -0.76902437 -0.2018194 0
-1.9264479 -0.72238135 -0.20132321 0
-1.7180018 -0.78932887 -0.200192 0
-2.3391821 -0.65681481 -0.20092544 0
-2.2516613 -0.60393357 -0.20010206 0
-2.1685522 -0.6976859 -0.201998 0
-2.0836163 -0.67015934 -0.20114115 0
-1.9986801 -0.64263278 -0.20028429 0
-1.8430859 -0.69128597 -0.20099241 0
-1.7597239 -0.66019064 -0.2006616 0
-1.676362 -0.62909532 -0.20033081 0
-2.3276873 -0.56530523 -0.20100001 0
-2.2609823 -0.52082253 -0.2007688 0
-2.1370311 -0.51895779 -0.20100001 0
-2.2145102 -0.48373801 -0.20160365 0
-2.1297584 -0.465615 -0.20266971 0
-2.048183 -0.47281176 -0.20236789 0
-1.9629712 -0.4533371 -0.20290092 0
-1.8777595 -0.43386245 -0.20343395 0
-1.7515078 -0.42523944 -0.20100001 0
-1.7483759 -0.38406152 -0.20746697 0
-1.623 -0.39399999 -0.20100001 0
-3.717 1.197 -0.212 0
-3.6552505 1.1799657 -0.21253231 0
-3.5531001 1.1517863 -0.21341293 0
-3.4849999 1.133 -0.214 0
-2.9360666 1.5946648 -0.20100296 0
-2.8556833 1.5528316 -0.20025258 0
-3.0566416 1.6574144 -0.2021285 0
-3.1500001 1.706 -0.20299999 0
-4.7526064 -6.7640686 -0.13702351 0
-4.6814122 -6.6675663 -0.15259735 0
-4.6286106 -6.5959954 -0.16414768 0
-4.575809 -6.5244246 -0.17569801 0
-4.5230074 -6.4528542 -0.18724835 0
-4.4702058 -6.3812833 -0.19879869 0
1.15 -3.7090001 -0.2 0
1.1378057 -3.6670661 -0.19948548 0
0.92497325 -3.5345714 -0.19977449 0
1.1128273 -3.5811698 -0.19843154 0
0.81650788 -3.4308429 -0.19935244 0
0.90431106 -3.4483094 -0.19864541 0
1.0753597 -3.4523256 -0.19685063 0
0.79813093 -3.344882 -0.19826433 0
0.88364887 -3.3620477 -0.19751632 0
1.0378921 -3.3234813 -0.1952697 0
0.62 -3.2290001 -0.199 0
0.77975392 -3.2589214 -0.19717622 0
0.86298662 -3.2757857 -0.19638725 0
1.0129137 -3.2375851 -0.19421576 0
0.76137698 -3.1729608 -0.19608811 0
0.83199334 -3.1463928 -0.19469362 0
0.98793525 -3.1516888 -0.19316183 0
0.74299997 -3.0869999 -0.19499999 0
0.801 -3.017 -0.193 0
0.96295679 -3.0657926 -0.19210789 0
0.93797839 -2.9798963 -0.19105394 0
0.91299999 -2.8940001 -0.19 0
1.5179192 -2.8282485 -0.184 0
1.4706707 -2.7419977 -0.184 0
1.4315031 -2.6704984 -0.184 0
1.3727515 -2.5632491 -0.184 0
0.88499999 -2.4119999 -0.131 0
1.0941805 -2.4380028 -0.14596993 0
1.1440493 -2.4420328 -0.11636889 0
1.314 -2.4560001 -0.184 0
0.86521834 -2.3494346 -0.14250097 0
1.059029 -2.3353479 -0.14233635 0
1.1369882 -2.3497827 -0.12730841 0
1.2057629 -2.3785086 -0.14902455 0
2.3740001 -2.3199999 -0.164 0
0.83210921 -2.2447174 -0.16175048 0
0.94780374 -2.246917 -0.13631541 0
1.0503947 -2.2425435 -0.13962498 0
1.1310898 -2.2237263 -0.15674934 0
2.2648005 -2.2145658 -0.16478449 0
2.3625076 -2.2472134 -0.16293211 0
0.79900002 -2.1400001 -0.18099999 0
0.95440781 -2.1575236 -0.14838868 0
1.0589781 -2.1347475 -0.15404451 0
2.1996005 -2.1516142 -0.16525288 0
2.2810404 -2.1425385 -0.16354117 0
2.3779397 -2.1488695 -0.16314274 0
0.87276793 -2.0453057 -0.17193848 0
0.95693344 -2.0508113 -0.15867217 0
1.0566539 -2.0694358 -0.1644496 0
1.702 -2.0009999 -0.17299999 0
2.0692003 -2.0257106 -0.16618966 0
2.1455705 -2.041343 -0.16513111 0
2.2288344 -2.0558102 -0.16407323 0
2.3220949 -2.0666101 -0.16344778 0
2.4309745 -2.0316451 -0.16300015 0
0.88499999 -1.9400001 -0.176 0
0.96712303 -1.9417249 -0.16932319 0
1.0194359 -1.9922906 -0.16829973 0
1.3818032 -1.9442298 -0.17682427 0
1.6578285 -1.9477575 -0.1726056 0
2.0496106 -1.9451094 -0.1657078 0
2.1865182 -1.9478078 -0.16423716 0
2.2719388 -1.9303486 -0.16280036 0
2.3697186 -1.9646208 -0.16380692 0
2.4701505 -1.9540795 -0.16500747 0
2.5020001 -1.932 -0.16500001 0
2.9850435 -1.9233837 -0.12033478 0
3.0585542 -1.9712297 -0.10941847 0
3.4587648 -1.9364419 -0.10029802 0
0.93050003 -1.8645 -0.176 0
1.3521693 -1.8565249 -0.17435354 0
1.5431999 -1.8095891 -0.17158213 0
1.6005142 -1.8786733 -0.17209387 0
1.8736001 -1.8368553 -0.16759482 0
1.9504858 -1.8535357 -0.16689436 0
2.0357342 -1.8537467 -0.16604108 0
2.1263418 -1.8515842 -0.16411605 0
2.2314477 -1.8492606 -0.16440538 0
2.3292274 -1.8835329 -0.16541196 0
2.447782 -1.8448403 -0.16546552 0
2.5209999 -1.854 -0.16599999 0
2.8380218 -1.8276919 -0.14216739 0
2.9115326 -1.8755379 -0.13125108 0
3.2348824 -1.815721 -0.13014901 0
3.3468237 -1.8760815 -0.1152235 0
1.2639436 -1.7513299 -0.17355655 0
1.3692847 -1.7744852 -0.17213643 0
1.4449428 -1.7232525 -0.17053521 0
1.7432001 -1.7109518 -0.16853161 0
1.8545445 -1.7568288 -0.16744931 0
1.949259 -1.7399039 -0.16561857 0
2.0649617 -1.7569679 -0.16400021 0
2.1560314 -1.7396164 -0.16590822 0
2.2569613 -1.744945 -0.16500001 0
2.3387663 -1.7643119 -0.16527241 0
2.4289913 -1.7421954 -0.16572744 0
2.5408418 -1.7484659 -0.16630258 0
2.691 -1.732 -0.164 0
2.7645109 -1.779846 -0.1530837 0
3.0856273 -1.7352403 -0.15004967 0
3.160255 -1.7754806 -0.14009933 0
1.1845069 -1.6294399 -0.17196134 0
1.2551563 -1.6421367 -0.17132278 0
1.353132 -1.6483771 -0.1702968 0
1.4285713 -1.6714208 -0.17055866 0
1.678 -1.648 -0.169 0
1.7615016 -1.6431167 -0.16872062 0
1.8367293 -1.6722121 -0.16773725 0
1.9614732 -1.6702776 -0.16460015 0
2.0521138 -1.6532664 -0.16620597 0
2.149184 -1.6626711 -0.16500001 0
2.2390847 -1.6491739 -0.16525519 0
2.3628204 -1.6495179 -0.16552618 0
2.464787 -1.6412458 -0.1663409 0
2.5570982 -1.644464 -0.1668663 0
3.0109999 -1.6950001 -0.16 0
1.077 -1.521 -0.171 0
1.1350034 -1.56222 -0.17123067 0
1.2498891 -1.5572156 -0.17014402 0
1.3459272 -1.5279394 -0.16926759 0
1.4369632 -1.562261 -0.16866666 0
1.697 -1.591 -0.168 0
1.7602602 -1.5497316 -0.16640179 0
1.8579847 -1.5835872 -0.16520008 0
1.9553156 -1.5531269 -0.1660025 0
2.0488834 -1.5484059 -0.16488621 0
2.1294498 -1.5695183 -0.16496553 0
2.2527914 -1.5701083 -0.16524002 0
2.3647864 -1.5470644 -0.1657518 0
2.4829648 -1.5289453 -0.16631939 0
2.5763905 -1.5469819 -0.16682293 0
2.5999999 -1.561 -0.167 0
1.094 -1.469 -0.17 0
1.1529789 -1.4501657 -0.16985001 0
1.252798 -1.4557848 -0.1691332 0
1.353963 -1.4490499 -0.16833334 0
1.4507527 -1.4329497 -0.16853535 0
1.7470949 -1.4601541 -0.16737381 0
1.8559443 -1.4557048 -0.16560049 0
1.9467249 -1.4367592 -0.16448277 0
2.0694103 -1.4377589 -0.16476309 0
2.1527109 -1.4668065 -0.16468275 0
2.2389884 -1.4504175 -0.16507968 0
2.3295281 -1.4332907 -0.16535953 0
2.4211125 -1.4547856 -0.16565834 0
1.1564381 -1.365028 -0.16850393 0
1.2659601 -1.3344489 -0.16826768 0
1.3608397 -1.334829 -0.16771659 0
1.4520392 -1.3461727 -0.16721272 0
1.5698247 -1.3165902 -0.16762301 0
1.6359897 -1.3739082 -0.16774762 0
1.7590001 -1.3325 -0.1645 0
1.83709 -1.3571037 -0.16419311 0
1.9593813 -1.3583493 -0.16447693 0
2.0623045 -1.3487686 -0.16396219 0
2.1760917 -1.3376362 -0.16439965 0
2.2658343 -1.3625891 -0.16449375 0
2.580322 -1.3125696 -0.16836087 0
2.6530001 -1.349 -0.169 0
-2.944 -1.242 -0.145 0
-2.8859775 -1.2185481 -0.15023229 0
1.1689999 -1.2635 -0.16850001 0
1.2412322 -1.2487563 -0.16727035 0
1.3429704 -1.2462087 -0.16693969 0
1.4473586 -1.2463639 -0.16634345 0
1.5036597 -1.2592721 -0.16749841 0
1.776 -1.226 -0.164 0
1.8549422 -1.2617613 -0.16333655 0
1.9363294 -1.2521391 -0.1633599 0
2.022655 -1.2419817 -0.1634398 0
2.1105561 -1.2703928 -0.16332917 0
2.4597683 -1.2521414 -0.16730073 0
2.5594943 -1.2269502 -0.16739917 0
2.6359999 -1.263 -0.168 0
3.0496054 -1.2024591 -0.15942013 0
3.1600604 -1.245191 -0.15988293 0
-3.0695198 -1.1540148 -0.14613099 0
-2.9692562 -1.1489356 -0.14618158 0
-2.8341959 -1.1520963 -0.16283764 0
-2.7251267 -1.1535344 -0.16473736 0
-2.6447015 -1.1210275 -0.17198989 0
1.189 -1.1684999 -0.1665 0
1.256092 -1.1303186 -0.16666667 0
1.3571564 -1.1568183 -0.16662461 0
1.4595716 -1.1530095 -0.16518313 0
1.509869 -1.1533743 -0.16501725 0
1.785 -1.153 -0.16249999 0
1.8692183 -1.1463273 -0.16247994 0
1.955278 -1.1781964 -0.16216458 0
2.1784763 -1.111142 -0.16482705 0
2.2588456 -1.1514275 -0.16553381 0
2.3482523 -1.1616919 -0.16602588 0
2.4381716 -1.1697825 -0.16644637 0
2.843318 -1.1226523 -0.15855581 0
2.9670904 -1.1705364 -0.1590744 0
-2.8501241 -1.0693876 -0.16225626 0
-2.737642 -1.0504197 -0.16778608 0
-2.659235 -1.0343716 -0.16995598 0
-2.5641036 -1.0552504 -0.18166292 0
-2.4436378 -1.0397604 -0.1901212 0
-1.494 -1.074 -0.2 0
1.232 -1.049 -0.1665 0
1.3410789 -1.061079 -0.16598757 0
1.4432052 -1.0848424 -0.16528879 0
1.5353913 -1.0425895 -0.16501394 0
1.8 -1.086 -0.161 0
2.0579228 -1.0507138 -0.16376691 0
2.1550858 -1.0363913 -0.16422319 0
2.2764082 -1.0935589 -0.16517597 0
2.5545149 -1.0109227 -0.15734574 0
2.6370301 -1.0428455 -0.15769146 0
2.7195451 -1.0747682 -0.1580372 0
-2.6484706 -0.98546416 -0.18317467 0
-2.5560462 -0.96079779 -0.1802662 0
-2.4488058 -0.94595534 -0.19192606 0
-2.319278 -0.92471915 -0.19999807 0
1.2535 -0.96850002 -0.16599999 0
1.3316736 -0.95416278 -0.16575995 0
1.4565692 -0.95641971 -0.16516645 0
1.5549999 -0.95099998 -0.164 0
1.7487518 -0.93857479 -0.16330622 0
1.8497999 -0.94099998 -0.16239999 0
1.9451253 -0.96569866 -0.16267097 0
2.0337634 -0.97922355 -0.1632704 0
2.4719999 -0.97899997 -0.15700001 0
-2.3482058 -0.85303861 -0.19801456 0
-2.2349634 -0.89191765 -0.19977263 0
-2.1520929 -0.85967791 -0.19955105 0
-2.0616369 -0.85317338 -0.19945976 0
-1.971709 -0.84459043 -0.19915837 0
-1.8893672 -0.81027234 -0.1987267 0
1.28 -0.87199998 -0.16599999 0
1.3669931 -0.83834505 -0.16623817 0
1.4536638 -0.8417232 -0.1655035 0
1.5640061 -0.83006722 -0.164398 0
1.6401907 -0.8461321 -0.16418011 0
1.7398659 -0.85271883 -0.16391718 0
1.8149476 -0.86177158 -0.16335922 0
-2.2609038 -0.78148347 -0.1999031 0
-2.1769159 -0.75292301 -0.19979021 0
-2.0929279 -0.72436261 -0.19967732 0
-1.944917 -0.77907872 -0.19899711 0
-1.8138185 -0.75333667 -0.19847989 0
-1.7246836 -0.74163616 -0.19786334 0
-1.6391714 -0.72974122 -0.19826384 0
-1.554 -0.71499997 -0.198 0
1.314 -0.764 -0.167 0
1.4501512 -0.74827957 -0.1662524 0
1.5869739 -0.74763584 -0.16517961 0
1.6595095 -0.73614866 -0.16387686 0
1.7304826 -0.76939344 -0.16336519 0
1.8571053 -0.75001138 -0.16129795 0
-2.2394311 -0.657408 -0.19996622 0
-2.1538773 -0.63248205 -0.19909544 0
-2.0386317 -0.65167904 -0.19889456 0
-1.919348 -0.64117396 -0.1994395 0
-1.840964 -0.63868129 -0.19933866 0
-1.7473584 -0.65430009 -0.19883446 0
-1.6548705 -0.66623974 -0.19822158 0
-1.566 -0.65349996 -0.19749999 0
1.345 -0.65700001 -0.168 0
1.4225035 -0.65184659 -0.16618937 0
1.5407271 -0.65950656 -0.16414757 0
1.6560401 -0.6471085 -0.16413118 0
1.7526784 -0.65236515 -0.1626654 0
1.8725461 -0.63777238 -0.16090746 0
-2.342 -0.51099998 -0.2 0
-2.1655786 -0.58094192 -0.19933932 0
-2.0794959 -0.5579502 -0.19857655 0
-1.9611712 -0.54318511 -0.19740623 0
-1.8458952 -0.55935389 -0.19688867 0
-1.7349899 -0.53395259 -0.19622764 0
-1.665962 -0.55704349 -0.19798487 0
-1.5853333 -0.55199999 -0.19833332 0
1.3505 -0.54299998 -0.1665 0
1.436915 -0.53712791 -0.16610375 0
1.5636086 -0.55806762 -0.16434047 0
1.6457491 -0.54464817 -0.16316947 0
1.7446901 -0.54616499 -0.16205238 0
1.8325962 -0.57219213 -0.16149688 0
-1.8212481 -0.48897511 -0.19628827 0
-1.7351654 -0.46598339 -0.19552553 0
-1.6448183 -0.46295884 -0.19431677 0
-1.559 -0.43900001 -0.19350001 0
1.341 -0.43000001 -0.164 0
1.471766 -0.44963431 -0.16338736 0
1.5765703 -0.43000916 -0.16248915 0
1.6550593 -0.45571736 -0.16238704 0
1.7432671 -0.45066226 -0.16156088 0
1.8523439 -0.45274097 -0.15998994 0
1.3380001 -0.359 -0.163 0
1.4175235 -0.38266972 -0.16282971 0
1.598 -0.32550001 -0.162 0
1.6493899 -0.35691723 -0.16174515 0
1.7441698 -0.35725173 -0.16023549 0
1.8411525 -0.34685355 -0.15868559 0
2.3818359 -0.30289346 -0.15273075 0
2.4710979 -0.31473541 -0.15183514 0
2.5603604 -0.32657734 -0.15093954 0
2.6518111 -0.33870962 -0.15002197 0
1.587 -0.264 -0.161 0
1.6604178 -0.27767089 -0.1602405 0
1.7541972 -0.23374113 -0.15827969 0
1.8491311 -0.22842096 -0.15705219 0
1.9355245 -0.24368384 -0.15720879 0
2.0247867 -0.25552577 -0.15631318 0
2.114049 -0.26736772 -0.15541756 0
2.2479424 -0.28513059 -0.15407416 0
2.5625615 -0.20623463 -0.14726159 0
1.5780001 -0.14650001 -0.16 0
1.6578298 -0.15540524 -0.15871789 0
1.7603401 -0.12974679 -0.15744834 0
1.8319354 -0.13308592 -0.15450823 0
1.9205451 -0.13995117 -0.15361166 0
2.0520082 -0.1516846 -0.15188563 0
2.1834712 -0.16341802 -0.1501596 0
2.272742 -0.1691602 -0.1486726 0
2.3580923 -0.18635195 -0.14914238 0
2.4461079 -0.19491062 -0.14833277 0
4.6890001 -0.175 -0.114 0
1.595 -0.071000002 -0.162 0
1.6646584 -0.077305295 -0.15989824 0
1.7504231 -0.037798423 -0.15689671 0
1.8123949 -0.057183176 -0.15453894 0
1.9449825 -0.055250868 -0.15239263 0
2.0769653 -0.061501738 -0.15078527 0
2.1649537 -0.065668985 -0.14971368 0
2.2529421 -0.069836229 -0.14864211 0
2.3409305 -0.074003473 -0.14757054 0
2.4289188 -0.078170717 -0.14649895 0
2.5344539 -0.083168983 -0.14521369 0
1.582 0.043500002 -0.16150001 0
1.672146 0.053196788 -0.15865409 0
1.7632629 0.060251117 -0.15559778 0
1.8561608 0.084200524 -0.15309376 0
1.9441454 0.086334378 -0.15119702 0
2.0501058 0.090445489 -0.14818114 0
2.1530864 0.091402099 -0.1464321 0
2.244966 0.089005239 -0.14758028 0
2.3357592 0.09120629 -0.14629634 0
2.4265525 0.093407333 -0.14501239 0
2.5173457 0.095608383 -0.14372845 0
2.608139 0.097809434 -0.14244449 0
1.523 0.189 -0.15700001 0
1.6823334 0.155 -0.15799999 0
1.7501523 0.15074447 -0.15485072 0
2.4790001 0.149 -0.14300001 0
2.5518765 0.15331861 -0.14219026 0
2.6737716 0.13986783 -0.1410373 0
2.7649999 0.13350001 -0.14 0
1.5470994 0.26941201 -0.15618429 0
1.6473497 0.25090164 -0.15578249 0
1.7434113 0.23030336 -0.15378191 0
1.8411715 0.26917797 -0.1513333 0
1.9680092 0.25379255 -0.14896372 0
2.0570111 0.26675105 -0.14735647 0
2.146013 0.27970958 -0.14574921 0
2.2350149 0.29266807 -0.14414194 0
2.434 0.26199999 -0.142 0
2.5412788 0.2721366 -0.14073293 0
2.6682789 0.28413659 -0.13923293 0
1.499 0.37400001 -0.15899999 0
1.5644002 0.33845004 -0.15711544 0
1.6559633 0.35758486 -0.1549608 0
1.7531463 0.3295317 -0.15260173 0
1.8665851 0.33763656 -0.15035014 0
1.9519119 0.35356745 -0.14839999 0
2.0480101 0.3447496 -0.14531684 0
2.1203899 0.378768 -0.14558008 0
2.2085884 0.395592 -0.14394866 0
2.3240166 0.30562657 -0.14253469 0
2.4323795 0.32045582 -0.1407053 0
2.5492771 0.33273497 -0.1392318 0
2.6332078 0.34155124 -0.13817385 0
1.457 0.43900001 -0.156 0
1.5425043 0.46555024 -0.15432754 0
1.6500902 0.45569259 -0.15394068 0
1.7587579 0.44192702 -0.15333942 0
1.8453439 0.46456936 -0.15145256 0
1.9319299 0.4872117 -0.1495657 0
2.0356865 0.41224623 -0.14739898 0
2.1233008 0.43095392 -0.14563213 0
2.2687438 0.44348231 -0.14276032 0
2.3604999 0.45299998 -0.141 0
2.4272649 0.46275964 -0.13969961 0
2.5511889 0.45105889 -0.1375436 0
3.8829999 0.463 -0.127 0
3.9730601 0.47441739 -0.12307242 0
4.0631204 0.48583478 -0.11914484 0
4.1531811 0.49725217 -0.11521726 0
1.3786668 0.56599998 -0.15166666 0
1.4600693 0.5569188 -0.15199262 0
1.5581355 0.56921422 -0.15099075 0
1.6806338 0.59792298 -0.15028082 0
1.756265 0.5319258 -0.15014641 0
1.8845215 0.57175112 -0.14763772 0
1.9700257 0.59830135 -0.14596528 0
2.0185161 0.50985402 -0.14767882 0
2.1483951 0.54381752 -0.14484853 0
2.2782741 0.57778108 -0.14201824 0
2.3299999 0.57166666 -0.141 0
2.4568615 0.5273658 -0.13916385 0
2.5401428 0.53172642 -0.13766079 0
2.6060691 0.59249091 -0.13794492 0
4.2432413 0.50866956 -0.11128968 0
4.3333015 0.52008694 -0.1073621 0
4.4233618 0.53150427 -0.10343452 0
-1.202 0.67500001 -0.167 0
1.3458447 0.66916788 -0.14974105 0
1.4553802 0.63803339 -0.14990073 0
1.5285935 0.65466321 -0.14845003 0
1.6194975 0.65420336 -0.14769006 0
1.7428935 0.64368498 -0.14759906 0
1.8268669 0.67498118 -0.14624883 0
1.9332675 0.68884599 -0.14556164 0
2.0555301 0.62485158 -0.14429282 0
2.1410341 0.65140182 -0.14262035 0
2.258846 0.68798405 -0.14031596 0
2.386956 0.60075879 -0.13951603 0
2.4704561 0.61525881 -0.13751602 0
2.6947589 0.61165458 -0.13692656 0
2.7834485 0.63081819 -0.13590822 0
2.8721383 0.64998186 -0.13488986 0
2.9608278 0.66914546 -0.1338715 0
3.0495176 0.68830913 -0.13285314 0
3.6730001 0.62199998 -0.122 0
3.7617111 0.63595903 -0.11815619 0
3.8504219 0.64991814 -0.1143124 0
3.9391329 0.66387719 -0.11046859 0
4.027844 0.6778363 -0.10662478 0
4.1165547 0.69179535 -0.10278098 0
-1.3496981 0.75994861 -0.16936789 0
-1.275849 0.71747428 -0.16818395 0
1.2825 0.759 -0.149 0
1.364725 0.76172966 -0.14938161 0
1.4756873 0.75556356 -0.14730564 0
1.5462021 0.74249792 -0.14775205 0
1.6568152 0.73520225 -0.1466189 0
1.7626464 0.75869417 -0.14509851 0
1.8579711 0.7632724 -0.14416035 0
1.9721487 0.7559936 -0.14310816 0
2.0366814 0.75371605 -0.14298466 0
2.1437955 0.76461512 -0.14162898 0
2.2309999 0.796 -0.14 0
2.3613904 0.71736127 -0.13907878 0
2.4477808 0.74172252 -0.13815755 0
2.5341711 0.76608378 -0.13723633 0
2.6205614 0.79044503 -0.13631511 0
3.1382074 0.7074728 -0.13183478 0
3.2624488 0.7343182 -0.1304082 0
-1.5712451 0.88737142 -0.17291975 0
-1.4604716 0.82366002 -0.17114383 0
1.27 0.8585 -0.152 0
1.3677272 0.85587823 -0.14946198 0
1.4549975 0.82603168 -0.14873147 0
1.5454671 0.83012986 -0.14679608 0
1.6292542 0.85229319 -0.14544143 0
1.7482125 0.85562205 -0.14398988 0
1.8192077 0.84337187 -0.14381437 0
1.933535 0.83172482 -0.14262202 0
2.0346277 0.87237209 -0.14146324 0
2.1396196 0.82056326 -0.14085335 0
2.2223577 0.84957057 -0.13986558 0
2.3330731 0.87571174 -0.13909671 0
2.7501469 0.82698691 -0.13493326 0
2.8797324 0.86352885 -0.13355143 0
2.9661226 0.8878901 -0.1326302 0
3.5769999 0.87599999 -0.12 0
3.6635854 0.89284903 -0.11602174 0
4.2709999 0.82700002 -0.107 0
-1.7138107 0.9314757 -0.17530826 0
-1.6450942 0.92984569 -0.17410371 0
1.255525 0.94527847 -0.15102357 0
1.3369621 0.94777554 -0.1491767 0
1.4370915 0.94358319 -0.14956997 0
1.5263096 0.94985235 -0.14779785 0
1.6696547 0.95871902 -0.14545263 0
1.7496037 0.94625539 -0.14385636 0
1.8749056 0.95822251 -0.14181972 0
1.9600312 0.97237235 -0.14071351 0
2.0994887 0.92071068 -0.1396102 0
2.146935 0.9279049 -0.1397056 0
2.250669 0.96213114 -0.139257 0
3.0525131 0.91225135 -0.13170898 0
3.119 0.93099999 -0.131 0
3.2476254 0.97508031 -0.12515971 0
3.7501709 0.90969813 -0.1120435 0
3.8367562 0.92654717 -0.10806525 0
3.9233418 0.94339621 -0.104087 0
4.0099273 0.96024531 -0.10010874 0
-1.5610485 1.0922354 -0.17200001 0
1.170756 1.0531584 -0.1503628 0
1.2442631 1.0534759 -0.14940789 0
1.3372276 1.0382836 -0.14898159 0
1.4462031 1.0470667 -0.14752771 0
1.5622056 1.0463247 -0.14587848 0
1.6533644 1.089479 -0.14421247 0
1.7850649 1.0314639 -0.14310911 0
1.8594389 1.053741 -0.14224623 0
1.9412494 1.0374644 -0.14148447 0
2.0484443 1.0589813 -0.13970439 0
3.3762512 1.0191606 -0.11931941 0
3.4620016 1.0485475 -0.11542588 0
3.5477519 1.0779344 -0.11153235 0
-1.5289675 1.1248531 -0.171 0
-1.431 1.164 -0.168 0
1.0675 1.1775 -0.149 0
1.1469128 1.1506208 -0.14911902 0
1.2525662 1.1512285 -0.14850025 0
1.3647043 1.1612171 -0.14724629 0
1.4549106 1.1380144 -0.14627074 0
1.5582758 1.1518018 -0.14468135 0
1.6463424 1.1287248 -0.14342549 0
1.7489496 1.1560384 -0.14242278 0
1.8098202 1.1825411 -0.14099494 0
1.9392247 1.1215084 -0.14042607 0
2.0346627 1.1624843 -0.13936858 0
2.1398022 1.159017 -0.13944213 0
3.6335022 1.1073213 -0.10763882 0
3.7192526 1.1367081 -0.10374529 0
-2.293 1.26 -0.19499999 0
-1.5350461 1.2495592 -0.16998619 0
-1.3782858 1.2307143 -0.16599999 0
-0.73187792 1.249241 -0.14948483 0
-0.64100003 1.2595 -0.14950001 0
-0.56599998 1.295 -0.149 0
0.52999997 1.283 -0.147 0
1.0587819 1.2487879 -0.14822099 0
1.1478723 1.245019 -0.14829978 0
1.2279744 1.2256908 -0.14754283 0
1.3286386 1.2476294 -0.14679822 0
1.4417706 1.2419897 -0.14571881 0
1.5244224 1.2423079 -0.1440722 0
1.6205 1.258235 -0.14280106 0
1.7296305 1.2481232 -0.14130187 0
1.8588243 1.241942 -0.13987043 0
1.9495887 1.2690514 -0.13880374 0
2.0388703 1.2940916 -0.13808902 0
2.1454124 1.2239732 -0.13705191 0
2.2599874 1.257988 -0.13590488 0
2.3302205 1.2631519 -0.1349792 0
-2.5341501 1.3854992 -0.1972511 0
-2.4537666 1.3436662 -0.19650073 0
-2.3733833 1.301833 -0.19575036 0
-1.7084563 1.3921578 -0.17329651 0
-1.6390922 1.3351184 -0.17197239 0
-0.74675822 1.3423604 -0.1503582 0
-0.65252906 1.3437136 -0.15033703 0
-0.58306903 1.3805075 -0.14995912 0
0.45050001 1.358 -0.148 0
0.55936325 1.3558724 -0.14657134 0
1.1486976 1.3525319 -0.1466814 0
1.2457868 1.3345963 -0.14678763 0
1.3591875 1.3418761 -0.1455889 0
1.4453132 1.3515115 -0.14473793 0
1.5477072 1.3420329 -0.14372757 0
1.6412945 1.355515 -0.14204277 0
1.7586999 1.3661289 -0.13972148 0
1.8652272 1.3553315 -0.13882388 0
1.914 1.3150001 -0.138 0
2.048553 1.3658371 -0.1376904 0
2.1421757 1.360229 -0.13672253 0
2.3383269 1.3371427 -0.1338937 0
2.4300516 1.3419553 -0.13252269 0
2.5 1.3559999 -0.131 0
-2.6547251 1.4482489 -0.19837666 0
-1.7778202 1.4491973 -0.17462064 0
-0.85943013 1.4561247 -0.15259586 0
-0.74487042 1.4413085 -0.15129884 0
-0.65918356 1.4500545 -0.15040617 0
-0.55749542 1.4697301 -0.15034649 0
-0.45185184 1.458872 -0.15109013 0
0.33649999 1.4625 -0.149 0
0.44570443 1.4584246 -0.14739184 0
0.54088116 1.4398794 -0.14652933 0
0.764 1.4790001 -0.1455 0
1.2532666 1.4405335 -0.14539522 0
1.3367624 1.4551748 -0.14532216 0
1.4651752 1.4589145 -0.14371841 0
1.5353334 1.430022 -0.14416398 0
1.6433281 1.4524252 -0.14188847 0
1.7546605 1.4713798 -0.139384 0
1.8278424 1.4314818 -0.1380679 0
1.9475412 1.4335053 -0.13807714 0
2.1583402 1.4405198 -0.13596959 0
2.2385066 1.4583373 -0.13508922 0
2.3311758 1.4812289 -0.13422254 0
2.454 1.405 -0.132 0
3.3970001 1.473 -0.117 0
-2.7753 1.5109986 -0.19950221 0
-1.9165484 1.5632762 -0.17726891 0
-1.8471843 1.5062368 -0.17594478 0
-0.80500001 1.524 -0.152 0
-0.75379688 1.5521072 -0.15235448 0
-0.66298276 1.5470086 -0.15193783 0
-0.53991085 1.5616246 -0.1511685 0
-0.45431793 1.5534654 -0.15117662 0
-0.3448104 1.5630877 -0.1504 0
-0.25849998 1.5755 -0.14950001 0
0.153 1.58 -0.148 0
0.23800001 1.524 -0.148 0
0.3544389 1.5320051 -0.14823231 0
0.43713629 1.5652807 -0.14707758 0
0.56295848 1.5579467 -0.14572267 0
0.64343047 1.54597 -0.14509118 0
0.78072244 1.540601 -0.1452294 0
0.85926253 1.552276 -0.14456892 0
1.2931938 1.5217516 -0.14448375 0
1.3704444 1.5748892 -0.14365868 0
1.462105 1.5667418 -0.1438114 0
1.5493749 1.5297524 -0.14217778 0
1.6381809 1.5678433 -0.1411586 0
1.7455587 1.54084 -0.13960569 0
1.8448473 1.5667056 -0.14034989 0
2.0420823 1.5040104 -0.13615426 0
2.126555 1.5670069 -0.13443618 0
2.2839999 1.526 -0.134 0
3.4795821 1.5097138 -0.11299486 0
3.5621641 1.5464275 -0.10898973 0
3.6447461 1.5831412 -0.1049846 0
-2.0552764 1.6773551 -0.17991717 0
-1.9859124 1.6203157 -0.17859304 0
-0.73534977 1.6317556 -0.15258801 0
-0.66397256 1.6433805 -0.15207884 0
-0.55580783 1.6581103 -0.15178618 0
-0.42876875 1.6414983 -0.15077329 0
-0.36039895 1.6458523 -0.15061845 0
-0.2492345 1.6481162 -0.14991803 0
0.1319901 1.6530683 -0.14829443 0
0.26300463 1.655409 -0.14725973 0
0.36096394 1.6367697 -0.14718594 0
0.46759638 1.6480916 -0.14653331 0
0.54785347 1.659445 -0.1450806 0
0.62315059 1.6494924 -0.14479131 0
0.70835811 1.6765463 -0.14373055 0
0.85187989 1.6574707 -0.14402185 0
0.94154751 1.6532493 -0.14349499 0
1.4290333 1.642067 -0.14279042 0
1.5510873 1.6619207 -0.14209004 0
1.678375 1.6470025 -0.13942778 0
1.7658666 1.6463375 -0.14077875 0
1.8387251 1.6365781 -0.13961326 0
1.9271855 1.6761086 -0.13869685 0
3.7273283 1.6198549 -0.10097947 0
-2.112 1.724 -0.18099999 0
-0.80112433 1.7458889 -0.15297002 0
-0.65994585 1.7310286 -0.15257275 0
-0.57407212 1.7472457 -0.15167946 0
-0.46179542 1.7450863 -0.15119721 0
-0.39650589 1.7292897 -0.14998689 0
-0.2145 1.7525001 -0.149 0
-0.17900001 1.737 -0.149 0
0.16107658 1.7408178 -0.14775826 0
0.28362352 1.7656603 -0.14660646 0
0.42908913 1.7428222 -0.14602377 0
0.54065114 1.7563496 -0.14526701 0
0.63490355 1.7259544 -0.14474784 0
0.74453717 1.7583194 -0.14309584 0
0.94106317 1.7547221 -0.14300948 0
1.1 1.732 -0.142 0
1.4665891 1.7248154 -0.14184655 0
1.546211 1.7764225 -0.14105389 0
1.6454349 1.7629647 -0.14098129 0
1.7357699 1.7352177 -0.1398855 0
1.8483115 1.7641671 -0.13909043 0
1.943 1.73 -0.138 0
2.0039999 1.7029999 -0.138 0
3.335 1.743 -0.116 0
3.4130595 1.7818388 -0.11230714 0
-1.561 1.8329999 -0.16599999 0
-0.83754921 1.8282666 -0.15376402 0
-0.74394971 1.8495309 -0.15381119 0
-0.63385057 1.8302439 -0.15215096 0
-0.5498147 1.8499278 -0.15209147 0
-0.43160787 1.8510962 -0.14998685 0
-0.22388437 1.8818744 -0.14820668 0
-0.18723136 1.8260674 -0.149 0
0.14566667 1.8326668 -0.14666666 0
0.25367284 1.8489896 -0.14645742 0
0.33623314 1.8565936 -0.14543372 0
0.45147538 1.8373601 -0.14515232 0
0.56923926 1.8402233 -0.14480117 0
0.65556479 1.8577719 -0.14385474 0
0.75585812 1.8360462 -0.14323056 0
0.875 1.812 -0.14399999 0
0.94921201 1.8623697 -0.14258981 0
1.0364304 1.8439063 -0.14182006 0
1.1730003 1.8424678 -0.1416482 0
1.585093 1.8635955 -0.14004421 0
1.6372068 1.8380048 -0.14014143 0
1.7385 1.8199999 -0.13949999 0
3.4911189 1.8206774 -0.10861427 0
3.5691783 1.8595161 -0.10492142 0
3.6472378 1.8983549 -0.10122856 0
-1.6479952 1.9366912 -0.16687873 0
-0.91039896 1.9930222 -0.15535203 0
-0.87397408 1.9106444 -0.15455802 0
-0.75432462 1.9825432 -0.15417281 0
-0.64594328 1.9319346 -0.15261713 0
-0.53087407 1.9575104 -0.15199898 0
-0.4689633 1.9486338 -0.15066667 0
-0.23576874 1.9707489 -0.14841338 0
-0.1954627 1.9151349 -0.149 0
0.17117994 1.9341451 -0.14626272 0
0.29187208 1.9252328 -0.1457876 0
0.35276103 1.9445312 -0.14491856 0
0.45626986 1.9491414 -0.1445089 0
0.54578912 1.9451065 -0.14454342 0
0.66641098 1.9627876 -0.14300793 0
0.76292056 1.9579167 -0.1428196 0
0.81689531 1.9218657 -0.14182639 0
0.96827793 1.9459457 -0.14176701 0
1.0505735 1.9617357 -0.14130628 0
1.1206425 1.9537475 -0.140485 0
1.2460005 1.9529357 -0.14129639 0
1.377 1.9450001 -0.138 0
-1.7349904 2.0403824 -0.16775748 0
-1.503 2.046 -0.171 0
-1.381 2.0769999 -0.15899999 0
-0.94682384 2.0753999 -0.15614603 0
-0.82392681 2.0556812 -0.15554355 0
-0.73032081 2.062541 -0.15393439 0
-0.66807508 2.0380621 -0.15262371 0
-0.53754681 2.0708551 -0.15125214 0
-0.4857668 2.0441065 -0.15043746 0
-0.22109085 2.0523651 -0.14887334 0
0.15530071 2.026777 -0.146438 0
0.25095367 2.0248673 -0.14538166 0
0.36928892 2.0324686 -0.14440337 0
0.44630849 2.0267644 -0.14378868 0
0.54832667 2.0481513 -0.14383174 0
0.67019349 2.0644939 -0.14260302 0
0.74189913 2.0675528 -0.14203253 0
0.8559435 2.0514715 -0.14111263 0
0.9833321 2.0314279 -0.14123642 0
1.0576445 2.0523133 -0.14055197 0
1.1428628 2.0451307 -0.13983151 0
1.2946674 2.0265808 -0.14106184 0
1.4502876 2.0490139 -0.1382276 0
3.267 2.02 -0.114 0
3.3385215 2.0567379 -0.11106879 0
3.410043 2.0934756 -0.10813758 0
-1.8509839 2.1786373 -0.16892913 0
-1.7929871 2.1095099 -0.16834331 0
-1.6008897 2.1772447 -0.16882467 0
-1.5519449 2.1116223 -0.16991234 0
-1.4303824 2.1491258 -0.16101047 0
-1.219 2.1440001 -0.15899999 0
-0.98508292 2.161926 -0.15698002 0
-0.85637999 2.1375046 -0.15596433 0
-0.73933214 2.1665189 -0.15332988 0
-0.67905664 2.1055779 -0.15276323 0
-0.56058681 2.1553712 -0.15106681 0
-0.49214995 2.1611691 -0.15000001 0
-0.23984712 2.1654177 -0.14891338 0
0.16195105 2.1171656 -0.146157 0
0.21112858 2.1117051 -0.14541936 0
0.33519909 2.1219325 -0.14444712 0
0.45401585 2.1415067 -0.14312272 0
0.5611344 2.154043 -0.14307366 0
0.65905118 2.1380069 -0.14270347 0
0.77213967 2.1496654 -0.14135644 0
0.85700369 2.143152 -0.14078562 0
0.92543244 2.1671853 -0.13992223 0
1.0283321 2.1560946 -0.14023642 0
1.1338499 2.1516047 -0.1393804 0
1.209 2.102 -0.139 0
1.3676676 2.1370487 -0.14071004 0
1.5235752 2.1530275 -0.1384552 0
3.4815645 2.1302135 -0.10520637 0
3.553086 2.1669512 -0.10227516 0
-1.9089806 2.2477648 -0.16951495 0
-1.6498345 2.242867 -0.16773702 0
-1.529147 2.2933774 -0.16503142 0
-1.4797647 2.2212515 -0.16302095 0
-1.3078864 2.2987442 -0.16179788 0
-1.2634432 2.2213721 -0.16039893 0
-1.0242692 2.2459095 -0.15719183 0
-0.91328001 2.2750278 -0.15578596 0
-0.80641681 2.2729411 -0.15413898 0
-0.75528312 2.2522798 -0.15300153 0
-0.61523223 2.2532425 -0.15114048 0
-0.53741723 2.2587564 -0.15024984 0
-0.24990498 2.2543883 -0.14901671 0
0.17192657 2.2527485 -0.1457355 0
0.22419287 2.2465572 -0.14512905 0
0.34569874 2.2382507 -0.14392637 0
0.43870175 2.2435167 -0.14291167 0
0.52571332 2.2714763 -0.14205202 0
0.64583576 2.2613144 -0.1424772 0
0.74771833 2.2349892 -0.1408869 0
0.85905933 2.2238789 -0.1404867 0
0.95320565 2.2778957 -0.13915531 0
1.0408951 2.2192376 -0.13977745 0
1.1540627 2.2231655 -0.14006671 0
1.4406677 2.2475164 -0.14035822 0
1.5724336 2.2223701 -0.13860694 0
1.621292 2.2917125 -0.13875867 0
3.2623982 2.2374988 -0.11186672 0
-2.0249743 2.3860197 -0.17068662 0
-1.9669775 2.3168924 -0.17010078 0
-1.7477242 2.3741117 -0.16556169 0
-1.6987793 2.3084893 -0.16664936 0
-1.5475936 2.3768759 -0.16519174 0
-1.472 2.3180001 -0.161 0
-1.3523296 2.3761163 -0.16319682 0
-1.0625384 2.3278191 -0.15738365 0
-0.94742 2.3575416 -0.15567894 0
-0.83693683 2.3572774 -0.15426946 0
-0.77480233 2.3557663 -0.15263531 0
-0.65133172 2.379775 -0.15077212 0
-0.55773908 2.3449121 -0.15018731 0
-0.25996286 2.3433595 -0.14912006 0
0.1819021 2.3883314 -0.14531399 0
0.23725715 2.3814099 -0.14483872 0
0.37054849 2.3437243 -0.14324364 0
0.43540043 2.3842187 -0.14234269 0
0.54626584 2.3580275 -0.14140151 0
0.63502741 2.3556924 -0.14190847 0
0.72381461 2.3514171 -0.14120501 0
0.84356034 2.343945 -0.1397521 0
0.92699999 2.316 -0.139 0
1.4893346 2.3211617 -0.1401237 0
1.515 2.3599999 -0.14 0
1.6701504 2.3610551 -0.1389104 0
3.2361474 2.3358827 -0.11056516 0
3.3745928 2.3139949 -0.10846689 0
3.4493892 2.3649926 -0.10620033 0
-2.0829711 2.4551473 -0.17127244 0
-1.773 2.408 -0.16500001 0
-1.6279117 2.4376292 -0.16905238 0
-1.5613155 2.4584963 -0.16568321 0
-1.3967727 2.4534881 -0.16459575 0
-1.1199422 2.4506834 -0.15767139 0
-0.98155999 2.4400556 -0.15557191 0
-0.85007137 2.4414916 -0.15409827 0
-0.79128313 2.4398897 -0.15181617 0
-0.64173996 2.4510975 -0.15038805 0
-0.54803991 2.4240706 -0.15000001 0
-0.27002072 2.4323304 -0.1492234 0
0.18855244 2.4787197 -0.14503299 0
0.24596667 2.4713116 -0.14464518 0
0.36320901 2.4702594 -0.14302637 0
0.45192832 2.472156 -0.14182752 0
0.5668183 2.4445786 -0.140751 0
0.65769863 2.4398079 -0.14139321 0
0.75178856 2.4440579 -0.14055282 0
1.699 2.402 -0.139 0
3.1670001 2.408 -0.112 0
3.2375901 2.4607358 -0.10868924 0
3.344589 2.4135301 -0.10626059 0
3.4168835 2.4652953 -0.10339089 0
3.5615838 2.4414887 -0.10280049 0
-2.147984 2.5326371 -0.17192914 0
-1.7266763 2.5818808 -0.17307334 0
-1.6446327 2.5458307 -0.16981804 0
-1.441216 2.5308602 -0.16599469 0
-1.177346 2.5735476 -0.15795913 0
-1.0157 2.5225694 -0.15546489 0
-0.91314155 2.5330818 -0.15586878 0
-0.85630828 2.5493698 -0.15316871 0
-0.66477996 2.5356135 -0.15020272 0
-0.572335 2.5383523 -0.15000001 0
-0.31301713 2.5484328 -0.14975682 0
-0.25504106 2.5598035 -0.149 0
0.1952028 2.5691085 -0.144752 0
0.25467622 2.561213 -0.14445163 0
0.37595317 2.5587249 -0.14260156 0
0.46845621 2.5600939 -0.14131236 0
0.56061697 2.5530286 -0.14007738 0
0.63650256 2.5167341 -0.14034873 0
3.3434753 2.5398393 -0.1037231 0
3.4891782 2.5170603 -0.10052118 0
-1.774 2.651 -0.175 0
-1.6952888 2.6692407 -0.17270802 0
-1.5301024 2.6856043 -0.16879258 0
-1.4856591 2.6082323 -0.16739362 0
-1.2156153 2.655457 -0.15815096 0
-1.06691 2.6463404 -0.15530436 0
-0.92378259 2.6321917 -0.15321055 0
-0.86142462 2.6488342 -0.15122426 0
-0.72526538 2.6389198 -0.15001771 0
-0.65200001 2.6070001 -0.15000001 0
-0.32699999 2.6530001 -0.15000001 0
0.23261943 2.6553059 -0.14436454 0
0.39134866 2.6655953 -0.14208838 0
0.449 2.6259999 -0.141 0
0.50800002 2.6010001 -0.141 0
3.1529489 2.6461945 -0.10816583 0
-1.739 2.7379999 -0.175 0
-1.5745455 2.7629764 -0.17019151 0
-1.2538844 2.7373667 -0.15834278 0
-1.11812 2.7701113 -0.15514383 0
-0.9669472 2.7518239 -0.15304889 0
-0.88800001 2.7279999 -0.15099999 0
0.25186625 2.7539673 -0.14408484 0
-1.6254944 2.8516741 -0.17179522 0
-1.2921536 2.8192761 -0.1585346 0
-1.1581299 2.8668127 -0.1550184 0
0.213 2.8110001 -0.14399999 0
3.0090001 2.8970001 -0.122 0
-1.3495574 2.9421406 -0.15882233 0
3.0605786 2.9512422 -0.11013453 0
-1.385 3.0179999 -0.15899999 0
-0.212 3.4219999 -0.15000001 0
-0.21734992 3.5112326 -0.14041053 0
-0.22537479 3.6450815 -0.1260263 0
-0.23339969 3.7789307 -0.11164207 0
-0.23874961 3.8681633 -0.10205258 0
0.37292561 5.2552691 -0.14522865 0
0.37570244 5.3820777 -0.14291464 0
0.37755364 5.4666166 -0.14137197 0
0.37940487 5.5511551 -0.13982929 0
0.38125607 5.635694 -0.13828661 0
0.38355365 5.7406168 -0.13637197 0
3.2790868 -2.1147676 -0.076669559 0
3.3239999 -2.1440001 -0.07 0
3.1320651 -2.0190756 -0.098502167 0
3.2055759 -2.0669215 -0.087585866 0
3.5209999 -1.97 -0.092 0
-0.41253051 -1.8444405 -0.0077879857 0
-0.39454576 -1.7641608 -0.017431978 0
-0.36977288 -1.6535804 -0.030715991 0
-0.345 -1.543 -0.044 0
5.1369691 -0.20140468 -0.042070016 0
5.226563 -0.2066856 -0.027684018 0
5.3161564 -0.21196654 -0.01329802 0
4.778594 -0.18028094 -0.099614002 0
4.8681879 -0.18556187 -0.085228011 0
4.9577813 -0.19084281 -0.070842013 0
5.0473752 -0.19612373 -0.056456018 0
4.513422 0.54292166 -0.099506944 0
4.6485128 0.56004775 -0.093615569 0
4.7836032 0.57717383 -0.087724201 0
4.869 0.588 -0.083999999 0
4.2496214 0.71273398 -0.097015277 0
4.3826876 0.73367262 -0.09124957 0
4.4713988 0.74763167 -0.087405771 0
4.5500002 0.75999999 -0.083999999 0
4.3368888 0.83688337 -0.099422783 0
4.4474816 0.85347223 -0.086704634 0
4.0965128 0.97709435 -0.09613049 0
4.1830983 0.99394345 -0.092152245 0
4.2696838 1.0107925 -0.088173993 0
4.3169999 1.02 -0.086000003 0
3.847878 1.1807885 -0.097904995 0
3.9765038 1.2248688 -0.092064701 0
4.0440001 1.248 -0.089000002 0
3.8512013 1.6749256 -0.094971769 0
3.9750743 1.7299961 -0.088964067 0
4.0576563 1.7667098 -0.084958933 0
4.1402383 1.8034236 -0.080953799 0
4.2429104 1.8490686 -0.07597433 0
3.725297 1.9371936 -0.0975357 0
3.8033566 1.9760323 -0.093842834 0
3.8814158 2.0148711 -0.090149976 0
3.948 2.0480001 -0.086999997 0
3.6288037 2.2058444 -0.099171974 0
3.5614727 2.5688255 -0.097651474 0
3.6737783 2.5179851 -0.099400654 0
3.7485747 2.5689828 -0.097134098 0
3.4493606 2.6189427 -0.098756962 0
3.5199506 2.6716785 -0.095446199 0
3.6337671 2.6205904 -0.094781771 0
3.7060616 2.6723557 -0.091912061 0
3.8607693 2.6454792 -0.093734264 0
3.2487955 2.7247784 -0.09966331 0
3.3126931 2.7771676 -0.093994968 0
3.5905409 2.7244141 -0.092135437 0
3.6611309 2.7771499 -0.088824674 0
3.7783561 2.7241206 -0.089042351 0
3.8528254 2.7774429 -0.086086325 0
3.9729638 2.7219753 -0.09033443 0
4.0170002 2.7520001 -0.089000002 0
3.376591 2.8295569 -0.088326618 0
3.4404886 2.8819461 -0.082658276 0
3.7478604 2.8419428 -0.084756956 0
3.493 2.925 -0.078000002 0
3.1379461 3.0326054 -0.092336334 0
3.2186568 3.1174843 -0.073769063 0
-0.24409953 3.957396 -0.092463098 0
-0.24944945 4.046629 -0.082873613 0
-0.25479937 4.1358614 -0.073284127 0
-0.2601493 4.2250943 -0.063694641 0
-0.26499999 4.3060002 -0.055 0
3.2554984 -3.1508105 0.019510705 0
3.1639941 -3.0572419 0.042042822 0
3.2839999 -3.053 0.039000001 0
3.7533906 -3.0071487 0.0060675009 0
3.822 -3.056 1.1217699e-13 0
3.0419881 -2.9324841 0.072085641 0
3.1312904 -2.9618397 0.059907626 0
3.2217948 -2.9909079 0.050875515 0
3.6504765 -2.9338722 0.015168753 0
2.9809852 -2.870105 0.087107047 0
3.0662823 -2.8356781 0.080564305 0
3.4789529 -2.8117442 0.030337505 0
3.5475624 -2.8605955 0.024270004 0
2.9729745 -2.7425401 0.098377571 0
3.381 -2.7420001 0.039000001 0
3.4103434 -2.7628932 0.036405005 0
-0.11972059 -2.0562592 0.0067570265 0
-1.9230001 -1.955 0.0025000002 0
-1.8606678 -1.9331249 0.0045429054 0
-0.11288237 -1.937036 0.021028105 0
-1.835134 -1.8649356 0.010565193 0
-1.7480034 -1.8133746 0.011628717 0
-0.10832355 -1.8575541 0.030542158 0
-1.8028648 -1.7962427 0.022089152 0
-1.7397972 -1.735864 0.031133728 0
-1.6916713 -1.7534996 0.015171622 0
-0.10376474 -1.7780721 0.04005621 0
-2.431 -1.651 0.015 0
-2.3615952 -1.603959 0.026104778 0
-2.273 -1.62 0.016000001 0
-1.9566666 -1.6426667 0.014333333 0
-1.8620254 -1.6164992 0.024447575 0
-1.644948 -1.648279 0.032304361 0
-1.599 -1.655 0.021 0
-0.099102959 -1.6967951 0.04978513 0
-2.4100001 -1.557 0.014 0
-2.343437 -1.5135893 0.028084373 0
-2.2403917 -1.5466431 0.037921581 0
-2.1276999 -1.5631351 0.029740848 0
-2.0518579 -1.5545661 0.030512668 0
-1.9365869 -1.5570532 0.033636421 0
-1.8327135 -1.5430177 0.041221004 0
-1.7400761 -1.5114975 0.051342726 0
-1.5618062 -1.5505426 0.052539833 0
-2.2435923 -1.4484732 0.049210932 0
-2.1533804 -1.4628357 0.059419118 0
-2.0541251 -1.4425799 0.062736608 0
-1.923574 -1.4636981 0.053538002 0
-1.859432 -1.4182643 0.065050669 0
-1.7548283 -1.4597981 0.063046873 0
-1.6540403 -1.4218878 0.074245043 0
-1.5220267 -1.4915358 0.06021833 0
-1.4516045 -1.4430069 0.074258611 0
-2.1437476 -1.383357 0.070337489 0
-2.0522516 -1.3469 0.084350176 0
-1.9599998 -1.3658376 0.08210212 0
-1.8475001 -1.3655 0.080500007 0
-1.6570001 -1.3840001 0.083999999 0
-1.592 -1.3839999 0.083999999 0
5.4505472 -0.21988794 0.0082809739 0
5.584938 -0.22780935 0.029859968 0
5.6729999 -0.233 0.043999992 0
2.9199822 -2.8077261 0.10212846 0
2.8589792 -2.745347 0.11714987 0
2.7759881 -2.6604841 0.13758564 0
2.8485644 -2.618356 0.12212861 0
2.9107695 -2.6804481 0.1102531 0
2.7601795 -2.5301321 0.13900205 0
