# .PCD v0.7 - Point Cloud Data file format
VERSION 0.7
FIELDS x y z intensity
SIZE 4 4 4 4
TYPE F F F F
COUNT 1 1 1 1
WIDTH 380
HEIGHT 1
VIEWPOINT 0 0 0 1 0 0 0
POINTS 380
DATA ascii
-39.75985 -3.7719862 -0.60684365 3
-21.476509 -0.79912406 -0.011468364 3
-21.584976 -0.98942167 0.17833729 3
-16.978146 5.2117386 -0.47006541 2
-14.101831 8.4492121 4.0266943 11
-13.352991 19.081961 12.718544 18
-13.033021 19.123983 12.330872 18
-12.482445 19.190941 12.197177 18
-12.24105 19.250868 12.587618 18.5
-12.371029 19.266916 12.86751 19
-11.809402 19.306004 12.229403 18
-11.027286 19.608313 11.97568 18
-11.086647 19.359398 12.243978 18
-11.138334 19.35137 12.412771 19
-10.533709 2.6577265 0.056289777 3
-10.563733 22.740982 5.4145999 10
-10.677279 22.870411 5.2038136 9
-10.761966 22.735691 5.6197572 10
-9.1212292 3.2660048 -0.26776752 2
-8.4013233 -2.9617386 -0.23459275 2
-8.144434 2.5419617 -0.026049981 3
-7.699738 3.6493657 -0.21820244 2
-7.8907995 -2.7717018 0.053178862 3
-6.0203662 1.5159723 -0.25292847 2
-6.0793433 -2.4874182 0.061938278 4
-5.4883823 3.9117889 -0.15472914 3
-4.9331951 -0.45336258 -0.23146017 2
-5.144536 -0.22628711 -0.24189642 2
-4.7876005 2.7528794 -0.30115804 2
-4.6925149 3.6690409 -0.13858582 3
-4.6735578 4.0222144 -0.33122432 2
-4.0771956 -0.91758496 -0.22545274 2
-4.3674889 2.7856045 -0.2823002 2
-3.9762831 -1.188493 -0.22140886 2
-3.9851172 2.7838035 -0.27454045 2
-3.7487619 2.9086487 -0.25670442 2
-3.3242509 -2.2273238 -0.20600252 2
-3.4300334 -0.29996169 -0.24349977 1
-3.2359369 3.0284355 -0.23658274 2
-3.4321589 23.931921 12.766665 18
-2.8317728 -1.8708545 -0.19830221 1
-2.932534 3.0727789 -0.22327411 2
-2.5179033 9.2397919 -0.42818162 2
-2.4900928 -1.0138456 -0.069785506 2.5
-2.5536916 3.0572717 -0.22049785 2
-2.5360913 3.5274358 -0.23240142 2
-2.495023 7.6497335 -0.36940926 2
-2.5051148 -1.0906107 0.18838955 5
-2.6291332 23.573666 25.240818 28
-2.0713568 9.3067751 -0.41648409 2
-2.1778164 -1.6520194 -0.052384011 3
-2.3503993 -0.94443685 -0.13146375 2
-2.3665664 -0.62503165 -0.2172396 1
-2.2440917 0.619169 -0.19700877 1
-2.1175501 0.98920929 -0.20134914 1
-2.018559 1.3022736 -0.20851463 1
-2.3241541 5.2856646 -0.27629548 2
-2.0660555 9.2884951 -0.15141669 3
-2.1706469 -1.6769521 0.17729409 5.1999998
-2.3846848 -1.099378 0.064274043 3.5
-2.1309822 -1.6672982 0.41157398 8
-2.3834879 -1.0504464 0.45532796 8
-2.2429862 23.696053 25.250034 28
-1.7465096 -3.297853 -0.096001498 2
-1.8944342 -2.9748621 -0.17597367 2
-1.867391 -2.5109491 -0.15791026 2
-1.9188101 -2.2345059 -0.15831652 2
-1.9566793 -1.6104485 -0.13950397 2
-1.8816848 -1.4837213 -0.18819958 1
-1.8142372 0.71209723 -0.20145896 0
-1.8449528 0.88273031 -0.19991757 0
-1.9047189 1.5014628 -0.20736034 1
-1.7043413 1.8624451 -0.20496003 1
-1.67067 -1.5687878 0.12134324 5
-1.6775885 3.8118677 0.37384948 6
-1.8009654 -13.6526 14.62833 28
-1.8939617 -13.559695 14.62823 28
-1.8523498 23.734661 25.14546 28
-1.9795617 23.666895 25.212128 28
-1.4732934 -3.3212156 -0.12248112 2
-1.4610592 -1.7828834 -0.047854576 3
-1.2412819 1.5028318 -0.1902311 0
-1.3416305 2.1299915 -0.19373594 1
-1.3341579 4.3302259 -0.03133595 3
-1.2998747 7.8657112 -0.224944 2
-1.2461569 -1.6942279 0.012090674 3
-1.549274 -1.5744215 0.17287162 5.5999999
-1.2710688 3.8020658 0.3243472 5.8000002
-1.4981322 -13.685286 14.606586 28
-1.589148 -13.592377 14.649484 28
-1.2035009 24.407173 25.062357 27
-0.96018159 -2.8795445 -0.16742289 2
-0.94143528 -1.780902 -0.0019937288 3
-0.91824096 1.2968194 -0.18653949 0
-0.92764509 2.1072206 -0.1885432 1
-1.1601677 -1.7364521 0.011054342 3
-0.9509052 -1.4541962 0.20216832 6.75
-0.91303629 3.9062963 0.26320398 5.25
-0.87043345 -1.4202006 0.45803499 11
-1.1258465 -13.719854 14.612913 28
-0.97854668 -13.599667 14.650007 28
-1.0634546 23.880581 25.229649 28
-0.78604645 -3.1277673 -0.16881706 2
-0.42565566 -1.652566 -0.0019662124 3
-0.71720278 1.4946749 -0.18450393 0
-0.60847294 1.603617 -0.18449043 0
-0.68914187 2.1681011 -0.18461475 1
-0.49412012 3.8401277 -0.22618218 2
-0.7997852 4.369978 -0.053679183 3
-0.6642859 -1.6542516 0.0067491229 3
-0.60461378 -1.3959086 0.20758691 7.4117646
-0.7541275 3.9383764 0.37027469 6
-0.46977162 4.1859441 0.30960402 5.5
-0.64890015 9.7274961 0.28022966 4
-0.59264338 -1.3457524 0.4994747 13
-0.31447607 -6.9080515 -0.12042602 3
-0.090914607 -3.4283984 -0.14728469 2
-0.0078281844 -2.0159466 -0.21829699 0
-0.16719872 -1.745572 -0.20445096 0
-0.20010965 1.9746096 -0.17757009 1
-0.2147474 2.0417125 -0.17854784 1
-0.32467553 4.1185794 -0.23016061 2
-0.24175046 4.5840082 -0.14044181 2.5
-0.15745692 8.0791454 -0.21594992 3
-0.22610225 -1.3003325 0.21929556 8.333333
-0.081626877 -1.2484726 0.53111345 15.25
-0.086235635 24.572929 25.396194 27
0.14986521 -6.5107379 -0.11310238 3
0.2153203 -2.5922692 -0.14676782 2
0.39399782 -2.3936818 -0.24408741 0
0.34535885 -1.6718011 -0.21873236 0
0.36940438 -1.5686939 -0.00045681759 3
0.2623316 1.7445284 -0.17002787 0.33333334
0.36732298 2.1018214 -0.16916846 1
0.09798228 4.9919949 -0.25060409 2
0.28169253 9.6605167 -0.25806957 3
0.14770634 -1.2777573 0.15829153 7
0.25058356 -1.1857947 0.28168708 10.142858
0.10842781 5.2901101 0.17972691 4
0.099086225 -1.2145367 0.56466055 16.25
0.1926199 -1.1907877 0.54607141 16
0.37701577 9.9924164 3.5925291 14
0.036912207 24.636372 25.84651 28
0.30164152 24.390289 26.091084 28
0.52927494 -2.4525006 -0.13797842 2
0.43154716 -1.7933217 -0.22456503 0
0.63260728 1.5624961 -0.15730153 0.66666669
0.50016415 1.7176207 -0.16152439 1
0.53534716 3.193536 -0.17468107 2
0.72201055 3.3119032 -0.17530553 2
0.57567441 4.5460138 -0.098766916 3
0.68845576 -1.4037486 0.063367739 4
0.54933035 -1.1304423 0.23285513 8.6875
0.58964282 -1.1038351 0.43806529 13.166667
0.44850063 9.7624598 3.8153448 14
0.51502472 24.662403 25.725225 27.5
1.0314988 -2.5547376 -0.17356732 1.3333334
0.97198623 -2.3665414 -0.25649941 0
1.0192479 -1.0266414 -0.040122241 2.3333333
1.1887057 2.2560728 -0.15132456 2
0.92269105 3.4293344 -0.17489658 2
0.83690071 4.7489085 -0.11132095 3
1.099095 8.2295465 -0.2806766 2
0.94558418 -1.0588881 0.22014263 7.7272725
0.91998881 4.2952409 0.18513098 4.6666665
0.97865939 -1.0391188 0.52132481 13.6
0.85424125 4.3252058 0.41175142 6
1.3796721 -2.6669521 -0.11758754 2
1.3830162 -2.2577138 -0.21521185 0.66666669
1.295267 -0.97965842 -0.028372573 3
1.4622034 0.77911979 -0.14315905 1
1.2921226 0.96283209 -0.14668483 1
1.5679703 1.4830846 -0.14166628 1
1.5118282 1.77657 -0.14105831 1
1.4086982 2.1474149 -0.14744768 2
1.3346357 3.0000725 -0.17356719 2
1.262827 -0.96011275 0.12531836 5.5
1.431864 -0.94403309 0.62600362 13.333333
1.6163284 -4.5647178 -0.093911119 3
1.7046521 -4.1064749 -0.10090448 3
1.6014742 -2.0690258 -0.25739619 0
1.6279438 -0.9400779 -0.13534203 1
1.6393131 -0.79742533 -0.13387801 1
1.7185994 -0.12198548 -0.13662812 1
1.6537249 0.083937362 -0.13891591 1
1.7560914 4.5203967 -0.0087315477 3
1.6356568 4.9493866 -0.14210486 2
2.1725104 -2.0161245 -0.26807132 0
2.3969471 -1.2870054 -0.12943421 2
2.3687377 -0.99346018 -0.12957703 2
2.3250229 -0.62678725 -0.13029967 2
2.309402 0.84524697 -0.13306838 2
2.2964358 1.8516371 -0.15063843 2
2.2482913 7.9127049 -0.21100581 3
2.3156409 9.9573364 -0.23656924 3
2.4085376 -1.4461226 -0.12837078 2
2.4878306 0.65282935 -0.13350444 2
2.5311449 1.6716537 -0.15031999 2
2.7700355 5.1616411 0.37687355 5
2.7368724 5.3300123 0.13940628 4
2.742691 5.1939898 1.0987285 9
2.6179869 5.338655 1.1452955 9
2.7328124 5.3234482 1.3214166 10
2.8704491 -0.0053934874 -0.13223173 2
3.1961582 1.4580762 -0.15415315 2
3.1925471 1.7494124 -0.15756327 2
2.813391 2.6133974 -0.15780728 2
3.1081409 3.9609201 -0.1506754 2
2.9640355 4.574543 -0.1003226 3
3.0146761 5.3333712 -0.00080375822 3
3.0883434 3.949506 0.32773164 5.1999998
2.9991856 5.2305503 0.15037565 4
2.985153 4.5802073 0.66472757 7
2.9640396 5.1369891 0.48398051 5.5
2.8524985 4.5432043 1.0434445 9
3.1424541 -12.213099 11.293331 25
3.139863 21.674681 11.309669 18
3.4039297 -0.48785341 -0.14102308 2
3.3061826 -0.23689237 -0.14783095 2
3.2581286 0.35180548 -0.14683408 2
3.2361183 0.5119499 -0.14701317 2
3.3793399 3.4960809 -0.13409574 2
3.4571691 3.9307981 -0.14373437 2
3.4575336 8.6675873 -0.25291154 2
3.220434 3.9019983 0.62473297 7
3.3971336 4.0792756 1.8950861 13.5
3.5374084 21.572332 10.873286 17
3.4107876 -12.160033 11.378695 25
3.7106752 8.1881018 -0.21606643 3
3.9740968 1.2269251 0.24760157 5
3.8665023 3.9337273 0.27125654 4.5
3.9181232 1.1575829 0.58207428 7.5
3.8895404 1.3209561 0.65471309 8
3.9271977 3.958703 0.61335635 6.5
3.9485669 4.0685883 0.44270274 5.5
3.9906199 1.1400461 1.0162274 10
3.8773639 1.4648297 0.92234874 9.6000004
3.9496109 1.6537138 1.0220561 10
3.920666 3.9975798 1.0782708 9
3.7272427 21.523451 8.1920347 14
3.8136992 -12.092948 11.40059 25
3.6293752 21.584953 11.310579 18
4.2180376 5.0058341 -0.03143179 3
4.2489886 -2.5541692 0.0020646588 3
4.299294 -1.801801 0.13599323 4
4.0549574 -1.2090563 0.0093963472 3
4.034111 -1.0018171 0.011286048 3
4.1215515 3.9602506 0.37781054 5
4.2507834 4.0291371 0.2004863 4
4.015193 1.1327897 0.7867794 9
4.0677662 1.7228504 0.71119523 8
4.1445322 3.991029 0.71780998 7
4.2253551 4.0349183 0.59791732 6.3333335
4.0847421 1.1782233 0.8188588 9
4.0160418 1.6667117 0.82316649 9
4.1654706 4.0312572 1.0312872 8.5
4.2767797 21.733356 7.4044099 13
4.26934 21.713343 8.298439 14
4.2350574 -12.149687 11.336894 25
4.6218634 -2.4916193 -0.0042916876 3
4.5321684 8.8623047 -0.20614746 3
4.4716249 -0.89379609 0.014997447 3
4.442945 4.0633264 0.30337009 4.5
4.4103384 4.0491443 0.57132137 6
4.456161 4.0871801 0.98736101 8
4.5703096 21.857517 7.9281154 14
4.5087337 -12.087379 11.357289 25
4.6957693 -11.977705 11.514548 25
4.9031973 1.8254489 -0.11534827 3
5.1403537 3.5519183 -0.11324587 3
4.9177804 3.7440553 -0.1220285 3
5.1112895 4.2695355 -0.14247826 3
5.1918893 5.3492508 0.00079095579 3
5.1417646 22.016489 8.0156565 14
5.442802 2.9835784 -0.12778828 3
5.4809933 5.1185398 0.022884702 3
5.3376422 21.90082 7.3855724 13
5.3471355 21.901787 8.4546099 14
5.8125019 -2.2364545 -0.062757462 3
5.6585197 21.895779 8.0036478 14
5.6978631 21.992977 11.548579 17
5.8230104 22.037724 11.526883 17
5.8198624 22.076365 11.817286 18
6.2626643 -0.28318605 -0.071207829 3
6.1044974 0.15742731 -0.077242762 3
6.266633 0.66954869 -0.084813043 3
6.1012325 0.931288 -0.091307849 3
6.2061319 3.0221243 -0.13733791 3
6.2727342 3.8325436 -0.15532207 3
6.2563338 8.6320286 -0.17594053 3
6.1119108 -12.255509 14.739852 28
6.1546822 -12.215258 14.865911 28
6.4755201 -0.91340369 -0.059536301 3
6.655828 2.8089142 -0.089208126 3
6.6095624 -12.161963 14.418647 27
6.5539007 -12.157195 14.859555 28
6.8222814 -0.63342345 -0.070064224 3
6.9130907 -12.077817 14.460135 27
6.9361391 -12.067407 14.948673 28
7.2340722 -12.1308 14.362679 27
8.3156843 5.6099877 0.1402472 4
8.7976027 5.3719592 0.17458601 4
9.0893621 -0.38267058 0.3347261 4
9.1519022 -11.68801 16.049915 28
9.4888105 -11.871894 15.422028 27
9.4721737 -11.810018 15.900491 28
10.755084 5.8751435 0.45579699 4
11.698064 0.073595561 0.42298886 4
14.341692 26.549744 14.98751 17
14.453145 26.696552 16.005512 18
15.015925 26.253197 14.988025 17
14.961092 26.485281 16.067385 18
16.195211 13.428008 4.1246786 9
16.362085 13.289903 4.5632706 10
16.51289 13.125394 4.0138612 9
17.617661 -10.341185 10.286989 17
18.371977 13.955343 4.6545224 9
18.186211 14.217409 4.4107089 9
18.222292 14.087173 4.8419971 9
18.074795 -10.322476 10.028811 17
18.686842 13.909132 3.7562602 8
18.549065 13.789501 4.4161568 9
18.40213 13.707764 5.0079761 10
18.421398 14.177629 5.0672784 10
18.819258 13.560391 4.4000812 9
19.53298 1.0748279 0.69496679 4
19.768599 3.0943179 0.2540037 4
20.117138 5.0836554 0.19597474 3
20.724672 2.1532359 0.72934449 4
20.887384 0.33766013 1.7957388 6
21.002981 0.065325566 2.3390875 7
20.884407 0.20950812 3.3578057 8
20.8608 0.33537471 3.8676968 9
22.709564 12.725594 1.9821601 5
22.753481 12.629283 2.3653765 6
22.844782 12.491087 2.7317402 6
23.013653 12.376537 3.2562222 7
22.950966 11.651459 4.1140385 8
22.998611 12.384038 4.1791859 8
22.986555 12.431408 4.9771018 9
23.503201 11.750594 2.020972 6
23.544821 11.683364 2.441138 6
23.262167 12.058323 2.7881176 6
23.407207 11.928556 3.2705648 7
23.200645 12.182866 4.9378433 9
31.925644 19.433323 12.709313 13
32.309914 18.928503 7.0637589 9
32.147404 19.180111 12.849107 13
32.581135 18.627356 7.1457047 9
32.588062 18.621042 8.1277285 10
32.478237 18.889654 8.5081501 10
32.462135 18.741537 12.73533 13
32.58823 18.654247 13.504698 14
32.503258 18.758957 14.031394 14
32.596767 18.556608 14.974854 15
33.101212 17.952194 8.1446247 10
32.940498 18.183624 8.5830088 10
33.012585 18.043776 12.771345 13
33.132652 17.947489 13.577708 14
33.115788 17.91678 15.015718 15
33.592903 17.352137 12.821367 13
33.307312 17.779913 12.965265 13
33.573151 17.272709 13.901434 14
33.865784 17.058117 13.021266 13
33.613842 17.259785 15.052534 15
34.149204 16.648336 12.872322 13
34.145191 16.606047 13.964369 14
34.136814 16.689798 14.344253 14
34.140686 16.618961 15.114347 15
34.701412 15.988752 11.823173 12
34.451126 16.33843 13.096277 13
34.677292 15.918123 14.020217 14
35.099316 15.627048 13.203356 13
35.26482 15.237851 11.883117 12
35.295616 15.224787 13.006191 13
35.422501 15.110671 13.967564 14
35.245186 15.244385 14.099077 14
35.21146 15.313138 15.182939 15
35.771305 14.527328 14.161878 14
35.881947 14.661061 15.394936 15
