# .PCD v0.7 - Point Cloud Data file format
VERSION 0.7
FIELDS x y z intensity
SIZE 4 4 4 4
TYPE F F F F
COUNT 1 1 1 1
WIDTH 88
HEIGHT 1
VIEWPOINT 0 0 0 1 0 0 0
POINTS 88
DATA ascii
-13.124986 20.748379 17.48761 22
-7.413743 -12.933514 6.6617217 16
-7.2486815 -13.046988 6.2803373 15
-6.3532252 -12.983551 4.0564232 11.5
-4.1327281 -13.664781 4.0935717 12
-4.1254892 -12.881848 5.4630179 15
-4.1875744 -12.876601 5.8588428 16
-3.6418512 -13.70233 3.6989882 11
-3.4664888 4.089303 0.35246512 5
-3.4369824 -14.885409 2.3609653 8
-3.4373419 -12.862804 6.0028567 16
-3.2733133 4.1876316 0.4607769 6
-3.1707559 -14.844082 1.8506252 7
-2.9577522 4.4264774 0.31523737 5
-1.8641461 -1.0440929 0.062288914 4.5
-1.866414 4.3239985 0.045277975 4
-1.9865162 23.778009 22.550915 26
-1.904653 24.085192 25.156826 28
-1.6344056 4.2052636 0.21875916 5
-1.6066641 -12.768638 5.3198543 15
-1.6948121 -12.767619 5.7275991 16
-1.5015372 -1.1780472 0.35413486 9
-1.4144868 -1.2685366 0.41043073 10
-1.5345501 -1.1183784 0.51549244 11.5
-1.5300467 -12.438878 11.647436 26
-1.5609373 23.803055 16.6765 22
-1.2352334 -1.4674245 0.52109796 11
-1.2906796 -1.3576397 0.52981025 12
-1.34167 -12.734207 11.105598 25
-0.97958511 -6.7668099 0.23322381 4
-0.66811162 4.4737291 0.27119976 5
-0.70755559 -12.403098 11.560801 26
-0.51651806 -6.7753787 0.33559102 5
-0.25691652 -12.680933 10.952739 25
0.090887874 -1.3789808 0.36496514 11
0.14536506 -1.3299819 0.56363004 15.5
0.47818819 -1.3132873 0.18447211 7.5
0.50964093 -1.2974586 0.34847045 10.5
0.55955559 3.5850282 0.22158082 5
0.50172251 -1.2989694 0.40547243 12
0.45270663 3.5919514 0.59344012 8
0.50392991 3.5861464 0.66051 9
0.4564693 -1.4503562 1.2953905 25
0.77857918 -1.3093662 -0.031118751 2.5
0.74629086 -1.3176018 0.076634087 4.75
0.7135632 -1.3143836 0.2788946 9
0.95028687 -1.2736285 -0.10863023 1
0.8061046 -1.3165339 0.21637008 7
0.842915 3.5708575 0.30393288 6
0.88089013 -1.312752 0.41635662 11
0.83372986 3.5679564 0.50892442 7
1.1706189 -1.315025 0.074309207 5
1.0810162 -1.3174764 0.24281928 7.5
1.1508374 -1.2811395 0.48533496 12
1.2388035 -1.2790496 -0.026673652 2.5
1.3579611 3.5972257 0.61146629 8
1.4897015 3.6003447 0.339591 6
1.5237812 -1.3225393 0.55927211 11.5
1.6302636 3.6205716 0.25270763 5
1.6340263 3.605829 0.74772054 9
1.8898427 -1.3177077 0.29925755 7
2.1114268 -1.247826 0.65430045 11
2.5847073 -1.2139611 0.80631638 12
2.7873678 4.5887923 0.34806678 5
2.7215447 -1.2259963 0.73430663 11
2.8583095 4.6379771 0.49409071 6
3.0811715 4.374042 0.31837767 5
3.3122911 1.2490199 0.005317295 3
3.3806155 1.1809642 0.22831918 5
3.3704205 1.2200394 0.33832163 6
3.3743954 1.2230586 0.42832235 7
3.3806071 1.163003 0.67581731 8.5
3.4035482 1.4164164 0.75433731 9
3.4005048 1.186066 0.8313216 10
4.4461546 -12.810835 14.377355 28
6.1461 21.295368 21.672647 27
7.1299839 21.356792 21.243568 26
8.5826807 -14.210066 17.558979 28
9.3323545 -14.358545 16.98085 27
9.7560091 -13.945908 17.920183 28
17.118755 3.0402434 3.0013916 8
17.039015 11.651401 3.7603614 9
17.539431 2.7154574 1.104278 5
17.588499 2.6303241 1.6252456 6
17.495686 0.40985793 3.3952379 9
17.69212 1.1633483 0.91261095 5
17.628511 0.67537701 1.568373 6
17.634766 0.31565726 2.9921892 8
