# .PCD v0.7 - Point Cloud Data file format
VERSION 0.7
FIELDS x y z intensity
SIZE 4 4 4 4
TYPE F F F F
COUNT 1 1 1 1
WIDTH 102
HEIGHT 1
VIEWPOINT 0 0 0 1 0 0 0
POINTS 102
DATA ascii
-6.2306004 4.1276078 0.45158073 5
-6.1879215 4.1258883 0.13667487 4
-4.1950531 -2.1684771 0.33835858 5
-3.7201862 4.3643513 0.10297736 4
-3.604944 4.3894091 0.26021579 5
-2.5141873 3.4753737 0.47320312 7
-2.2507586 -1.4782165 0.31656545 6.5
-2.2741389 3.4548371 0.39474449 6
-2.035759 3.5020392 0.51873374 7.5
-1.8229985 3.4249332 0.94874793 11
-1.7268122 -1.4391701 -0.011320885 3
-1.7019165 -1.4367636 0.11773271 5
-1.6735382 -1.441678 0.23580702 7
-1.792624 3.4182949 0.90081793 10
-1.4577501 -1.4534644 0.34283271 8.5
-1.5770072 3.434586 0.2762664 5
-1.4002453 -1.422097 0.42341098 10
-1.3390261 3.4468663 0.38075861 6
-1.3889501 3.5032995 0.41261292 7
-1.0737453 3.487231 0.3712737 6
-1.0773343 -1.4093804 0.63017195 14
-1.0209581 3.5053895 0.87036711 10
-0.94985145 -1.4452233 0.49756852 12
-0.82190478 -1.4109604 0.7498309 17
-0.92873162 -1.4108273 0.890553 18
-0.9413082 3.50348 1.0125285 11
-0.74436796 -1.4444277 0.30511019 9
-0.62115955 -1.4017797 0.71435422 17
-0.49159673 -1.4842271 0.20991099 7
-0.24918051 -13.061282 14.837639 29
0.15700574 4.1710529 0.30896553 5
0.19484998 -1.3453434 0.42144331 12
0.09322083 4.2816439 0.47276676 7
0.14016135 -1.4364026 1.0384035 22
0.34413651 -1.4002193 0.10731122 5
0.34383848 -1.371736 0.14033481 6.5
0.36581767 -1.3401442 0.27668291 9
0.26440936 -1.3394121 0.46990544 13.5
0.20042382 -13.049773 14.378325 28
0.51698494 -1.3862224 -0.014755723 3
0.56384951 -3.0139651 0.0098467683 3
0.55509573 -2.9879332 0.054872651 4
0.53078264 -1.3590344 0.10726125 5.3333335
0.50099391 -13.006265 14.484222 29
0.66619098 -1.3374094 -0.098767065 1.5
0.60762936 -1.3597798 0.11423286 6
0.63160855 -1.3610108 0.29022393 9
0.63610047 4.124866 0.33524638 5.5
0.68418419 4.1423984 0.57080179 7
0.9336465 -1.3429654 -0.14783683 1
0.8914606 -1.370968 0.081149243 4.5
0.88012922 -1.3740422 0.27914861 8.5
1.0680714 -1.3324145 -0.0448501 2
1.1216027 -1.3333204 0.14880851 6
1.1384526 -1.3282559 0.2961441 8.5
1.8989366 20.802906 12.366449 19
2.2798827 -13.225332 14.95538 29
2.5861344 -2.0752485 0.28741696 6
2.4251182 -13.25625 14.941311 28
2.7036836 -1.6207362 0.28583091 6
2.6212416 -2.0422423 0.45244765 7
2.6714525 1.083789 0.45359409 8
2.7661314 0.91222584 0.71626538 10.5
2.7246258 0.89768177 0.91025925 12
2.6836541 1.089582 0.90526289 12
2.6418316 0.95495844 1.0102527 14
2.8524797 -1.454607 0.13847721 4.5
2.9766221 0.98200738 0.15229766 5
2.8295639 -1.4440943 0.29398644 6
2.9164793 0.97800612 0.33029017 6
2.9209013 11.331875 4.6787887 15
3.0618668 0.97998703 -0.021692859 3
3.0338342 0.97496861 0.047303431 4
3.0522456 11.203382 4.3960557 14
3.5385795 -12.740599 9.4925013 22
4.3646903 -12.724022 9.6433792 22
4.9892874 4.8549657 0.30210996 5
5.0779896 4.5814061 0.55725592 6
5.3109088 4.3689427 0.30742416 5
6.0213366 -14.785243 16.993294 28
7.1616397 20.989607 12.381087 19
14.114766 11.355947 4.8047462 11
14.32561 11.35297 4.3258209 10
14.527485 2.8095407 1.1544433 6
14.546799 2.6869638 1.9803956 7
14.571741 -2.7755532 3.0300381 9
14.666344 -0.30972785 0.74882424 5
14.625603 -2.6386073 0.96914691 5
14.672457 -0.41934839 1.2917534 6
14.736577 -2.7321603 1.422074 6
14.739681 -2.6638331 1.8711284 7
14.705154 -0.12872176 1.8069394 7
14.688314 -0.26448935 2.5168531 8
14.722959 -1.0720505 2.6353147 9
14.615346 0.43446445 2.959281 9
15.250942 11.184702 2.8871608 8
16.841766 11.783212 2.7805214 7
17.703857 10.226397 2.5089035 7
17.930576 9.9826221 3.074959 8
28.21983 14.850064 13.445803 15
29.044306 -13.409108 11.723891 14
32.680206 7.6697011 12.007879 14
