# .PCD v0.7 - Point Cloud Data file format
VERSION 0.7
FIELDS x y z intensity
SIZE 4 4 4 4
TYPE F F F F
COUNT 1 1 1 1
WIDTH 413
HEIGHT 1
VIEWPOINT 0 0 0 1 0 0 0
POINTS 413
DATA ascii
-7.2013998 -7.4474912 -0.033136163 3
-6.6233268 3.4018013 -0.14982997 3
-6.1473713 4.2623496 0.30018094 4.5
-6.0202703 4.429935 0.13685767 4
-6.2329407 4.213335 0.75252372 6
-5.6123037 -6.4280143 -0.20015949 3
-5.956624 3.406368 -0.15337707 3
-5.9388747 4.379425 0.3640683 5
-5.9429274 4.368432 0.45006612 5
-5.986043 4.4312544 0.6759333 6
-5.5773745 4.8906112 -0.13844882 3
-4.903646 -3.0232975 -0.15986031 2
-5.0460887 -1.3683103 -0.19455846 2
-5.1958132 -1.1456808 -0.20413975 2
-5.1297212 1.1634023 -0.15313013 2
-5.0142627 4.8176064 -0.13816144 3
-4.6580086 -2.871937 -0.051555846 3
-4.4032202 -2.142123 -0.19713731 2
-4.6362901 -1.7237699 -0.045232803 3
-4.7744017 -0.81324959 -0.19263899 2
-4.6572933 9.5133162 0.02840443 3
-4.6960268 0.55544996 0.41324475 6
-4.2285147 -2.0833693 0.22743517 4.8333335
-4.3104587 -1.72017 0.37045851 6
-4.1060576 9.5397501 0.025516219 3
-4.2168789 -2.086283 0.55518794 6.75
-4.2382221 -1.8965423 0.50619817 6.6666665
-3.8712032 1.1063292 -0.17540334 2
-3.7323344 1.3501285 -0.17575799 2
-3.7474942 4.345335 0.14701232 4
-3.7250221 4.6456609 0.61918849 6.3333335
-3.2434254 -1.2924976 -0.1968524 2
-3.270505 -1.0450891 -0.19923154 2
-3.5561891 1.5965405 -0.16702284 2
-3.3259778 1.7774501 -0.16861959 2
-3.5916269 4.6549387 0.020073894 3
-3.0882006 -13.411751 -0.10842496 3
-2.9926136 -10.443178 -0.03036418 3
-2.9936082 -7.5423899 -0.0093403775 3
-2.8997142 -3.4269798 -0.19234981 2
-2.8610594 -2.8981388 -0.20131122 2
-3.1663272 -0.77364081 -0.19383749 1
-3.0093019 4.8668709 -0.16080095 2
-3.0092754 -8.8450336 0.023720978 3
-3.1950758 -7.1182556 0.011053023 3
-2.8129857 7.4487853 0.047725089 3
-2.4905021 0.69746816 -0.17316954 1
-2.4110293 0.86131942 -0.17308925 1
-2.5475941 2.2156031 -0.16111983 2
-2.5372546 4.0936322 -0.0032553114 3
-2.4844007 -3.0879185 0.03201893 3
-2.6559052 -1.5145346 0.22639742 5.6666665
-2.5267184 7.7915697 0.0020302895 3
-2.6786828 -1.5119133 0.40367645 7
-2.4451218 3.4753633 0.43035516 6.5
-2.1685817 -11.835629 -0.09124019 3
-2.0174983 -5.0192084 -0.20234214 2
-2.2556491 -3.1096148 -0.048339095 3
-2.2189126 -1.4648219 -0.049886417 2.5
-2.061986 -0.9974612 -0.19374751 1
-2.2815781 0.45119542 -0.1785713 1
-2.3021886 1.0095555 -0.17092876 1
-2.2413099 2.2497554 -0.16244566 2
-2.2956631 4.1520214 -0.16677429 2
-2.2838268 -2.5775514 0.03049078 4
-2.2342961 -1.483176 0.1517095 5.1999998
-2.1195252 3.456224 0.28208134 5.5
-2.2674456 3.4521742 0.4636361 7
-2.0569839 23.99695 18.657454 23
-1.6681353 -3.5646248 -0.19070031 2
-1.6263736 -2.0015848 -0.19001488 1
-1.7545823 -1.3538779 -0.104422 2
-1.7300683 -1.0900192 -0.18490061 0.33333334
-1.9279759 -0.64237976 -0.18425131 0.5
-1.8069278 0.44511253 -0.17754324 0
-1.6793984 1.3128303 -0.16566622 1
-1.7960291 2.1832182 -0.15539818 2
-1.9122833 -2.3485086 0.099966921 4
-1.6666809 -1.6698259 0.032238435 4
-1.6614404 -1.4721308 0.13992454 5.25
-1.6592929 3.4293451 0.26669464 5.4000001
-1.6682895 4.4651389 0.083317243 4
-1.7158631 3.4680462 0.56494713 8
-1.735112 3.4363108 0.92576253 10.5
-1.2071736 -3.4253237 -0.19765358 2
-1.3613596 -2.9310915 -0.19326834 1
-1.5420134 -1.6900011 -0.18642314 1
-1.5825071 -1.50612 -0.18486662 1
-1.2673731 -1.1338414 -0.18180381 0
-1.4231497 -0.60765433 -0.18491852 0
-1.2080855 0.93333161 -0.16739506 0
-1.4910911 1.4793216 -0.16181231 1
-1.4195936 1.8167125 -0.1563282 1
-1.2407355 2.4906006 -0.15335062 2
-1.2031697 -2.9681077 0.056282599 4
-1.3121808 -1.7451371 0.074260175 4
-1.4348243 -1.4640871 0.30774057 8
-1.4362439 3.4711077 0.22720324 5
-1.4280486 4.444149 0.080820993 4
-1.2294165 7.6015086 0.047653273 3
-1.3670608 -1.4164029 0.52181315 11
-1.3374763 3.4751282 0.58663034 8.333333
-1.4483957 3.4539175 0.91306639 10.5
-0.99440145 -3.6866705 -0.19486269 2
-0.81808501 -1.9599328 -0.17893361 1
-1.0737343 1.1105789 -0.16515237 0
-0.88565272 1.3313193 -0.16256891 0
-1.0101506 1.7450892 -0.15551801 1
-1.0540704 2.3840475 -0.15087102 2
-0.96527278 2.7065229 -0.15241364 2
-0.82076997 -3.3046477 0.087262824 4
-0.80229384 -1.4738219 0.25201696 8
-1.1718516 3.4837899 0.34727645 6
-0.81924528 5.1225214 0.17345427 4
-0.91084158 8.2611341 0.26867491 4
-1.0065434 -1.4252228 0.58479196 13.25
-1.1240768 3.5000784 0.66388369 9
-0.83710617 -1.4048514 0.87359136 18.5
-1.0633293 3.4988363 0.92355263 10.6
-0.52713609 -3.7155004 -0.18477224 2
-0.67335361 -3.4028883 -0.18702479 2
-0.4552384 -3.0153735 -0.17926091 1
-0.61725092 -2.1793897 -0.17531326 1
-0.77538651 1.1862245 -0.16247621 0
-0.68029135 1.8242115 -0.15816654 1
-0.55841708 3.4276679 -0.14866717 2
-0.70767117 6.0335817 -0.10409974 3
-0.65810597 -3.2887526 0.095747694 4
-0.61308038 -1.4378619 0.30127534 9.125
-0.58316511 9.6502533 0.021068389 3
-0.58944029 -1.4103183 0.56065196 13.866667
-0.59381044 -1.3924462 0.80990994 18
-0.47590733 -13.086746 14.678889 29
-0.2759397 -10.627762 -0.17767565 3
-0.15991123 -3.3661327 -0.18238889 2
-0.0085410764 -3.1881485 -0.18030442 1
-0.24131995 1.7654767 -0.15970242 1
-0.13978402 3.1189322 -0.14813988 2
-0.37617207 3.2685792 -0.14719468 2
-0.36456713 -14.810607 0.19945405 4
-0.034533754 -8.1292648 0.022707546 3
-0.24230856 -1.4275529 0.27868542 9
-0.074536152 4.57476 0.015235983 3
-0.21695296 -1.3904639 0.5562433 14.666667
-0.058249012 -13.044831 14.594457 29
0.29526344 -6.317894 -0.20388718 2
0.0016887786 -3.7590785 -0.17984033 2
0.31945759 -3.1639643 -0.18417381 2
0.16988535 1.7297212 -0.15746924 0.66666669
0.1880562 2.6683609 -0.1501966 2
0.32411799 -7.7423892 0.022865023 3
0.19484875 -1.3831958 0.25152597 8.666667
0.21190111 4.1807046 0.24204484 5
0.13476299 4.4276285 0.020709293 3
0.20627363 -1.3432602 0.55294061 14.8
0.3056412 4.2207069 0.4866944 6.6666665
0.11610863 -1.4148855 1.0589383 22.666666
0.1578836 -13.067223 14.149332 28
0.17284405 -13.005291 14.49542 28.666666
0.74711704 -7.9028249 -0.026458299 3
0.48545337 -3.2912748 -0.1833593 2
0.63184834 -3.0047214 -0.058504716 2.6666667
0.73979759 -2.2097559 -0.17852561 1
0.67738724 -1.3393377 -0.051503755 2.25
0.61256593 1.8024452 -0.15731263 1
0.57187623 2.5912664 -0.15004079 2
0.62999779 -2.995944 0.033336684 3.5
0.59897631 -1.3634628 0.13593213 6
0.654217 4.1542959 0.087245412 4
0.57812786 -1.3236127 0.73700702 17.5
0.7142309 4.1402135 0.49229079 6.6666665
0.49149209 -13.051132 14.411188 28
1.1344234 -8.0197849 -0.039705742 3
0.9787752 -2.9929862 -0.17727084 2
0.9835937 -1.3333598 -0.059596248 2
1.0257143 1.0804945 -0.16066 0
1.1245632 1.3244281 -0.1579017 1
0.98685962 1.905229 -0.15395197 1
1.0527316 2.0231605 -0.15096752 1
0.96932763 2.5931861 -0.15051644 2
1.1048818 8.1775274 -0.07201615 3
0.84831852 9.6826925 -0.076671951 3
0.99104446 -1.3632687 0.16483477 6.2307692
0.97503746 4.1780157 0.075177915 4
1.0503581 20.940973 11.907064 19
0.8871724 20.692875 12.171024 19
1.0892467 20.860725 16.049196 23
1.456423 -1.1848142 -0.16876394 1
1.3645904 -0.59106654 -0.16763276 0
1.2908609 1.1383656 -0.15568462 1
1.2137415 1.2354542 -0.15728417 1
1.2358778 1.8040714 -0.15313177 1
1.4157687 2.2923789 -0.15431324 2
1.2504539 2.57355 -0.15068178 2
1.4430257 7.5668888 -0.011026952 3
1.2612164 4.325819 0.045428533 4
1.3046229 4.5291405 0.019316284 3
1.2424735 5.2139854 0.0066693355 3
1.5394392 20.968824 11.921779 19
1.3956512 20.793003 12.292712 19
1.57432 20.894482 16.0749 23
1.3566312 20.87014 16.461594 23
1.7121673 -1.7217008 -0.16724642 1
1.9472679 -0.85907173 -0.16302064 1
1.9729394 -0.65719438 -0.16287176 1
1.9899799 -0.055779889 -0.16102098 1
1.8176403 0.27284035 -0.1579181 1
1.724104 0.47428054 -0.15639511 1
1.8162804 1.9483888 -0.15078993 2
1.6281835 2.1227949 -0.15252072 2
2.187356 -1.1604446 -0.16576888 1
2.0238063 -0.455762 -0.16273792 1
2.0085039 -0.25176206 -0.16161761 1
2.1600492 0.11357569 -0.15795182 1
2.2465312 -13.222904 14.677392 28
2.118408 -13.201187 14.831448 28
2.5697892 0.92557192 -0.14909638 2
2.4762414 2.1676562 -0.15102938 2
2.6145375 -2.0875463 0.2186556 5.5
2.6249309 -1.8519558 0.069121979 4
2.7510138 -1.5414798 0.18690114 5
2.6790442 0.99151844 0.39392489 7
2.7175813 0.79715884 0.73324698 11
2.7015054 0.99396974 0.57739431 9
2.7201674 0.78662175 0.8312459 12
2.6833389 1.0058867 0.8986268 12.666667
2.5502939 -13.265881 14.741266 28
2.5175021 -13.260413 15.05328 29
3.0556087 -2.0354929 -0.0095407525 3
3.1781881 0.30157927 -0.16086106 2
2.9666884 0.67898268 -0.15525472 2
2.8730655 -2.8859346 0.0026569306 3
2.8301313 -1.4623461 0.20677043 5
3.0188978 0.9465332 0.15117292 4.625
2.8725441 -1.4551942 0.41997704 7
2.9833443 11.375914 4.1938295 14
3.0047066 11.182436 4.8690138 15
3.5769727 -3.5669296 -0.1509836 2
3.2855008 -2.5685165 -0.17703404 2
3.4147458 -1.4010406 -0.1479737 2
3.3126504 -0.97324008 -0.15487865 2
3.3594465 -0.58807331 -0.15234815 2
3.2920129 -0.21060814 -0.15636161 2
3.2371776 0.14576605 -0.15892605 2
3.437922 5.2060037 -0.091045447 3
3.5446887 21.007582 16.261608 23
3.265821 21.062155 16.791185 23
3.6006339 -2.9552047 -0.060393557 3
3.7478085 2.2427316 -0.13659588 2
3.7634518 5.1478491 -0.095766239 3
3.7829669 -12.738441 9.50846 22
3.9812593 -12.73808 9.6354246 22
3.7461655 21.048353 16.847847 23
4.0124178 2.1575546 -0.13352178 2
4.1540198 3.8275397 -0.12388521 3
4.0911579 4.1022091 -0.11102808 3
4.170836 4.9243817 -0.10037564 3
4.1855049 20.97958 8.1364784 14
4.0322595 20.842955 8.6823893 15
4.0552268 20.839285 8.9194231 15
4.0394111 -12.735313 9.543417 22
4.1649914 -12.727028 9.648407 22
4.2977834 -15.094118 16.655245 28
4.0764279 -14.840049 17.019516 28
4.1764898 -14.71567 17.245108 29
4.4574552 -4.9230542 -0.16327782 3
4.5330691 3.7849493 -0.094704472 3
4.6218872 -1.3842912 0.18504922 4
4.6967473 20.98284 8.1661377 14
4.4865608 20.915375 8.6724234 15
4.5798702 -14.758138 17.072001 28
4.737246 -14.435363 17.323771 29
5.1031537 4.6312299 0.2908732 4.5
5.0210967 5.1266775 0.099012673 4
5.1130986 4.618587 0.6289227 6.3333335
4.9360895 -14.851277 16.796364 28
5.0971417 -14.702186 17.173477 28
4.9954305 -14.88293 17.292322 28
5.3708901 1.3391012 -0.11243387 3
5.4760809 1.979287 -0.10029618 3
5.5589952 2.3118725 -0.104251 3
5.2513719 4.4348168 0.26612949 4.5
5.3894801 -14.727618 17.272415 28
5.8532019 1.1803244 -0.11245727 3
5.9162731 -1.4598054 0.038998496 3
5.6706729 -14.849778 16.96627 28
5.7755084 -14.567163 17.271519 28
6.385869 -14.743731 17.057302 28
6.108304 -14.475478 17.304573 28
6.7139735 0.35392955 -0.11279623 3
6.6149092 0.65556329 -0.12064838 3
6.5436878 0.95517004 -0.1285186 3
6.749506 -14.682109 17.107336 28
6.4539495 -14.408813 17.375616 28
7.0849886 3.7850089 -0.082971789 3
7.1216598 4.2620091 -0.078997292 3
7.1829896 -14.316507 17.602657 28
7.2525373 -8.0975819 0.10670461 4
7.5846467 -12.715487 11.029181 23
7.2677493 -12.622592 11.439274 23
7.2467523 20.983414 12.961188 19
7.9586873 -1.5805628 -0.12808116 3
7.8506179 -1.1753994 -0.12677369 3
8.0893106 -0.82853186 -0.13252436 3
8.1197367 -0.39014003 -0.10823032 3
9.5694132 -7.1488953 -0.15819398 3
10.316647 24.506788 14.785766 19
10.347345 24.496384 15.517804 19
10.999024 4.5479202 0.30166584 4
12.885607 -2.6233947 0.29913956 4
13.180516 23.999905 10.896782 15
13.294009 -1.9678874 0.53665751 4
13.448036 -1.3967521 0.46408188 4
13.47906 24.600525 10.446636 14
13.994049 0.62748849 0.20639029 4
13.992688 11.584617 4.8186417 11
13.872056 11.610635 4.9835892 11
14.122083 -0.067373924 -0.068023004 3
14.350813 3.9869039 2.0238349 7
14.285151 -1.3742906 3.5065997 10
14.198695 0.20617728 3.2041447 10
14.10628 11.712995 4.3456483 10
14.157321 11.165302 4.77981 11
14.651625 -0.65162492 0.26360074 4
14.612428 1.8623077 0.20903677 4
14.6045 2.2021618 0.21219194 4
14.58536 2.8908799 0.21647666 4
14.674223 -0.19609249 0.63389671 5
14.64085 0.75521445 0.73746502 5
14.622161 1.1091824 0.73265845 5
14.61556 1.7964816 0.70050555 5
14.600621 2.1413713 0.70266467 5
14.598158 2.6267576 0.69662154 5
14.575402 3.0040412 0.71151912 5
14.597292 3.3915992 0.65415913 4.75
14.595524 3.7293661 0.56752026 4.5
14.545023 4.0259323 0.7368567 5
14.652336 -0.29766539 1.1348319 6
14.644695 0.21922955 1.1361523 6
14.640876 0.73310268 1.1374526 6
14.648725 1.0745014 0.9876402 5.5
14.692166 1.544623 1.1978838 6
14.632467 1.8196387 1.1625168 6
14.593641 2.1187844 1.1481546 6
14.581609 2.4666841 1.1533056 6
14.605794 3.0206785 1.1520253 6
14.543915 3.5303962 1.1707039 6
14.542466 3.8973269 1.1798189 6
14.69966 -2.638658 1.4881477 6
14.692113 -0.092518128 1.2759619 6
14.692688 0.23230317 1.2601609 6
14.691189 0.554106 1.2453506 6
14.674603 0.87892085 1.2285341 6
14.676941 1.2047369 1.2137098 6
14.685441 3.1182597 1.5925658 6
14.731771 -2.5270822 1.8272358 7
14.637657 2.747277 1.8134221 7
14.42869 2.9966373 1.9805114 7
14.558897 3.4229085 1.8086683 6.6666665
14.637177 3.838604 1.727806 6.5
14.718604 -2.8197215 2.2740042 8
14.687418 -0.36505717 2.1687884 8
14.715539 0.32382947 2.1582162 8
14.64556 2.7654095 2.13043 8
14.491647 3.7929487 2.3997853 8
14.759983 -2.2928641 2.6354187 8
14.788087 -1.9559957 2.6206756 8
14.674215 -0.18604821 2.6134026 9
14.5712 0.206671 2.5371451 8.5
14.538405 0.40127167 2.4652619 8
14.619309 3.1143286 2.4245617 8
14.599019 3.4601874 2.4196827 8
14.584393 -2.5503144 2.9917161 9
14.556063 -2.2074153 2.967983 9
14.522645 -1.8670224 2.9442403 9
14.505355 -1.3961328 2.9303348 9
14.588019 -1.149498 2.9042609 9
14.4803 -0.24237143 2.9258666 9
14.477867 0.09353172 2.9280765 9
14.713741 -2.8057494 3.3040147 10
14.709972 -2.4608483 3.2992883 10
14.685117 -2.1179492 3.2905521 10
14.554687 -1.8233081 3.4112732 10
14.668134 -1.4421591 3.2870538 10
14.664014 -1.1102906 3.2862878 10
14.447518 -0.43949056 3.2477405 10
14.813104 -1.6150938 2.6029284 8
15.305457 10.998002 2.735213 8
15.504964 10.841629 2.9172993 8
16.944935 11.53014 2.2495899 7
17.025167 11.407936 2.9246275 7.5
16.88096 11.616629 2.8585594 7
17.106871 11.39102 3.2036536 8
17.517838 10.624092 2.9423358 7.5
17.342192 10.830817 2.8477781 7
17.218393 11.209317 3.0207062 8
17.593962 10.612181 3.263855 8
17.328993 10.990577 3.2277584 8
17.911161 9.926136 2.2349567 6
17.934877 9.7986689 2.5019643 7
17.763298 10.228056 2.9514143 7.5
17.8409 10.216651 3.2999322 8
18.052734 9.6712542 2.8439882 7
19.364336 -5.9089732 -0.15652528 3
28.737629 -13.771729 11.571522 14
28.971823 -13.026338 12.121255 14
29.360044 -13.720446 10.804608 13
29.592838 -13.066476 11.344252 13
29.417868 -12.790194 11.781509 14
32.298347 7.9590421 10.127965 12
32.453167 7.7959828 8.8499136 11
32.576897 7.5547695 9.5548344 12
32.495159 7.9131641 12.909958 14
