# .PCD v0.7 - Point Cloud Data file format
VERSION 0.7
FIELDS x y z intensity
SIZE 4 4 4 4
TYPE F F F F
COUNT 1 1 1 1
WIDTH 1075
HEIGHT 1
VIEWPOINT 0 0 0 1 0 0 0
POINTS 1075
DATA ascii
-1.7359999 -3.8499999 -0.15800001 0
-1.7003675 -3.7686405 -0.14407 0
-1.6469185 -3.6466017 -0.12317501 0
-1.5934699 -3.5245628 -0.10228001 0
0.2548292 -3.5352697 -0.15411331 0
0.24702966 -3.430479 -0.1548681 0
0.24040096 -3.3414192 -0.15550959 0
0.0089487359 -3.2697597 -0.1530897 0
0.23377225 -3.2523594 -0.15615107 0
0.008410288 -3.1727045 -0.15403199 0
0.10982944 -3.1258631 -0.15802008 0
0.22714354 -3.1632993 -0.15679257 0
-0.20325677 -3.0485234 -0.15529054 0
0.0079231039 -3.0848894 -0.15488456 0
0.1068824 -3.0371051 -0.15836678 0
0.22051483 -3.0742395 -0.15743405 0
-1.5031719 -2.9634356 -0.10264322 0
-0.52999997 -2.937 -0.154 0
-0.32280493 -2.9545152 -0.15421362 0
-0.2686843 -2.976151 -0.15416446 0
-0.1960116 -2.9343257 -0.15649806 0
-0.038292602 -2.9423084 -0.15525723 0
0.0071923276 -2.9531672 -0.15616342 0
0.10410592 -2.9534841 -0.15869342 0
0.21388613 -2.9851797 -0.15807554 0
0.308 -2.9389999 -0.15800001 0
-1.818 -2.8559999 -0.164 0
-1.6600001 -2.8165002 -0.15899999 0
-1.5596195 -2.8678956 -0.15905792 0
-1.4421988 -2.8434703 -0.11651078 0
-0.74000806 -2.8245287 -0.15558858 0
-0.6587621 -2.8722448 -0.15505791 0
-0.51613951 -2.8561473 -0.15515503 0
-0.33987656 -2.8428276 -0.15558654 0
-0.2597445 -2.8752592 -0.15528193 0
-0.19050968 -2.8476048 -0.15741506 0
-0.044841785 -2.8311665 -0.1588921 0
0.045298651 -2.8435414 -0.15868141 0
0.14385219 -2.8673542 -0.15818621 0
0.21471234 -2.8470273 -0.15766349 0
0.3010602 -2.8710182 -0.15828326 0
-1.997 -2.7049999 -0.163 0
-1.8494337 -2.7622998 -0.16308662 0
-1.7568426 -2.7522361 -0.16420387 0
-1.6464601 -2.7707908 -0.1594177 0
-1.5342921 -2.7462647 -0.1597961 0
-1.3840536 -2.7290692 -0.12973511 0
-1.0332031 -2.7088673 -0.16001683 0
-0.97091562 -2.7319441 -0.1590623 0
-0.84080672 -2.7678614 -0.157415 0
-0.77279979 -2.7738292 -0.15644772 0
-0.66603369 -2.7540622 -0.15653309 0
-0.50199997 -2.7179999 -0.155 0
-0.46145418 -2.752949 -0.15590067 0
-0.33190835 -2.7655327 -0.15685712 0
-0.24830836 -2.7461944 -0.15671146 0
-0.18500774 -2.7608838 -0.15833205 0
-0.036598831 -2.7433128 -0.15894605 0
0.05353922 -2.7518685 -0.15935041 0
0.160732 -2.7374201 -0.15874416 0
0.26545224 -2.7440908 -0.15834345 0
0.34685892 -2.7549555 -0.15549299 0
0.43525434 -2.7494392 -0.1564104 0
0.76338238 -2.7480443 -0.15534002 0
0.80000001 -2.714 -0.154 0
-1.9564576 -2.650362 -0.16313957 0
-1.7773263 -2.6563108 -0.1633762 0
-1.6917037 -2.6417172 -0.16442099 0
-1.5564388 -2.6468258 -0.16076842 0
-1.4469293 -2.6513436 -0.15983689 0
-1.3452902 -2.652802 -0.13855134 0
-1.1419194 -2.6178551 -0.16005567 0
-1.0043249 -2.6315877 -0.16062693 0
-0.93874812 -2.6374996 -0.15971215 0
-0.81121016 -2.6685419 -0.1591225 0
-0.73849982 -2.6440244 -0.15770644 0
-0.63197863 -2.6501667 -0.15766488 0
-0.55470276 -2.6501334 -0.156271 0
-0.46752337 -2.6593735 -0.1568888 0
-0.3433522 -2.6552768 -0.15744317 0
-0.26743615 -2.6570649 -0.15907049 0
-0.17950581 -2.6741629 -0.15924904 0
-0.051067613 -2.6543777 -0.16 0
0.05321297 -2.6492109 -0.16011505 0
0.14085372 -2.6521938 -0.15966156 0
0.24540284 -2.641386 -0.15880126 0
0.36624938 -2.6446438 -0.15648723 0
0.46572226 -2.6457462 -0.15899999 0
0.52240133 -2.6505151 -0.15423068 0
0.75078678 -2.6588993 -0.15503374 0
-1.9024119 -2.5775259 -0.16332561 0
-1.8483661 -2.5046897 -0.16351165 0
-1.7267855 -2.582022 -0.16357918 0
-1.6622612 -2.5378854 -0.16417395 0
-1.5519333 -2.5727117 -0.16128907 0
-1.470046 -2.5722783 -0.16179197 0
-1.3349568 -2.5422032 -0.1565457 0
-1.2439212 -2.551089 -0.15972793 0
-1.1465101 -2.5464845 -0.16088715 0
-0.94295436 -2.5542758 -0.16075996 0
-0.75313663 -2.5419204 -0.16036254 0
-0.64637804 -2.5389481 -0.16034572 0
-0.55798125 -2.5323305 -0.15811911 0
-0.45612484 -2.5595551 -0.15807238 0
-0.34676367 -2.5268855 -0.15905359 0
-0.26128617 -2.5517335 -0.15911025 0
-0.17125291 -2.5440814 -0.16062452 0
-0.051766902 -2.5393443 -0.16 0
0.0049999999 -2.5580001 -0.16 0
0.15000001 -2.55 -0.15899999 0
0.22796762 -2.5412953 -0.15960042 0
0.35675836 -2.5646732 -0.15736586 0
0.44448149 -2.5231643 -0.15899999 0
0.50464213 -2.5494242 -0.15536909 0
0.67942637 -2.5071294 -0.15716226 0
0.75124109 -2.5604408 -0.13755974 0
0.86261368 -2.5556729 -0.13103452 0
0.95187539 -2.5362093 -0.14022915 0
1.0465622 -2.5399466 -0.15410852 0
-1.7943203 -2.4318533 -0.16369769 0
-1.615278 -2.4639015 -0.16434783 0
-1.5334864 -2.4595242 -0.16344325 0
-1.4423473 -2.4609928 -0.16268371 0
-1.3618213 -2.4372673 -0.16197696 0
-1.2466736 -2.4576414 -0.16314186 0
-1.1523255 -2.4311831 -0.16186744 0
-1.0749032 -2.4624262 -0.1612668 0
-0.93412185 -2.4437203 -0.16211011 0
-0.88058186 -2.466722 -0.16088723 0
-0.74400002 -2.4430001 -0.163 0
-0.68133318 -2.4276829 -0.15980428 0
-0.54008502 -2.4473643 -0.15909529 0
-0.44827825 -2.4211738 -0.15934116 0
-0.36750385 -2.4583907 -0.15990931 0
-0.25998276 -2.4441411 -0.16039117 0
-0.163 -2.414 -0.162 0
0.259 -2.4590001 -0.16 0
0.35369575 -2.4602897 -0.15824507 0
0.4604013 -2.4551306 -0.1576384 0
0.65774107 -2.4221036 -0.15752982 0
0.73950469 -2.4434502 -0.12290317 0
0.82990909 -2.4574392 -0.13548775 0
0.94423938 -2.4566038 -0.14394516 0
1.057387 -2.4293861 -0.15447518 0
1.129002 -2.4904985 -0.15402296 0
-1.7402747 -2.3590171 -0.16388375 0
-1.5465815 -2.3530777 -0.16459405 0
-1.4127734 -2.3496847 -0.16351563 0
-1.3187037 -2.3600183 -0.16252217 0
-1.2284949 -2.3530889 -0.162 0
-1.1477935 -2.3215232 -0.16334045 0
-1.0459876 -2.345329 -0.16196696 0
-0.8717494 -2.3561666 -0.16223738 0
-0.65846658 -2.3411465 -0.16064343 0
-0.54517472 -2.3441632 -0.16037194 0
-0.46619415 -2.3592079 -0.16016588 0
-0.36125103 -2.3513844 -0.16137803 0
-0.23949999 -2.3369999 -0.16150001 0
0.33249998 -2.3645 -0.1595 0
0.45154738 -2.3518465 -0.15809226 0
0.63605583 -2.3370776 -0.15789735 0
0.75382233 -2.3592243 -0.12981723 0
0.86353731 -2.3534234 -0.14678258 0
0.9512586 -2.3640468 -0.14690241 0
1.0428708 -2.3353858 -0.13053946 0
-1.6592059 -2.249763 -0.16416281 0
-1.5246224 -2.2848666 -0.16439109 0
-1.4740816 -2.2105777 -0.16459405 0
-1.3354622 -2.2257807 -0.16475262 0
-1.2562065 -2.2586319 -0.16251932 0
-1.1402655 -2.2411828 -0.16289896 0
-1.0500299 -2.2592802 -0.16181704 0
-0.97899997 -2.24 -0.163 0
-0.82241559 -2.2959442 -0.16206232 0
-0.79333252 -2.2105553 -0.16264986 0
-0.63559991 -2.2546098 -0.16148257 0
-0.5264498 -2.2571087 -0.16124797 0
-0.45509851 -2.2556746 -0.16151713 0
-0.33649999 -2.2474999 -0.163 0
0.42500001 -2.2525001 -0.15899999 0
0.65123665 -2.2664609 -0.1478034 0
0.76140255 -2.2529867 -0.14658466 0
0.84930539 -2.2332802 -0.1399519 0
0.94470465 -2.2529411 -0.13599013 0
1.044 -2.299 -0.155 0
-1.5781373 -2.1405087 -0.16444187 0
-1.4235408 -2.1362889 -0.16479704 0
-1.2841675 -2.1424854 -0.16526479 0
-1.1547898 -2.1498165 -0.16185579 0
-1.0429226 -2.171196 -0.16312766 0
-0.76424938 -2.1251664 -0.16323739 0
-0.61273324 -2.1680732 -0.16232172 0
-0.50772488 -2.1700544 -0.16212398 0
-0.42550001 -2.1515 -0.163 0
0.59268528 -2.1670258 -0.15863244 0
0.64955139 -2.1589351 -0.14817095 0
0.73498696 -2.1490757 -0.15245663 0
0.84953326 -2.1525719 -0.15334661 0
0.93971574 -2.1489596 -0.12459795 0
-1.5240915 -2.0676725 -0.16462792 0
-1.373 -2.062 -0.16500001 0
-1.2378966 -2.0669246 -0.16560668 0
-1.1339999 -2.05 -0.162 0
-1.0642904 -2.0604422 -0.16323759 0
-0.73516625 -2.0397778 -0.16382493 0
-0.58986664 -2.0815365 -0.16316086 0
-0.48899999 -2.0829999 -0.163 0
0.57099998 -2.082 -0.15899999 0
0.64387017 -2.0551395 -0.1557405 0
0.74777436 -2.046587 -0.15382877 0
0.8186059 -2.0290732 -0.15859312 0
0.90253675 -2.0687196 -0.13369846 0
-1.443023 -1.9584181 -0.16490698 0
-1.1684902 -1.9535837 -0.16611955 0
-1.0581678 -1.9382943 -0.16291894 0
-0.97240973 -1.9522289 -0.16539896 0
-0.70608312 -1.9543889 -0.16441247 0
-0.56699997 -1.995 -0.164 0
0.66600001 -1.9660001 -0.15899999 0
0.75437641 -1.9479523 -0.15809484 0
0.84676838 -1.9483597 -0.14734924 0
-1.1641458 -1.8294486 -0.1640514 0
-1.0700984 -1.8471234 -0.16481748 0
-0.94297916 -1.8300941 -0.16544631 0
-0.67699999 -1.869 -0.16500001 0
0.77349997 -1.846 -0.16049999 0
-1.2139509 -1.7505884 -0.16503893 0
-1.1425167 -1.7640418 -0.16453661 0
-1.0271988 -1.7738426 -0.16536312 0
-0.94803154 -1.7353535 -0.16501981 0
-0.87497425 -1.7470653 -0.16654256 0
-1.2460001 -1.668 -0.1645 0
-1.1591772 -1.6434935 -0.16583 0
-1.0458949 -1.6690041 -0.1660248 0
-0.94139963 -1.627281 -0.16645437 0
-0.86333442 -1.6551174 -0.16675639 0
1.6986344 -1.6059297 -0.15864579 0
1.7699194 -1.6723355 -0.15805078 0
-1.303 -1.544 -0.16500001 0
-1.2442586 -1.5718826 -0.16505557 0
-1.1561663 -1.5467378 -0.16585124 0
-1.0581738 -1.5446093 -0.16681261 0
-0.94534373 -1.5484345 -0.16721541 0
-0.88300002 -1.5700001 -0.16599999 0
1.63343 -1.5451885 -0.15919007 0
3.072 -1.5319999 -0.15000001 0
-1.3250632 -1.448707 -0.16547854 0
-1.2550826 -1.4625796 -0.16596977 0
-1.1506463 -1.4524029 -0.16639723 0
-1.0402738 -1.4619718 -0.16740541 0
-0.96000004 -1.4553334 -0.16766666 0
1.5356236 -1.4540768 -0.16000649 0
2.8318763 -1.4082417 -0.11331064 0
2.9519382 -1.4701209 -0.13165532 0
-1.62 -1.357 -0.168 0
-1.5681686 -1.3146557 -0.16811569 0
-1.3613644 -1.3530788 -0.16644038 0
-1.2566115 -1.3516235 -0.16668719 0
-1.1527615 -1.3421961 -0.16709001 0
-1.0477985 -1.3654779 -0.16763541 0
1.372613 -1.3022237 -0.16136718 0
1.4378172 -1.3629649 -0.1608229 0
2.7518351 -1.3669891 -0.10108085 0
-1.6670001 -1.204 -0.169 0
-1.5021405 -1.260713 -0.16826308 0
-1.4361124 -1.2067704 -0.16841047 0
-1.3392541 -1.2485921 -0.16722253 0
-1.2143207 -1.2748393 -0.16743919 0
-1.1414609 -1.2562406 -0.16784513 0
-1.0613333 -1.255 -0.168 0
1.3349781 -1.2397425 -0.16320822 0
1.4245 -1.2639999 -0.16500001 0
1.8890001 -1.201 -0.161 0
-1.702 -1.108 -0.17 0
-1.6723396 -1.1483977 -0.1695649 0
-1.5673795 -1.1381218 -0.16953561 0
-1.3700843 -1.1528279 -0.16855785 0
-1.2542881 -1.168624 -0.16755573 0
-1.1605557 -1.1517071 -0.16836937 0
-1.1 -1.182 -0.169 0
1.177 -1.12 -0.163 0
1.2471933 -1.1587043 -0.16297869 0
1.3480161 -1.1554978 -0.1643652 0
1.4410539 -1.1510953 -0.16551216 0
1.7337697 -1.1038842 -0.16203314 0
1.8452122 -1.1736052 -0.16129144 0
-1.759197 -1.0285532 -0.17403013 0
-1.6316134 -1.0670342 -0.17037241 0
-1.5723068 -1.0325172 -0.17068622 0
-1.4809999 -1.081 -0.17 0
-1.3040563 -1.0988852 -0.16870522 0
-1.2380282 -1.0449426 -0.16885261 0
-1.141 -1.062 -0.168 0
1.197 -1.086 -0.163 0
1.2551461 -1.0445052 -0.16385534 0
1.3547746 -1.0641904 -0.16502434 0
1.468498 -1.0444527 -0.165786 0
1.5851798 -1.0109228 -0.1630221 0
1.6594747 -1.0574034 -0.16252762 0
1.8494411 -1.0483998 -0.16109291 0
-1.6661971 -0.98055333 -0.17503014 0
-1.5445 -0.96600002 -0.1735 0
-1.1720001 -0.991 -0.169 0
1.238 -0.972 -0.164 0
1.3539979 -0.96245265 -0.16478601 0
1.43659 -0.91796136 -0.16401105 0
1.5108849 -0.96444207 -0.16351658 0
1.6419241 -0.9349426 -0.16219088 0
1.7660515 -0.94924074 -0.16189596 0
1.875036 -0.94971442 -0.1620357 0
1.276 -0.86150002 -0.1645 0
1.3622949 -0.8714807 -0.16450553 0
1.4519663 -0.83108562 -0.16319595 0
1.5279493 -0.87262839 -0.16279392 0
1.6594033 -0.84391844 -0.16240306 0
1.8434429 -0.8273136 -0.16226113 0
1.9254999 -0.83649999 -0.162 0
-1.7692837 -0.76779675 -0.17340274 0
-1.6605701 -0.72627807 -0.17504165 0
-1.597 -0.70200002 -0.176 0
1.3542835 -0.74924898 -0.16348843 0
1.4647348 -0.7484082 -0.1627347 0
1.5539802 -0.74657083 -0.16289973 0
1.644811 -0.74103916 -0.16292994 0
1.7446145 -0.75377584 -0.16416758 0
1.8656635 -0.78662288 -0.16307227 0
1.939 -0.71100003 -0.162 0
-1.8746076 -0.66159654 -0.17420451 0
-1.77648 -0.65972191 -0.17314203 0
-1.6388741 -0.62623936 -0.1753394 0
1.3180001 -0.63749999 -0.16350001 0
1.4461792 -0.65476465 -0.16359872 0
1.5700001 -0.67000002 -0.168 0
1.6469412 -0.65465581 -0.16636914 0
1.7624158 -0.64938956 -0.16442561 0
1.8748652 -0.68862331 -0.16288097 0
1.949 -0.61199999 -0.162 0
-1.9121484 -0.55082583 -0.17451805 0
-1.825527 -0.55766118 -0.1741133 0
-1.7529173 -0.54880178 -0.17506129 0
-1.6569335 -0.55163872 -0.17604104 0
-1.5330718 -0.54339767 -0.17746969 0
-1.4530358 -0.51569885 -0.17823485 0
1.575 -0.58399999 -0.167 0
1.6540917 -0.52297109 -0.1659745 0
1.7385216 -0.52547503 -0.16330692 0
1.8396248 -0.56320232 -0.1628731 0
1.9425346 -0.54453701 -0.16197693 0
-1.9228935 -0.46440017 -0.17534955 0
-1.8384193 -0.42910448 -0.17699701 0
-1.7670387 -0.46462989 -0.17576861 0
-1.6496079 -0.44692597 -0.17675373 0
-1.373 -0.48800001 -0.17900001 0
1.455058 -0.42170236 -0.16119945 0
1.5760387 -0.45780158 -0.16479963 0
1.6554648 -0.45860851 -0.16336572 0
1.7270066 -0.43478522 -0.16468433 0
1.8545761 -0.45202294 -0.16299015 0
1.9555 -0.4425 -0.162 0
-2.0050001 -0.30500001 -0.182 0
-1.7289995 -0.38923264 -0.17969091 0
-1.6569999 -0.373 -0.18099999 0
1.33 -0.38600001 -0.161 0
1.4749528 -0.31460524 -0.15904588 0
1.5669646 -0.35495394 -0.16328439 0
1.6484618 -0.35278842 -0.16394548 0
1.7283561 -0.34813684 -0.16256732 0
1.8460622 -0.3492471 -0.1622988 0
1.9505 -0.34600002 -0.16150001 0
-1.9458084 -0.28453869 -0.18126923 0
1.3474882 -0.28715131 -0.15826148 0
1.5695 -0.27749997 -0.1665 0
1.6464963 -0.2712526 -0.16518445 0
1.7607664 -0.2470364 -0.16364446 0
1.839438 -0.25859061 -0.16272338 0
1.944 -0.228 -0.161 0
-2.3349574 -0.16094957 -0.1758519 0
-2.2440608 -0.15429935 -0.17815283 0
-2.1672072 -0.14869958 -0.18010189 0
-2.0519266 -0.1402999 -0.18302548 0
1.5574999 -0.142 -0.16599999 0
1.6364442 -0.15013511 -0.16496938 0
1.7409674 -0.14659454 -0.16359127 0
1.8711673 -0.12965755 -0.16186169 0
1.937 -0.13500001 -0.161 0
-2.3355613 -0.050728153 -0.17630321 0
-2.2485919 -0.04846723 -0.17882982 0
-2.1720614 -0.046478152 -0.18105321 0
-2.0572653 -0.043494537 -0.18438831 0
1.545 -0.028000001 -0.16599999 0
1.6241512 -0.03132394 -0.16516902 0
1.7428782 -0.036309846 -0.16392253 0
1.861605 -0.041295752 -0.16267607 0
1.926 -0.044 -0.162 0
-2.3266139 0.058426619 -0.17613775 0
-2.2471707 0.056764923 -0.1789566 0
-2.1716139 0.055176616 -0.18163773 0
-2.0582786 0.052794151 -0.18565944 0
-2.3184195 0.16827889 -0.17779224 0
-2.2308788 0.16229334 -0.18018836 0
-2.1544194 0.15702888 -0.18229224 0
-2.0533066 0.15784296 -0.18526407 0
-1.999 0.123 -0.186 0
1.5140001 0.191 -0.167 0
-3.9001634 0.2994715 -0.18780901 0
-3.8108544 0.29268986 -0.188122 0
-3.7215452 0.28590822 -0.188435 0
-3.6322362 0.27912658 -0.188748 0
-3.5429273 0.27234495 -0.189061 0
-3.4536183 0.26556328 -0.189374 0
-3.3643091 0.25878164 -0.189687 0
-3.2750001 0.252 -0.19 0
-2.312 0.25099999 -0.177 0
-2.2546303 0.26205602 -0.17883229 0
-2.1440275 0.26204768 -0.18198895 0
-2.0461097 0.24035063 -0.18447021 0
-1.9695001 0.2295 -0.18650001 0
1.5598674 0.24934669 -0.16728936 0
1.6681023 0.25654012 -0.16636807 0
1.7542119 0.22904773 -0.16529638 0
1.8342824 0.2417303 -0.16472849 0
1.9256766 0.25620645 -0.16408032 0
-4.131 0.317 -0.18700001 0
-4.0787816 0.3130348 -0.18718302 0
-3.9588914 0.35158473 -0.1887221 0
-3.8380218 0.38742676 -0.18957968 0
-3.7477329 0.37793723 -0.18921116 0
-3.657444 0.36844769 -0.18884264 0
-3.5671554 0.35895815 -0.1884741 0
-3.4768665 0.34946862 -0.18810558 0
-3.3865776 0.33997908 -0.18773706 0
-3.2511444 0.32574478 -0.18718427 0
-2.3069999 0.30500001 -0.178 0
-2.2557344 0.35268605 -0.17944926 0
-2.1502352 0.36305261 -0.18203431 0
-2.0746863 0.35051441 -0.18419516 0
-1.9633828 0.35529637 -0.18388027 0
-1.854 0.38100001 -0.17900001 0
1.489 0.336 -0.168 0
1.567942 0.3564733 -0.16744667 0
1.6468841 0.37694657 -0.16689333 0
1.7337104 0.35524625 -0.16632393 0
1.8211261 0.32943019 -0.1657438 0
1.9133289 0.34839389 -0.16508988 0
-4.1474438 0.41994768 -0.19084263 0
-4.018599 0.40640584 -0.19031674 0
-3.3074896 0.48810989 -0.18657453 0
-3.2182448 0.47355494 -0.18628727 0
-3.1289999 0.45899999 -0.186 0
-2.2580953 0.43624392 -0.17822337 0
-2.1619456 0.47079742 -0.17849259 0
-2.0593107 0.44022086 -0.17853566 0
-1.9597944 0.46570313 -0.17788404 0
-1.846289 0.45026883 -0.17684837 0
1.469 0.40700001 -0.168 0
1.5474057 0.43134516 -0.16764198 0
1.6258115 0.45569032 -0.16728397 0
1.7042172 0.48003545 -0.16692595 0
1.8442394 0.42812982 -0.16551 0
1.9170001 0.447 -0.16500001 0
-3.9322033 0.58999455 -0.18858542 0
-3.8429585 0.57543957 -0.18829815 0
-3.7537136 0.56088465 -0.18801089 0
-3.6644688 0.54632968 -0.18772361 0
-3.5752242 0.53177476 -0.18743634 0
-3.4859793 0.51721978 -0.18714908 0
-3.3967345 0.50266486 -0.18686181 0
-2.2358541 0.54221499 -0.17891555 0
-2.1252487 0.56807721 -0.17882922 0
-2.0465615 0.54618287 -0.17837192 0
-1.9568187 0.57212949 -0.17809835 0
-1.8554395 0.53504318 -0.17769945 0
-1.7869999 0.5675 -0.17750001 0
1.7826228 0.50438058 -0.16656792 0
1.8610286 0.52872574 -0.16620991 0
1.9069999 0.54299998 -0.16599999 0
-4.041224 0.60777473 -0.18893634 0
-2.218179 0.64163679 -0.17994909 0
-2.1421506 0.65516341 -0.1792801 0
-2.0436976 0.66075587 -0.17916085 0
-1.9229549 0.66461301 -0.17921525 0
-1.8454775 0.63805652 -0.17885762 0
-1.7465 0.6505 -0.178 0
-1.5448024 0.67125332 -0.17768638 0
-1.424 0.616 -0.177 0
-1.3940001 0.685 -0.177 0
-2.1759436 0.75139129 -0.18039405 0
-2.0556712 0.7650063 -0.18045726 0
-1.9783784 0.73637968 -0.17984295 0
-1.8598515 0.73487186 -0.17904995 0
-1.7528005 0.73887342 -0.17845251 0
-1.6688025 0.75625336 -0.17768638 0
-1.5514836 0.76603085 -0.1779156 0
-1.4727418 0.72551543 -0.17745779 0
1.179 0.741 -0.16850001 0
1.26179 0.75250775 -0.16764483 0
1.35829 0.76500779 -0.17014483 0
1.4492006 0.77159953 -0.17120954 0
-2.1520176 0.84981102 -0.18149751 0
-2.0611773 0.85175008 -0.18037218 0
-1.9472464 0.83856535 -0.17984335 0
-1.8486384 0.84926802 -0.1791905 0
-1.7479082 0.85192132 -0.17865896 0
-1.6553046 0.86269414 -0.17615984 0
-1.5604254 0.89492261 -0.17811954 0
-1.4464254 0.84842259 -0.18011954 0
-1.3525 0.83649999 -0.17950001 0
1.252902 0.8521961 -0.16882157 0
1.3255312 0.84757423 -0.16791911 0
1.4362652 0.86127722 -0.16675693 0
1.5455015 0.82799888 -0.16852385 0
1.648 0.86300004 -0.16599999 0
1.7371118 0.88585317 -0.15854958 0
-2.119 0.96450001 -0.18149999 0
-2.0577598 0.93615544 -0.18097213 0
-1.9586926 0.94755447 -0.18031573 0
-1.866451 0.92809248 -0.17974681 0
-1.6636561 0.94890636 -0.17647779 0
-1.5755514 0.96455687 -0.17596829 0
-1.4609017 0.95923477 -0.17630951 0
-1.3737761 0.94715655 -0.17742158 0
-1.262 0.96033335 -0.17666666 0
1.086 0.97100002 -0.17200001 0
1.15644 0.93694723 -0.17166126 0
1.243 0.95700002 -0.17 0
1.3652595 0.93897915 -0.16815488 0
1.4420938 0.93372273 -0.1672574 0
1.5589817 0.95647079 -0.1661275 0
1.6505786 0.94059533 -0.16324066 0
1.8527794 0.94713283 -0.14737394 0
-2.0529673 1.0240617 -0.18083119 0
-1.8235525 1.0755355 -0.1807172 0
-1.7481271 1.030113 -0.18059766 0
-1.6305848 1.0402685 -0.17303081 0
-1.5402433 1.0411739 -0.17442825 0
-1.4447534 1.052739 -0.17597102 0
-1.340838 1.038867 -0.17624061 0
-1.2312269 1.0519799 -0.17560284 0
-1.1720001 1.086 -0.175 0
-1.0565549 1.0754993 -0.1730388 0
-0.97599995 1.043 -0.1725 0
1.053 1.036 -0.17200001 0
1.1283695 1.0590351 -0.17180946 0
1.2338707 1.0499163 -0.17040657 0
1.329841 1.0435299 -0.16948225 0
1.4361246 1.0583334 -0.16800724 0
1.5360237 1.0348791 -0.16682941 0
1.654929 1.0300554 -0.1622919 0
1.7384865 1.0599899 -0.15770741 0
1.8275161 1.0735356 -0.1511672 0
1.9445382 1.0535876 -0.14006181 0
2.0455589 1.0492656 -0.12874791 0
2.1226709 1.0901188 -0.12129749 0
-2.0020001 1.183 -0.18099999 0
-1.9744034 1.1663806 -0.18095626 0
-1.898978 1.1209581 -0.18083672 0
-1.605 1.118 -0.17299999 0
-1.5652939 1.1431379 -0.17495596 0
-1.4361267 1.152697 -0.17679159 0
-1.3462181 1.1356521 -0.17615934 0
-1.2352394 1.1463336 -0.17560185 0
-1.1257033 1.1476661 -0.17469253 0
-1.0195216 1.1424545 -0.17403054 0
-0.9421047 1.1649233 -0.17228958 0
-0.87400001 1.193 -0.17299999 0
0.98000002 1.17 -0.17399999 0
1.046505 1.1326134 -0.17309582 0
1.1594772 1.1391757 -0.17200001 0
1.2476251 1.142638 -0.17129801 0
1.3539994 1.1542794 -0.16962068 0
1.4697005 1.1647364 -0.16830623 0
1.7870145 1.1359241 -0.14767003 0
1.8533335 1.1593665 -0.15459462 0
1.9801934 1.165226 -0.14127868 0
2.074944 1.189144 -0.13288794 0
2.1997826 1.1309719 -0.11384708 0
2.2789474 1.1729126 -0.10619833 0
-1.6371871 1.2486537 -0.17886475 0
-1.5595299 1.2633383 -0.1750344 0
-1.4721028 1.2456375 -0.17631866 0
-1.3432345 1.2486784 -0.17626417 0
-1.2562003 1.25244 -0.17574644 0
-1.1643363 1.2440358 -0.17571081 0
-1.0578207 1.2472008 -0.17473979 0
-0.92514908 1.2656561 -0.17355718 0
-0.83499998 1.263 -0.17399999 0
0.89099997 1.2970001 -0.175 0
0.96336281 1.2684259 -0.175 0
1.0695353 1.2545065 -0.17366667 0
1.1599402 1.2546456 -0.1731212 0
1.2572234 1.236685 -0.17199975 0
1.3672194 1.2645339 -0.17077081 0
1.4125 1.2365 -0.16949999 0
1.5352809 1.2443674 -0.16793494 0
1.7534256 1.2380998 -0.16810378 0
1.9356908 1.2318735 -0.13545007 0
2.0240746 1.2564232 -0.13456048 0
2.1328707 1.2569164 -0.13139015 0
2.2292585 1.2795253 -0.12185059 0
-1.8122723 1.3830416 -0.18062146 0
-1.7422383 1.3292865 -0.17991877 0
-1.6180849 1.3606379 -0.17985085 0
-1.5263586 1.3360714 -0.17637539 0
-1.4640179 1.3553522 -0.17868975 0
-1.3554888 1.3620859 -0.17703404 0
-1.2403278 1.3460158 -0.17724808 0
-1.1565385 1.3623495 -0.17739859 0
-1.0513139 1.3367698 -0.17536874 0
-0.97629815 1.3383124 -0.17411436 0
-0.85909122 1.3671572 -0.17507689 0
-0.7615 1.3540001 -0.17449999 0
0.86049998 1.3545001 -0.17649999 0
0.94109058 1.3722795 -0.17538311 0
1.0454214 1.3560098 -0.17431939 0
1.1627543 1.3518666 -0.17376621 0
1.2736232 1.3556885 -0.17350189 0
1.3428596 1.3422724 -0.17233334 0
1.6544008 1.3241395 -0.16761243 0
1.7559086 1.370952 -0.169 0
1.8627026 1.3163995 -0.1684151 0
1.9355538 1.3685992 -0.16862266 0
2.0843673 1.3278229 -0.1232301 0
2.1739328 1.3508978 -0.12408064 0
2.2590001 1.369 -0.127 0
2.3297081 1.3383579 -0.11466596 0
-1.85 1.4119999 -0.18099999 0
-1.7534466 1.4745172 -0.18146779 0
-1.6857657 1.4175776 -0.18065931 0
-1.5613573 1.4451363 -0.17991967 0
-1.4567791 1.4485674 -0.17703862 0
-1.3366237 1.4613551 -0.17894046 0
-1.2523425 1.4374857 -0.17847499 0
-1.1506351 1.4536978 -0.17595835 0
-1.0527259 1.4428405 -0.17639187 0
-0.95379287 1.4431311 -0.17685401 0
-0.88017923 1.4727668 -0.17619951 0
-0.74716491 1.443909 -0.17540213 0
-0.67299998 1.472 -0.17550001 0
0.76533335 1.4636668 -0.177 0
0.86068153 1.4419264 -0.17735215 0
0.94785559 1.4520079 -0.17577949 0
1.0707649 1.4525436 -0.17462556 0
1.1618873 1.452194 -0.17459688 0
1.2486742 1.4517967 -0.17394966 0
1.306 1.4119999 -0.17399999 0
1.732 1.404 -0.16599999 0
1.8607717 1.4533799 -0.169 0
2.0448308 1.4468987 -0.16893399 0
2.221 1.416 -0.112 0
-1.762 1.5545 -0.182 0
-1.6586965 1.5349205 -0.18114959 0
-1.5332173 1.5592442 -0.1808297 0
-1.4422865 1.5393522 -0.1800842 0
-1.347294 1.5577594 -0.18020183 0
-1.2402558 1.5490797 -0.17547496 0
-1.1477234 1.546129 -0.17761597 0
-1.0509137 1.563094 -0.17814954 0
-0.96448994 1.5362101 -0.17751552 0
-0.84332979 1.540318 -0.17630427 0
-0.75520533 1.5384817 -0.17544495 0
-0.64945829 1.5659256 -0.17655045 0
-0.57499999 1.596 -0.178 0
0.67199999 1.543 -0.176 0
0.77269489 1.5597762 -0.177 0
0.85369194 1.5580872 -0.17578515 0
0.94919777 1.550711 -0.17600155 0
1.0462918 1.5521431 -0.17634447 0
1.1497059 1.5566916 -0.17495888 0
1.2130001 1.515 -0.175 0
1.9656346 1.5358078 -0.169 0
2.0355432 1.5907599 -0.169 0
2.1541076 1.5251982 -0.16924532 0
2.226959 1.5773979 -0.16945288 0
-1.647275 1.6749966 -0.18269394 0
-1.543795 1.6725928 -0.18204701 0
-1.4296634 1.639017 -0.18141942 0
-1.3486745 1.6887729 -0.17663327 0
-1.2618234 1.6390266 -0.179226 0
-1.1627809 1.6445524 -0.17873152 0
-1.0654498 1.6536405 -0.1789865 0
-0.94004327 1.6441042 -0.17714499 0
-0.83323497 1.6599914 -0.17672861 0
-0.74746639 1.635389 -0.17632 0
-0.62009424 1.6595416 -0.17790718 0
-0.54196185 1.6656741 -0.17833334 0
-0.47799999 1.697 -0.17900001 0
0.53866667 1.651 -0.17466666 0
0.6466465 1.6939825 -0.17376758 0
0.72036737 1.643924 -0.176 0
0.83355004 1.6489476 -0.17706127 0
0.95305395 1.641477 -0.1768764 0
1.0461988 1.6485322 -0.17623121 0
1.1414529 1.6733977 -0.17691551 0
2.1054518 1.6457119 -0.169 0
2.2998102 1.6295977 -0.16966043 0
2.3726616 1.6817974 -0.16986798 0
-1.6194999 1.7685 -0.18349999 0
-1.5478773 1.7733712 -0.18338238 0
-1.473846 1.730298 -0.1825268 0
-1.3495098 1.7551731 -0.18024133 0
-1.2522085 1.7375184 -0.17902234 0
-1.1501372 1.7597525 -0.17981865 0
-1.0390784 1.7583691 -0.17979033 0
-0.94645679 1.7489744 -0.17805979 0
-0.85731786 1.739009 -0.17689912 0
-0.76891661 1.759518 -0.17676759 0
-0.65168846 1.7435832 -0.17831436 0
-0.56375176 1.7489161 -0.1785 0
-0.45201734 1.7615933 -0.17857951 0
-0.36899999 1.7920001 -0.17900001 0
0.39899999 1.781 -0.176 0
0.46479407 1.7457553 -0.17523684 0
0.54330587 1.7545692 -0.1737275 0
0.62758601 1.7609297 -0.17607032 0
0.74370271 1.7466134 -0.17481494 0
0.88434774 1.745349 -0.17709191 0
0.95469373 1.7451136 -0.17723651 0
1.0417315 1.7284236 -0.17720443 0
1.1915435 1.7486771 -0.17729862 0
2.1753604 1.7006638 -0.169 0
2.2452693 1.7556157 -0.169 0
2.4189999 1.715 -0.17 0
-1.5650001 1.836 -0.184 0
-1.43383 1.8532765 -0.18323487 0
-1.3485408 1.8483112 -0.18046002 0
-1.2479506 1.8553739 -0.18104325 0
-1.1412287 1.850174 -0.18176663 0
-1.0461886 1.8541737 -0.17899252 0
-0.94789171 1.8433723 -0.17811249 0
-0.8357749 1.8368229 -0.17753452 0
-0.74148256 1.8471352 -0.17820637 0
-0.64770156 1.8442562 -0.17829284 0
-0.54921067 1.8572788 -0.17900001 0
-0.45325926 1.8449082 -0.17895928 0
-0.353955 1.8588196 -0.17918117 0
-0.273 1.8759999 -0.17950001 0
0.26049998 1.8770001 -0.176 0
0.34652156 1.8507142 -0.17554565 0
0.44468793 1.8427348 -0.17521445 0
0.55278093 1.8418274 -0.17482115 0
0.66493952 1.8539473 -0.17680272 0
0.76644707 1.8119191 -0.17575325 0
0.97143936 1.8699039 -0.1774596 0
1.0076919 1.8328348 -0.17792341 0
1.1259556 1.8346168 -0.17769064 0
1.2666794 1.8615965 -0.17787327 0
2.3160889 1.8112838 -0.169 0
-1.4511745 1.9452868 -0.18452601 0
-1.3449874 1.9397278 -0.18129641 0
-1.2608877 1.9500278 -0.18160388 0
-1.1276151 1.9548717 -0.18090241 0
-1.0415016 1.9481974 -0.17952311 0
-0.95703256 1.9357173 -0.17780277 0
-0.85444862 1.9522543 -0.17789866 0
-0.73506927 1.9506773 -0.17884724 0
-0.69253361 1.937277 -0.17956191 0
-0.5169915 1.9245495 -0.17898472 0
-0.42985165 1.9416721 -0.17935309 0
-0.33033487 1.9525158 -0.18017685 0
-0.23846899 1.9377698 -0.17969912 0
-0.168 1.959 -0.18000001 0
0.1994658 1.9634689 -0.17731053 0
0.27081138 1.9400082 -0.17491587 0
0.35783467 1.961711 -0.17378716 0
0.45761293 1.9314138 -0.17570753 0
0.53614688 1.9627978 -0.17713164 0
0.63276184 1.9511623 -0.17682415 0
1.052242 1.9521518 -0.17798412 0
1.1724483 1.9123862 -0.17797242 0
1.2189409 1.9901557 -0.17825419 0
1.3418152 1.9745157 -0.17844792 0
-1.5081942 2.043762 -0.185 0
-1.4219904 2.0352631 -0.18358301 0
-1.3361429 2.0571959 -0.18487935 0
-1.2333671 2.0745471 -0.18448257 0
-1.1560397 2.0655389 -0.18187475 0
-1.0448111 2.0714295 -0.1802204 0
-0.93196744 2.050741 -0.17871933 0
-0.84353983 2.0584068 -0.17957547 0
-0.74154973 2.0349035 -0.17968735 0
-0.46200001 2.0109999 -0.18000001 0
-0.34671131 2.0549908 -0.18074103 0
-0.2530393 2.0298128 -0.18014313 0
-0.18854518 2.0506632 -0.18079019 0
0.2423142 2.052593 -0.17504072 0
0.3335 2.0219998 -0.1735 0
0.45333874 2.0327413 -0.17812261 0
0.5585292 2.0480638 -0.1778422 0
0.67294556 2.0793748 -0.17760594 0
1.0536151 2.0318656 -0.17764343 0
1.136507 2.0727358 -0.17847745 0
1.2372167 2.0514627 -0.17576799 0
1.3919058 2.0497952 -0.17883103 0
1.414 2.0829999 -0.17900001 0
-1.6185826 2.1872857 -0.185 0
-1.5389005 2.1513307 -0.1846772 0
-1.4559951 2.1406591 -0.1838391 0
-1.3377031 2.1623569 -0.1846984 0
-1.2456282 2.1724696 -0.18379565 0
-1.1555341 2.157393 -0.18154991 0
-1.0501202 2.1647367 -0.17957099 0
-0.9356268 2.1355619 -0.17894328 0
-0.83863544 2.1343489 -0.17996721 0
-0.77989018 2.1379414 -0.18024315 0
-0.33399999 2.1359999 -0.18099999 0
-0.2342813 2.1501725 -0.18077604 0
0.1 2.131 -0.17900001 0
0.2151987 2.1489534 -0.17896581 0
0.4714517 2.1166551 -0.17883015 0
0.58091152 2.1333296 -0.17855275 0
0.69973469 2.1648498 -0.17812714 0
1.094703 2.1128464 -0.17773536 0
1.157618 2.173265 -0.17824471 0
1.2557718 2.1097641 -0.17323622 0
1.3338674 2.1663055 -0.17757255 0
-1.6419818 2.2788944 -0.18374336 0
-1.5458113 2.2490363 -0.18317798 0
-1.4168482 2.2391462 -0.18439464 0
-1.3519645 2.2392807 -0.18439892 0
-1.2502341 2.2506661 -0.18329565 0
-1.1502727 2.2471445 -0.18139936 0
-1.0666074 2.2405748 -0.18019697 0
-0.96031731 2.2529297 -0.17945005 0
-0.84125388 2.2478335 -0.18075746 0
-0.241 2.214 -0.18099999 0
0.10585453 2.2213676 -0.17881115 0
0.2394392 2.2446737 -0.17890841 0
0.4895646 2.2005689 -0.17953767 0
0.50767756 2.2844827 -0.18024521 0
0.63473552 2.2418506 -0.18054835 0
0.72652376 2.2503247 -0.17864832 0
1.1768787 2.2748079 -0.17791919 0
1.2401919 2.2658348 -0.17892341 0
1.3256576 2.2541459 -0.17635433 0
1.4440539 2.2495916 -0.17748207 0
-1.728971 2.3308096 -0.185 0
-1.63913 2.3550041 -0.1835217 0
-1.5373559 2.3684916 -0.18340942 0
-1.4538505 2.3548903 -0.1839449 0
-1.3651657 2.3231647 -0.18374267 0
-1.2534238 2.3287868 -0.183 0
-1.1580267 2.3303328 -0.18139048 0
-1.019673 2.3424137 -0.17717685 0
-0.921 2.336 -0.18099999 0
-0.8394506 2.3638732 -0.18151429 0
-0.2534169 2.3491585 -0.18085727 0
0.11170907 2.3117352 -0.17862229 0
0.2503784 2.3348477 -0.17881681 0
0.52659684 2.3721323 -0.18098424 0
0.65385336 2.3589666 -0.18080728 0
0.75331289 2.3357997 -0.17916952 0
1.2130001 2.346 -0.178 0
1.3723183 2.3504589 -0.17697173 0
1.5091078 2.3601832 -0.17596416 0
-1.8393594 2.4743335 -0.185 0
-1.7395387 2.4333682 -0.18439141 0
-1.6424041 2.4504931 -0.18270271 0
-1.5606204 2.4673657 -0.18348661 0
-1.4542761 2.4792747 -0.18323776 0
-1.3571802 2.4467258 -0.18309131 0
-1.2497342 2.4501445 -0.18219174 0
-1.163859 2.4145982 -0.18157586 0
-1.0780379 2.4794829 -0.17806117 0
-0.92299998 2.4330001 -0.177 0
-0.87241697 2.4595962 -0.18195239 0
-0.26583377 2.4843168 -0.18071455 0
0.12049087 2.4472866 -0.178339 0
0.26131761 2.4250216 -0.17872521 0
0.54549605 2.4620812 -0.18109997 0
0.65799999 2.427 -0.18099999 0
0.77121001 2.4590356 -0.18045904 0
0.866 2.4909999 -0.17900001 0
1.174 2.4100001 -0.178 0
1.2114514 2.4912326 -0.178211 0
1.4504523 2.4535744 -0.17552292 0
1.5524771 2.4339111 -0.17495221 0
-1.8400656 2.5642235 -0.18374415 0
-1.7332628 2.5475588 -0.18297429 0
-1.6085445 2.5434389 -0.18318392 0
-1.5338933 2.5498421 -0.18319674 0
-1.4637692 2.564817 -0.18277392 0
-1.3454388 2.5667005 -0.18259904 0
-1.2402885 2.5778975 -0.18236381 0
-1.1130568 2.5617242 -0.17859177 0
-0.96847963 2.5529008 -0.17787042 0
-0.27411169 2.5744226 -0.1806194 0
0.12927267 2.5828378 -0.17805572 0
0.24181789 2.5119417 -0.17863132 0
0.30269575 2.5184488 -0.17863591 0
0.56399208 2.5501623 -0.18119995 0
0.68049467 2.5137653 -0.18110366 0
0.73765075 2.5578232 -0.18252721 0
0.85927945 2.5647388 -0.18034029 0
1.05 2.533 -0.1785 0
1.1121861 2.5946615 -0.17735557 0
1.2489027 2.5724649 -0.17842199 0
1.4578238 2.5414267 -0.1776271 0
1.5661242 2.5329931 -0.1742969 0
1.6392157 2.5813665 -0.1729283 0
-2.0049419 2.6896193 -0.185 0
-1.9321185 2.6562738 -0.18502367 0
-1.844276 2.6519032 -0.1837384 0
-1.7327118 2.6709833 -0.18181884 0
-1.6564685 2.6195121 -0.18288125 0
-1.5433865 2.6353843 -0.18273288 0
-1.4222713 2.6423609 -0.183 0
-1.3509545 2.6500056 -0.18239778 0
-1.2785033 2.6595469 -0.18275777 0
-1.1480757 2.6439657 -0.17912236 0
-1.0139592 2.6728017 -0.17874084 0
-0.28238961 2.6645281 -0.18052426 0
0.1351272 2.6732054 -0.17786686 0
0.25674957 2.647295 -0.17849305 0
0.32058167 2.6536171 -0.17849937 0
0.58248806 2.6382432 -0.18129992 0
0.73034555 2.6442015 -0.18180911 0
0.8501451 2.6382127 -0.18151103 0
0.92497271 2.6577423 -0.18085013 0
1.028825 2.6588349 -0.1805 0
1.1453722 2.6763229 -0.17771113 0
1.2863541 2.6536975 -0.17863299 0
1.4967797 2.6145334 -0.17728388 0
1.556087 2.6540556 -0.17594488 0
1.642 2.6585 -0.1735 0
-2.036 2.73 -0.185 0
-1.9354891 2.7534513 -0.18173893 0
-1.838441 2.7477601 -0.18221347 0
-1.7523167 2.7716584 -0.18227589 0
-1.6475989 2.7439427 -0.18244538 0
-1.5288603 2.7604518 -0.1826826 0
-1.4644833 2.7207546 -0.183 0
-1.3539045 2.7358871 -0.18287459 0
-1.1830946 2.726207 -0.17965294 0
-1.044279 2.7527356 -0.17932113 0
-0.29066753 2.7546339 -0.18042912 0
0.14098173 2.7635729 -0.177678 0
0.27168131 2.7826481 -0.1783548 0
0.3384676 2.7887855 -0.17836285 0
0.6009841 2.7263243 -0.18139991 0
0.76772738 2.7528977 -0.18235274 0
0.87721771 2.7213192 -0.18226655 0
0.95445907 2.7411134 -0.1817752 0
1.0599222 2.7402177 -0.18096682 0
1.1472543 2.777997 -0.17903335 0
1.3238053 2.73493 -0.17884398 0
-1.868 2.8080001 -0.18000001 0
-1.7555001 2.8499999 -0.182 0
-1.6289999 2.862 -0.182 0
-1.5658536 2.8549223 -0.18272029 0
-1.458197 2.8652906 -0.18293132 0
-1.3549328 2.8228459 -0.18354569 0
-1.235623 2.8495691 -0.18044883 0
-1.0745987 2.8326693 -0.17990141 0
-0.29894546 2.8447394 -0.18033396 0
0.14683627 2.8539405 -0.17748916 0
0.28163576 2.8728836 -0.17826264 0
0.35039151 2.8788977 -0.17827183 0
0.61948013 2.8144054 -0.18149988 0
0.77047336 2.860826 -0.1815183 0
0.81238878 2.8186903 -0.18367262 0
0.93986613 2.838814 -0.18316662 0
1.0660883 2.845191 -0.18286732 0
1.1476007 2.8796792 -0.18000001 0
1.2117443 2.8396459 -0.17842227 0
1.3799825 2.8567786 -0.17916048 0
-1.3960738 2.910748 -0.18396983 0
-1.2881515 2.9729311 -0.18124472 0
-1.1184592 2.9483016 -0.18074083 0
-0.30722338 2.9348452 -0.18023881 0
0.1526908 2.944308 -0.1773003 0
0.29159024 2.963119 -0.17817046 0
0.36231548 2.9690099 -0.1781808 0
0.64722419 2.946527 -0.18164986 0
0.79296803 2.9475911 -0.18162197 0
0.84975779 2.9491239 -0.18424533 0
0.95843536 2.9706388 -0.18453309 0
1.0509943 2.9417896 -0.18399222 0
1.1792507 2.961349 -0.18000001 0
1.2449304 2.9213073 -0.17877783 0
1.4361594 2.9786274 -0.17947696 0
-1.3305852 3.0725863 -0.18188766 0
-0.31550127 3.0249507 -0.18014367 0
0.16027266 3.0613379 -0.17705572 0
0.33789206 3.0562382 -0.17808405 0
0.67496818 3.0786486 -0.18179983 0
0.85129476 3.056957 -0.18327184 0
0.98550791 3.053745 -0.18528859 0
1.0724044 3.0745983 -0.18547544 0
1.1424489 3.0479298 -0.1852015 0
1.2445087 3.0229938 -0.17956671 0
1.3113025 3.0846303 -0.17948896 0
1.4736106 3.0598598 -0.17968795 0
-0.32588962 3.1380281 -0.18002427 0
0.34799999 3.1389999 -0.178 0
0.69346422 3.1667297 -0.1818998 0
0.86847872 3.1210608 -0.18341464 0
1.011 3.132 -0.186 0
1.1450779 3.1637712 -0.18650123 0
1.2425511 3.1246886 -0.18000001 0
1.3444886 3.1662917 -0.17984453 0
1.520031 3.1605463 -0.17994948 0
0.7119801 3.2549055 -0.18199989 0
0.86772609 3.2359433 -0.18196648 0
1.1210001 3.2119999 -0.18700001 0
1.2507527 3.2397566 -0.18388391 0
1.359 3.2019999 -0.18000001 0
-1.5578372 -3.4432034 -0.088350005 0
-1.5222048 -3.3618443 -0.074420005 0
-1.4865723 -3.2804852 -0.060490005 0
-1.4331234 -3.1584461 -0.039595008 0
-1.383 -3.0439999 -0.019999996 0
1.1258051 -2.5505795 -0.07904771 0
1.0884314 -2.469919 -0.08819592 0
1.0512525 -2.3896792 -0.097296424 0
0.66000003 -1.526 -0.034000002 0
0.61561537 -1.4614151 -0.015489904 0
0.58402753 -1.3856814 -0.0047979658 0
2.6717939 -1.3257364 -0.088851057 0
2.43167 -1.2019782 -0.052161679 0
2.5517321 -1.2638574 -0.070506364 0
1.2359999 -1.125 -0.016000001 0
1.5520105 -1.1703408 -0.013438065 0
1.6720001 -1.13 -0.0080000004 0
2.2715874 -1.1194727 -0.027702093 0
2.3516288 -1.1607255 -0.039931886 0
0.91900003 -1.02 -0.041000001 0
1.1872524 -1.0768617 -0.0041177748 0
2.1949999 -1.08 -0.016000003 0
0.88717234 -0.98572403 -0.03283906 0
-2.0145955 6.9527698 -0.018660557 0
-1.9220001 -2.924 0.015 0
-1.8736008 -2.8512826 0.026743915 0
-1.8252017 -2.7785654 0.038487829 0
-1.7768025 -2.705848 0.050231744 0
-1.7284034 -2.6331306 0.061975658 0
-1.6800042 -2.5604134 0.073719569 0
-1.6316051 -2.4876959 0.085463487 0
-1.5832059 -2.4149785 0.097207397 0
0.5542931 -1.3072987 0.0045959814 0
0.163 -1.247 0.0020000001 0
0.52334845 -1.2344776 0.013754114 0
0.1513377 -1.1653639 0.014495322 0
0.48169446 -1.1452776 0.019302433 0
0.50115365 -1.1501505 0.031100966 0
1.4560423 -1.1023632 0.0062477421 0
0.44699189 -1.0643785 0.034204606 0
0.83820093 -1.024901 0.0042997682 0
1.1385047 -1.0287235 0.0077644512 0
1.3600739 -1.0343857 0.025933549 0
1.4851279 -1.0081269 0.028931253 0
1.5474186 -1.0487512 0.016620833 0
1.6097094 -1.0893756 0.004310417 0
2.8386011 -1.0277824 0.039937161 0
2.9671357 -1.0479742 0.024496831 0
3.0639999 -1.027 0.015 0
0.80599999 -0.99199998 0.012 0
1.0828786 -0.97379267 0.021323338 0
1.272 -0.972 0.043999996 0
1.4209186 -0.96625125 0.041620836 0
2.5218029 -0.91134739 0.087811485 0
2.6406021 -0.95501053 0.069858611 0
2.7569141 -0.96089965 0.062496692 0
2.8318202 -0.94909418 0.058565736 0
2.9092135 -0.97506279 0.044043824 0
2.461 -0.889 0.097000003 0
2.6770339 -0.89715701 0.087609552 0
-1.8435301 6.3193197 0.091431126 0
-1.8777432 6.4460096 0.069412783 0
-1.9119563 6.5726995 0.047394447 0
-1.9347651 6.6571598 0.032715555 0
-1.9575738 6.7416196 0.018036667 0
-1.9803826 6.8260798 0.0033577774 0
-1.5244033 -2.3266306 0.11147566 0
2.6110001 -0.875 0.1 0
-1.824 6.2470002 0.10399999 0
