# .PCD v0.7 - Point Cloud Data file format
VERSION 0.7
FIELDS x y z intensity
SIZE 4 4 4 4
TYPE F F F F
COUNT 1 1 1 1
WIDTH 93
HEIGHT 1
VIEWPOINT 0 0 0 1 0 0 0
POINTS 93
DATA ascii
-18.405449 20.001366 18.199608 21
-16.143238 21.235735 12.577256 16
-11.546969 19.242504 14.637658 21
-11.291545 19.213612 21.556797 26
-10.640049 19.519093 13.768438 20
-9.9735413 19.724104 14.352988 21
-8.7601566 20.137558 13.621967 20
-8.1127415 20.385057 6.282474 12
-8.0396538 20.424831 9.9685392 16
-7.972436 20.482161 3.1536136 8
-7.9241228 20.404524 14.191583 21
-7.2490587 3.4595418 0.23755054 4
-5.964942 20.943935 9.6587982 16
-5.0017934 24.766716 16.356571 21
-4.7584887 4.6286998 0.16583624 4
-3.540889 10.180182 0.15146753 4
-3.5075991 10.319969 0.48258507 5
-3.3891208 10.393934 0.92069775 6
-1.2529441 12.491361 3.4797902 11
-0.66236794 -0.63638681 -0.0020123385 3
-0.73190045 -0.56543976 0.015072183 3.5
-0.77043855 5.1787496 0.19136132 4
-0.78635979 26.171574 16.142948 20
-0.54073733 -2.1237195 -0.12977539 1
-0.53614616 -0.51153409 0.25899333 14
-0.46853507 12.535117 2.9669151 10
-0.24334019 -0.49321342 0.51208794 27
-0.24652585 12.342218 3.5158141 12
-0.094680578 -0.81919318 0.8078869 26
-0.11292007 -0.79998803 0.82285261 27
0.76776946 1.1495367 0.032719553 4
0.67680562 1.079933 0.38360977 11
0.68707132 1.0906793 0.42861733 12
0.89804178 1.0971162 0.15817428 6.5
0.89556658 1.1120259 0.20567945 8
0.9854787 1.1864351 0.97166383 21
0.99815774 1.2046481 0.92366391 20
1.1183405 1.2478809 0.080024995 5
1.141919 1.2338847 0.25868919 7.5
1.3582503 6.319973 0.11822048 4
1.2045166 6.3092909 0.35725072 5
2.8271503 -11.009852 11.300436 27
3.1497166 -11.065559 10.989454 26
3.2830884 -11.048876 6.6697936 19
3.4326594 -11.104316 4.3023033 14
3.5317016 -11.105066 4.6305976 15
4.3529725 -12.872508 2.9526894 10
4.4194283 -10.79408 4.2997861 14
4.9623451 -12.684909 2.6242452 9
5.0366035 -10.707982 4.0545483 13
5.524487 -12.520411 2.9547246 10
5.428484 -10.489746 4.3334441 14
5.6045408 0.56473738 0.49706399 6
5.8236628 -10.450289 6.947639 19
6.06146 3.9332798 1.073655 8
6.2788558 2.8805144 0.9104827 7
6.374383 2.5186105 1.0218067 8
6.2746058 2.8974569 1.930431 11
6.3218131 2.7025132 2.147136 12
6.5007644 2.4735901 0.61536354 6
6.4200659 2.3924804 0.90330088 7
6.4949403 13.60251 2.024611 7
6.4424295 -10.207899 7.0152445 19
6.746779 -12.178926 1.5060354 6
6.7467923 -10.104167 4.4280524 14
6.8806477 -12.09231 1.6663344 7
7.1618819 12.968216 1.8904922 7
7.1156392 13.144953 2.2016778 8
7.114151 -12.033866 2.619998 9
7.2703199 -12.008705 3.3644624 10
7.5432096 -11.920322 2.236201 8
7.4883504 -9.9025536 4.1621485 13
7.46696 42.652485 18.927645 16
7.8749862 -11.786365 1.31507 6
7.8782291 -9.7810497 4.5472412 14
8.7866554 -11.548424 1.7376847 7
8.7772112 -11.556352 2.6656709 9
8.6749802 -10.174811 14.097453 27
8.8136024 -11.515944 3.4607372 10
8.9842625 -9.4731054 5.3004231 15
9.1783819 -9.3834295 7.5959482 19
9.2463617 2.1508069 2.9455543 12
9.2701283 1.5779507 3.0309608 12
9.6204195 1.294736 2.7247558 11
9.6671314 -9.2347431 6.342339 16
9.9685602 -11.105345 2.2699304 8
10.117036 -8.8607569 11.529327 24
10.373796 -9.4359159 14.117001 27
11.14744 -10.882584 3.2315125 9
11.013683 -10.903678 3.6741023 10
11.383179 -10.813186 4.0252004 11
12.938666 -2.2322168 1.3294466 6
13.907495 -4.3388066 4.1681252 11
