# .PCD v0.7 - Point Cloud Data file format
VERSION 0.7
FIELDS x y z intensity
SIZE 4 4 4 4
TYPE F F F F
COUNT 1 1 1 1
WIDTH 130
HEIGHT 1
VIEWPOINT 0 0 0 1 0 0 0
POINTS 130
DATA ascii
-32.645138 -55.056873 16.799465 11
-21.36791 11.359918 8.73843 14
-20.453972 17.595537 8.8586836 13
-20.251966 17.823135 9.8719492 14
-13.971182 -2.1291823 2.1323197 8
-11.771972 -4.3286438 0.80661142 5
-11.761951 7.4460039 2.8474252 9
-10.744608 -1.8031355 0.22234394 4
-9.8399639 9.6313038 2.7850316 9
-9.5946045 8.3256006 0.95341051 6
-3.7722726 -23.117071 2.4776356 6
-3.3605189 -22.967081 2.7047665 7
-2.3379195 -1.1560597 0.1577975 5
-2.1722162 -1.2235309 0.3089222 7
-1.8614268 -1.5806446 0.58501166 10
-1.8344376 -1.5656539 0.61500275 11
-1.6063541 -1.7067567 0.15273054 5
-1.6927539 -9.8291912 0.23917979 4
-1.6201937 -1.6747786 0.38576159 8
-1.7814748 -1.4895413 0.3230224 7
-1.6937629 -9.837183 0.43418017 5
-1.5611299 -1.8599843 0.62310714 10.5
-0.84510559 1.8377817 0.115551 5.5
-0.90944618 6.9936743 2.0495892 12
-0.68942028 1.8630847 0.27152529 7
-0.64845765 1.5834056 0.53799999 12.5
-0.79922199 6.8151436 2.4041429 13
-0.42514837 1.7601081 -0.051991183 2.5
-0.49004471 1.7271352 0.094342716 5
-0.47113842 6.6666613 0.30520242 5
-0.57966655 1.5833919 0.51522982 12.5
-0.44103286 1.6555009 0.52659804 12.5
-0.38587126 1.7494019 0.1196505 5.5
-0.22719702 -15.845199 4.5823426 12
0.34721255 5.0751696 0.2336778 5
0.52132893 4.8670411 0.17742448 4
0.49582571 4.8704429 0.44535822 6
0.92041165 5.4993396 1.2054048 10
1.0930978 5.3630176 1.7230158 12.5
1.3657336 3.6880231 0.13821439 4
1.3200841 5.1718268 0.9278214 8
1.2369962 5.2528882 0.95851016 9
1.2948533 5.1814747 2.8077567 18
1.4798183 3.6420746 0.17153203 5
1.7016503 3.1466715 0.10525738 4.5
1.6586922 3.1185088 0.35671473 6
1.6883669 3.0088646 0.59494388 8
1.9412892 -6.2728581 0.30240002 5
1.9293379 4.0681319 3.3928223 23
2.0172014 -6.2569199 0.26844907 4
2.3860497 -15.729019 2.4388218 8
2.6087573 2.1148334 0.073855057 4
2.6382127 7.2956347 2.8743989 14
2.8260939 1.8441522 0.15651695 5
2.9240346 -4.0032396 0.25381273 5
2.8737781 -15.188263 1.9660864 7
2.987061 7.340971 2.5270305 13
3.0503278 7.3367538 2.3891616 12
3.1066682 3.5750384 3.5976918 23
3.2915168 -3.8696353 0.19309834 4
3.2685199 -3.8685975 0.2380787 5
3.2225299 -3.9584262 0.45405328 6
3.7290161 -11.070345 7.6052632 21
3.8810022 -14.09268 1.8166901 7
4.5661659 -10.301614 4.0758567 14
4.4810486 -10.164637 7.282774 21
4.6242747 -13.11397 2.051168 8
4.6000094 -10.202734 7.0648766 20
5.0950608 -9.4596024 5.0032334 16
5.7093792 -8.9813185 9.3217421 25
6.0635686 -8.3443623 9.4970217 26
6.3777294 -8.0286655 4.149291 15
6.5086088 -10.083622 3.5795453 12
6.5713305 -7.8036866 4.4184594 16
6.5543165 -7.8378153 6.4404469 20
6.555038 -7.4777884 6.6064239 21
6.7105465 -9.9408484 3.2767231 11
6.8725758 -10.026019 2.9988787 10
6.9771204 -9.5409594 3.4889481 12
7.0342622 -7.3349671 8.8968735 25
7.6579142 -6.460568 4.2984238 15
7.6695471 -6.3873267 4.8234305 17
7.8713551 -6.1575418 4.7086129 16
8.273385 -8.7722864 4.5021505 14
8.3589964 -5.7265902 8.9430647 25
8.4533978 -8.5975742 4.1383185 13
8.7676487 5.8518248 1.7389807 8
8.6924572 -8.2378759 1.802536 8
8.7122211 -8.2916756 2.2195582 9
8.8749495 -8.0145864 0.68570542 5
8.9696884 -7.9335108 1.0057954 6
8.8014212 -8.1540022 1.7176399 7
8.865303 5.342207 1.9606068 9
8.893858 5.3305721 2.3136539 10
8.9840555 -4.8185439 4.6045995 16
8.9847651 -4.830297 5.0145998 17
8.9796028 -4.9176316 9.4836054 26
8.9992056 -4.6097283 11.050594 28
9.3412313 -7.5329103 2.8611453 10
9.3632402 -7.5071325 4.4161663 14
9.2885256 -4.7140012 9.128891 25
9.590601 -4.0792546 4.3481112 15
9.7307987 3.6034009 0.79211521 6
9.7508345 -7.0061073 1.3295246 7
9.7931395 -6.9218049 3.8415632 13
9.8440409 3.6111674 0.60523432 5
10.154045 -6.5063128 3.482898 12
10.365791 -6.2702618 2.1480932 8
10.391502 4.2710333 2.0333335 9
10.785767 -5.7027807 0.339468 4
10.748643 -5.8035827 0.56343937 5
10.986943 -5.5083966 1.3056523 6
10.882666 -5.6150122 1.7725576 8
10.954816 -5.1478477 4.0155869 13
10.872992 -2.618962 5.0151277 16
11.065743 -5.4025431 2.8437219 10
11.226364 -5.2304697 3.2038658 11
11.242777 -2.0715804 6.0453682 18
11.546733 3.3798218 1.976243 8
11.514953 -4.8584142 2.1671124 8
11.456717 -4.9041457 2.5120599 9
11.688978 3.3454101 2.6574175 10
11.631461 -2.0922012 4.1017537 13
11.876204 3.2661891 2.4826682 9
12.920251 -3.177043 3.3222549 11
13.149713 -2.9059041 3.8264287 12
13.938096 -1.9532211 3.0799894 10
14.432537 2.2846408 0.54387784 4
14.543755 2.9593015 4.990633 13
21.310846 3.9444332 19.319046 25
