# .PCD v0.7 - Point Cloud Data file format
VERSION 0.7
FIELDS x y z intensity
SIZE 4 4 4 4
TYPE F F F F
COUNT 1 1 1 1
WIDTH 1402
HEIGHT 1
VIEWPOINT 0 0 0 1 0 0 0
POINTS 1402
DATA ascii
0.23701985 -3.5689628 -0.20524327 0
0.30778396 -3.5483561 -0.20397407 0
0.4533034 -3.5624025 -0.20317027 0
0.70812637 -3.5911145 -0.20069978 0
-0.93743122 -3.4665363 -0.20705771 0
-0.76538706 -3.4558964 -0.20509247 0
-0.68027037 -3.4439766 -0.20392205 0
-0.51956433 -3.4604414 -0.20358691 0
-0.43398198 -3.4332514 -0.20267712 0
-0.38000619 -3.4335289 -0.20112933 0
-0.28529626 -3.4452543 -0.20323943 0
-0.19757429 -3.4544773 -0.20500222 0
-0.044 -3.471 -0.205 0
0.038945802 -3.4703999 -0.20463118 0
0.13882871 -3.4674535 -0.20439044 0
0.266 -3.4990001 -0.204 0
0.30142596 -3.4705338 -0.20321111 0
0.44712135 -3.460161 -0.20126811 0
-0.91569269 -3.3792803 -0.20554811 0
-0.73992473 -3.3272643 -0.20339498 0
-0.66570276 -3.3592324 -0.20294154 0
-0.51004291 -3.3786275 -0.20305794 0
-0.42485923 -3.342845 -0.20121747 0
-0.36971959 -3.3443105 -0.20011085 0
-0.28195029 -3.3377099 -0.20117801 0
-0.19441767 -3.3220744 -0.20254707 0
0.029972902 -3.3497 -0.2023156 0
0.29221296 -3.3577669 -0.20210555 0
-0.88308483 -3.2483962 -0.20328367 0
-0.7229498 -3.2415094 -0.20226333 0
-0.65113515 -3.2744882 -0.20196103 0
-0.50052142 -3.2968137 -0.20252897 0
-0.491 -3.2149999 -0.20200001 0
-0.19231325 -3.2338057 -0.2009103 0
0.28299999 -3.2449999 -0.20100001 0
-0.85047704 -3.1175122 -0.20101924 0
-0.70597494 -3.1557546 -0.20113166 0
-0.63656759 -3.1897442 -0.20098051 0
-3.4656658 -1.7390319 -0.20811176 0
-3.3347046 -1.6695689 -0.20866746 0
-3.2561755 -1.6279162 -0.20900068 0
-3.1776462 -1.5862635 -0.2093339 0
-3.0598524 -1.5237844 -0.20983373 0
-2.9420586 -1.4613054 -0.21033356 0
-2.8635292 -1.4196527 -0.21066678 0
-2.7850001 -1.378 -0.211 0
1.154 -3.602 -0.199 0
0.69530106 -3.5112917 -0.19935982 0
0.96498704 -3.567071 -0.19853209 0
1.1295524 -3.5198116 -0.19777147 0
1.2343211 -3.5628932 -0.19987077 0
0.68247581 -3.4314687 -0.19801986 0
0.9368118 -3.4512849 -0.19688682 0
1.1046163 -3.4359813 -0.19651841 0
1.207031 -3.4785316 -0.19851193 0
1.3975531 -3.4471495 -0.19461656 0
1.413 -3.4849999 -0.19499999 0
0.44299999 -3.392 -0.2 0
0.66965055 -3.3516457 -0.19667991 0
0.9166494 -3.3684278 -0.19570945 0
1.0796802 -3.3521512 -0.19526534 0
1.1660957 -3.351989 -0.19647366 0
1.364234 -3.3655057 -0.19378948 0
-2.5296459 -3.2065444 -0.11079385 0
-0.4157365 -3.2524385 -0.19975784 0
-0.359433 -3.2550921 -0.19909237 0
-0.28172049 -3.2535357 -0.19928482 0
0.021 -3.2290001 -0.2 0
0.65682524 -3.2718229 -0.19533996 0
0.88640589 -3.2441425 -0.19394341 0
1.0547442 -3.268321 -0.19401227 0
1.1251606 -3.2254465 -0.19443539 0
1.2975957 -3.2022183 -0.19213535 0
1.3309149 -3.2838621 -0.19296242 0
1.5845628 -3.2411444 -0.19601874 0
1.61 -3.293 -0.197 0
-2.4738393 -3.1370382 -0.12268045 0
-1.7200432 -3.120223 -0.19789208 0
-0.62199998 -3.105 -0.2 0
-0.40661374 -3.1620321 -0.1982982 0
-0.3491464 -3.1658738 -0.19807391 0
-0.27354038 -3.1636519 -0.19821361 0
-0.19020884 -3.1455371 -0.19927353 0
0.64399999 -3.1919999 -0.19400001 0
0.85616237 -3.1198568 -0.19217737 0
1.0441836 -3.1420786 -0.19244729 0
1.2642765 -3.1205747 -0.19130827 0
1.5456175 -3.1617513 -0.19451639 0
1.7186623 -3.1363158 -0.19581699 0
-2.4180326 -3.0675318 -0.13456704 0
-1.6669656 -3.0267298 -0.1972526 0
-0.82873851 -3.030256 -0.19950962 0
-0.68900001 -3.0699999 -0.2 0
-0.36817539 -3.0741405 -0.19694699 0
-0.26536024 -3.0737679 -0.19714241 0
-0.18810442 -3.0572686 -0.19763677 0
0.83600003 -3.0369999 -0.191 0
0.97993606 -3.0168302 -0.19025306 0
1.0705804 -3.0567234 -0.19171768 0
1.2309574 -3.0389309 -0.1904812 0
1.4677268 -3.0029652 -0.19151172 0
1.5066721 -3.0823584 -0.19301406 0
1.6709092 -3.0496778 -0.19417974 0
1.7745512 -3.0690536 -0.1958847 0
-2.3343229 -2.9632721 -0.15239693 0
-1.6228449 -2.9490135 -0.19672102 0
-0.80699998 -2.9430001 -0.198 0
-0.35847074 -2.984328 -0.19570793 0
-0.25718012 -2.9838841 -0.19607119 0
-0.186 -2.9690001 -0.19599999 0
0.95499998 -2.9330001 -0.189 0
1.0432901 -2.9723616 -0.19035885 0
1.1976383 -2.9572873 -0.18965414 0
1.4287814 -2.9235721 -0.19000937 0
1.6557852 -2.9420271 -0.19277629 0
1.7270896 -2.9872186 -0.19429825 0
-2.250613 -2.8590128 -0.17022681 0
-1.5787241 -2.8712974 -0.19618945 0
-0.34391373 -2.8496094 -0.19384935 0
-0.249 -2.8940001 -0.19499999 0
1.016 -2.888 -0.189 0
1.1643192 -2.8756435 -0.18882707 0
1.3898361 -2.8441792 -0.18850704 0
1.5648701 -2.8572929 -0.19054413 0
1.6390641 -2.8354421 -0.1913559 0
1.8393075 -2.8633466 -0.19298634 0
-2.1576021 -2.7431688 -0.1900378 0
-2.0533757 -2.7421844 -0.191 0
-1.921478 -2.725893 -0.15314639 0
-1.704 -2.7149999 -0.104 0
-1.692 -2.7309999 -0.109 0
-1.5346035 -2.793581 -0.19565788 0
-1.4904828 -2.7158649 -0.1951263 0
-0.361 -2.71 -0.191 0
1.131 -2.7939999 -0.18799999 0
1.3508908 -2.764786 -0.18700469 0
1.548149 -2.7507076 -0.18912373 0
1.7695382 -2.7551062 -0.18972608 0
-2.1800001 -2.6429999 -0.19499999 0
-2.0860064 -2.6538293 -0.1937156 0
-1.9824455 -2.6491055 -0.191 0
-1.8329183 -2.6371565 -0.13144058 0
-1.7375699 -2.6325846 -0.10444766 0
-1.6438693 -2.6472356 -0.11897922 0
-1.4463621 -2.6381485 -0.19459473 0
1.273 -2.6059999 -0.184 0
1.3119453 -2.6853931 -0.18550235 0
1.4588312 -2.6649079 -0.1869085 0
1.529032 -2.645721 -0.18767795 0
1.6733844 -2.605933 -0.18523292 0
1.7214613 -2.6805196 -0.18747951 0
-2.233 -2.582 -0.19599999 0
-2.1611576 -2.55757 -0.195435 0
-2.0537264 -2.55235 -0.19384405 0
-1.9508502 -2.5456326 -0.19205606 0
-1.8412756 -2.5347095 -0.17723478 0
-1.7437642 -2.545136 -0.11343297 0
-1.6417751 -2.55304 -0.11572772 0
-1.5643324 -2.5415187 -0.14132091 0
-1.4022415 -2.5604324 -0.19406316 0
1.374 -2.5109999 -0.184 0
1.4397142 -2.5599213 -0.18546271 0
1.6253076 -2.5313463 -0.18298633 0
-2.1367028 -2.4634805 -0.19638987 0
-2.0532146 -2.4269843 -0.1952291 0
-1.9173377 -2.4432197 -0.1928104 0
-1.8195285 -2.4353161 -0.191 0
-1.7335377 -2.4541297 -0.17035218 0
-1.6441619 -2.4455142 -0.12332465 0
-1.5320965 -2.4628952 -0.1361078 0
-1.4701662 -2.4017594 -0.16516046 0
-1.3360603 -2.4438581 -0.1932658 0
1.419 -2.4560001 -0.184 0
1.5772307 -2.4567599 -0.18073975 0
-2.0362341 -2.3398268 -0.19679663 0
-1.9333975 -2.3491759 -0.19325104 0
-1.8330033 -2.3379147 -0.19235781 0
-1.7652228 -2.3640528 -0.191 0
-1.6379344 -2.3515759 -0.15475059 0
-1.5446911 -2.3459599 -0.13318196 0
-1.4446497 -2.3380489 -0.15755665 0
1.4810768 -2.3075867 -0.17624658 0
1.5291537 -2.3821733 -0.17849317 0
-1.9859999 -2.2780001 -0.197 0
-1.8468347 -2.246037 -0.19263712 0
-1.729793 -2.2626996 -0.19145259 0
-1.6324252 -2.2472365 -0.18641159 0
-1.547212 -2.2303507 -0.15784816 0
-1.4432085 -2.2507999 -0.14473763 0
-1.376 -2.2620001 -0.189 0
1.433 -2.233 -0.17399999 0
-1.7602718 -2.1428981 -0.1920232 0
-1.6473758 -2.1563349 -0.19130173 0
-1.508 -2.128 -0.191 0
-1.4423311 -2.1457572 -0.15341233 0
-1.3440428 -2.1537108 -0.15551931 0
2.45 -2.1359999 -0.168 0
-1.6549659 -2.0659814 -0.1913555 0
-1.564 -2.0504999 -0.191 0
-1.4155045 -2.0578849 -0.16239989 0
-1.343035 -2.0462923 -0.16322383 0
-1.2707387 -2.0394061 -0.16601104 0
-1.1280187 -2.0219736 -0.18290555 0
2.3613439 -2.0599918 -0.16704541 0
-1.6160001 -1.971 -0.191 0
-1.3397522 -1.9454424 -0.17369995 0
-1.2446417 -1.94856 -0.17374752 0
-1.144935 -1.9438727 -0.17998108 0
-1.081778 -1.9407105 -0.18235831 0
2.1891479 -1.9123623 -0.16519137 0
2.2580261 -1.9714141 -0.16593298 0
2.3487537 -1.95287 -0.16360173 0
2.4030001 -1.997 -0.164 0
-1.2405 -1.846 -0.18350001 0
-1.1538799 -1.8573996 -0.18043323 0
-1.0375711 -1.8293611 -0.18094647 0
2.1202698 -1.8533106 -0.16444974 0
2.2442946 -1.8678917 -0.16283476 0
2.3935289 -1.8032053 -0.16381609 0
2.411 -1.816 -0.164 0
2.9846201 -1.829128 -0.15959746 0
3.0450001 -1.8660001 -0.16 0
-1.308 -1.717 -0.185 0
-1.2548448 -1.7598205 -0.18514663 0
-1.1407739 -1.7442843 -0.1828167 0
-1.0437396 -1.7281754 -0.17998856 0
-0.96700001 -1.739 -0.18099999 0
1.9825132 -1.7352071 -0.16296649 0
2.0607939 -1.76026 -0.16263232 0
2.1398358 -1.7829133 -0.16206782 0
2.3215811 -1.7505158 -0.16305876 0
2.8313713 -1.735544 -0.1585758 0
2.9079957 -1.782336 -0.15908663 0
-2.8720388 -1.6560891 -0.11156 0
-2.0610001 -1.6900001 -0.193 0
-1.9982328 -1.6377902 -0.19225769 0
-1.3340936 -1.6410055 -0.18566668 0
-1.2376157 -1.6530423 -0.18515761 0
-1.1519225 -1.6329103 -0.18573999 0
-1.058107 -1.6483274 -0.18224831 0
-0.986 -1.678 -0.17900001 0
1.8447566 -1.6171035 -0.16148324 0
1.9222764 -1.644556 -0.1613794 0
2.0005572 -1.6696088 -0.16104521 0
2.177686 -1.6451368 -0.16154407 0
2.2496336 -1.6978264 -0.16230141 0
2.3527591 -1.6047038 -0.16286208 0
2.4279895 -1.6543334 -0.16398492 0
2.6781223 -1.64196 -0.15755415 0
2.7547469 -1.6887521 -0.15806498 0
2.9443932 -1.6229011 -0.15631469 0
3.0728488 -1.6943536 -0.15694982 0
-2.7672701 -1.5942603 -0.12150801 0
-2.6505582 -1.5253836 -0.13259001 0
-2.0438251 -1.5183243 -0.18989015 0
-1.9284095 -1.5797112 -0.19143191 0
-1.8585862 -1.5216322 -0.19060615 0
-1.401 -1.5140001 -0.186 0
-1.3237989 -1.5772471 -0.185 0
-1.2482711 -1.5376159 -0.18566668 0
-1.1483209 -1.5366031 -0.18533333 0
-1.097 -1.596 -0.186 0
1.7758783 -1.5580517 -0.16074163 0
1.8612785 -1.5563045 -0.1600226 0
2.0337906 -1.5397578 -0.16002938 0
2.1057382 -1.5924474 -0.16078672 0
2.2414293 -1.5312593 -0.16120043 0
2.4482489 -1.5015841 -0.15602165 0
2.5248735 -1.548376 -0.1565325 0
2.6014979 -1.595168 -0.15704332 0
2.7472186 -1.5132242 -0.15533978 0
2.8260884 -1.5570951 -0.15572974 0
-2.5338466 -1.4565068 -0.143672 0
-2.4560387 -1.4105891 -0.15106001 0
-1.961585 -1.4562836 -0.18900226 0
-1.8457745 -1.4381126 -0.18735504 0
-1.7525152 -1.4233208 -0.1883359 0
-1.3422103 -1.4520153 -0.18568049 0
-1.2292664 -1.4664158 -0.185 0
-1.1730001 -1.4355 -0.1855 0
1.192 -1.425 -0.169 0
1.2198032 -1.4358859 -0.16866666 0
1.740213 -1.4805508 -0.15950377 0
1.8898953 -1.434379 -0.15851469 0
1.961843 -1.4870684 -0.15927203 0
2.0558796 -1.408852 -0.15843104 0
2.1300993 -1.4578149 -0.15953881 0
2.2950001 -1.408 -0.155 0
2.3716245 -1.454792 -0.15551083 0
2.589479 -1.4254829 -0.15455985 0
2.6831729 -1.4317788 -0.15495118 0
-2.3393271 -1.3417124 -0.16214201 0
-2.049 -1.375 -0.18799999 0
-1.9987029 -1.3406969 -0.1875791 0
-1.8174551 -1.347554 -0.18744621 0
-1.6513066 -1.3346046 -0.18632324 0
-1.2420421 -1.3464031 -0.18513611 0
1.226651 -1.3584658 -0.16739999 0
1.7460001 -1.329 -0.15700001 0
1.8179476 -1.3816894 -0.15775734 0
1.9426998 -1.3362716 -0.15617961 0
2.4317396 -1.3377414 -0.15377992 0
2.5246944 -1.3551338 -0.15388618 0
2.6119745 -1.3693191 -0.15425311 0
-2.2226155 -1.2728356 -0.173224 0
-2.1448076 -1.2269179 -0.180612 0
-2.0580001 -1.242 -0.18799999 0
-1.9615562 -1.2473767 -0.18729852 0
-1.8505467 -1.2396531 -0.1863393 0
-1.7453901 -1.293189 -0.18666817 0
-1.6733251 -1.2388242 -0.18589015 0
-1.5479078 -1.2586789 -0.18611617 0
-1.49 -1.207 -0.184 0
1.74547 -1.2066925 -0.15529639 0
1.8395234 -1.2699751 -0.1555299 0
2.2739999 -1.25 -0.153 0
2.3548181 -1.2492875 -0.15244728 0
2.4655848 -1.2879915 -0.15295187 0
2.5892823 -1.2008735 -0.15427466 0
2.6655388 -1.2382482 -0.15532959 0
2.714 -1.262 -0.156 0
-2.0380001 -1.151 -0.19 0
-1.9507089 -1.1310179 -0.18947035 0
-1.8742269 -1.1525947 -0.18490519 0
-1.7591499 -1.1495036 -0.18487974 0
-1.6012601 -1.1844593 -0.18511212 0
-1.5291951 -1.1300945 -0.18433408 0
-1.4396465 -1.173158 -0.18565154 0
-1.3698232 -1.115079 -0.18482576 0
1.5842935 -1.1022567 -0.15772851 0
1.6581168 -1.1513208 -0.15716064 0
2.2460001 -1.166 -0.15099999 0
2.4367692 -1.1261241 -0.1521648 0
2.5231991 -1.1349589 -0.15380287 0
2.6575401 -1.1588993 -0.15560335 0
2.7030001 -1.102 -0.156 0
-1.9031423 -1.0643097 -0.19119398 0
-1.8311068 -1.0257323 -0.19064549 0
-1.7385772 -1.0558745 -0.18529393 0
-1.639353 -1.0601338 -0.18401322 0
-1.5542343 -1.0375656 -0.18385969 0
-1.45713 -1.0757297 -0.18355605 0
-1.385065 -1.0213648 -0.18277803 0
-1.3 -1.057 -0.184 0
1.4366468 -1.0041283 -0.15886426 0
1.5104702 -1.0531925 -0.15829638 0
2.258168 -1.0218847 -0.15032631 0
2.3632345 -1.0622042 -0.15192726 0
2.4496641 -1.071039 -0.15356533 0
2.5342727 -1.029902 -0.15270922 0
2.6717007 -1.0512004 -0.15545359 0
-2.0209999 -0.92799997 -0.1855 0
-1.9564364 -0.91808343 -0.18569434 0
-1.7590712 -0.9871549 -0.19009699 0
-1.6464278 -0.94533569 -0.18799604 0
-1.5478307 -0.95449167 -0.18389452 0
-1.4431171 -0.96178281 -0.18292984 0
-1.313 -0.96700001 -0.182 0
1.289 -0.90600002 -0.16 0
1.3628234 -0.95506418 -0.15943213 0
1.7777793 -0.94133061 -0.15009852 0
2.1566863 -0.94720936 -0.150693 0
2.2971091 -0.92856079 -0.14808369 0
2.3761637 -0.96234119 -0.14962552 0
2.45035 -0.96017694 -0.15094665 0
2.5253522 -0.95604032 -0.15240742 0
2.6126454 -0.9567579 -0.15446714 0
2.704 -0.954 -0.156 0
-1.9390392 -0.86315811 -0.18191607 0
-1.8376565 -0.84061646 -0.18164915 0
-1.7252182 -0.81154174 -0.17934717 0
-1.4280984 -0.89929503 -0.18313672 0
-1.3429999 -0.87049997 -0.1825 0
1.5437795 -0.82283062 -0.15259852 0
1.6703577 -0.85378569 -0.15034641 0
1.777941 -0.83761913 -0.14704624 0
1.863708 -0.82337987 -0.14782067 0
1.9474161 -0.8587597 -0.14864133 0
2.0311241 -0.89413959 -0.149462 0
2.1389999 -0.861 -0.145 0
2.2463267 -0.84840125 -0.14742339 0
2.3636794 -0.86544567 -0.15016812 0
2.4638572 -0.83682817 -0.15147659 0
2.5477962 -0.86537379 -0.15301655 0
2.6592016 -0.86758572 -0.15463382 0
-1.9215051 -0.77597404 -0.17797844 0
-1.8453083 -0.73737091 -0.17784032 0
-1.7593447 -0.76429635 -0.17901404 0
-1.6559196 -0.74651313 -0.17829576 0
-1.5791249 -0.72532338 -0.17695194 0
-1.494 -0.70499998 -0.17299999 0
1.3564632 -0.72797179 -0.15459976 0
1.468853 -0.78488708 -0.15339901 0
1.546441 -0.73311913 -0.15054625 0
1.6225879 -0.76749218 -0.149395 0
1.7517623 -0.74348468 -0.14601982 0
2.0173204 -0.72220021 -0.14655362 0
2.1396539 -0.77620023 -0.14688694 0
2.2345438 -0.722049 -0.14479075 0
2.3572018 -0.76408571 -0.14763382 0
-2.3800001 -0.60100001 -0.177 0
-1.9217333 -0.67285419 -0.17665489 0
-1.8503422 -0.63954991 -0.17628586 0
-1.7693784 -0.65958714 -0.17722788 0
-1.6598322 -0.65058994 -0.17718695 0
-1.5295949 -0.66480732 -0.17695291 0
-1.4263923 -0.63671094 -0.17692938 0
1.3560734 -0.64718652 -0.15342438 0
1.4712043 -0.65676385 -0.15066063 0
1.5491719 -0.64567244 -0.14843567 0
1.6417481 -0.65286726 -0.14599508 0
1.7585 -0.65849996 -0.14300001 0
1.8451067 -0.66406673 -0.14418454 0
1.9312136 -0.69313347 -0.14536908 0
2.0710001 -0.66600001 -0.141 0
2.1527719 -0.6940245 -0.14289537 0
2.2531538 -0.61152643 -0.14111312 0
2.3325386 -0.63470185 -0.14215082 0
2.4429617 -0.66693866 -0.14359426 0
-2.3133788 -0.58422709 -0.17660812 0
-2.2263367 -0.56231296 -0.1760961 0
-2.1392946 -0.54039884 -0.17558409 0
-2.0522525 -0.51848471 -0.17507207 0
-1.9210519 -0.57241815 -0.17597748 0
-1.8488209 -0.54252195 -0.17558336 0
-1.7587217 -0.54971135 -0.17559376 0
-1.6435276 -0.54565889 -0.17518865 0
-1.5429783 -0.55457824 -0.17657025 0
-1.4519674 -0.56336737 -0.1788554 0
-1.359 -0.56650001 -0.17750001 0
1.3476814 -0.54605711 -0.15177903 0
1.4553367 -0.56767523 -0.14960837 0
1.533005 -0.59701282 -0.14791256 0
2.0546923 -0.55358773 -0.13851884 0
2.1737692 -0.58835095 -0.14007542 0
2.3567116 -0.52329999 -0.13886042 0
-2.3559999 -0.47799999 -0.176 0
-2.2803578 -0.46249872 -0.17619622 0
-2.1499782 -0.43578023 -0.17653443 0
-2.0195987 -0.4090617 -0.17687264 0
-1.9351051 -0.46828529 -0.17378002 0
-1.8716373 -0.45265904 -0.17363608 0
-1.7466561 -0.44331887 -0.17391431 0
-1.6184009 -0.45197502 -0.17376791 0
-1.5425 -0.45050001 -0.17399999 0
1.993 -0.43399999 -0.13699999 0
2.0707927 -0.4531 -0.13739792 0
2.1485856 -0.47219998 -0.13779584 0
2.2263782 -0.49129999 -0.13819374 0
-1.9326789 -0.39124936 -0.17709811 0
-1.8457592 -0.37343702 -0.17732358 0
-1.7296219 -0.3738662 -0.17584923 0
-1.6449865 -0.35532159 -0.1761933 0
-1.5502342 -0.35351798 -0.17502491 0
-1.4533511 -0.33427694 -0.17553735 0
-1.3710001 -0.315 -0.176 0
-3.4534643 -0.22866905 -0.19444413 0
-3.3570001 -0.21699999 -0.19599999 0
-2.247 -0.132 -0.17 0
-2.1500912 -0.1271718 -0.17413846 0
-2.0396364 -0.12166872 -0.17885537 0
-1.966 -0.118 -0.182 0
-3.42869 -0.067850634 -0.193977 0
-3.378 -0.059 -0.198 0
-2.2309999 -0.052000001 -0.17 0
-2.1510427 -0.058561441 -0.17351735 0
-2.0497134 -0.039343413 -0.17777896 0
-1.9535 -0.045499999 -0.182 0
-3.4318764 0.088358581 -0.19407173 0
-3.3476882 0.095679283 -0.19553585 0
-2.2019999 0.025 -0.169 0
-2.1543765 0.059216648 -0.16920656 0
-2.0480266 0.040900882 -0.17517142 0
-1.9470167 0.055315763 -0.17970181 0
2.3269999 0.052000001 -0.138 0
2.41763 0.054146748 -0.13940005 0
2.553575 0.05736687 -0.14150013 0
2.6895204 0.060586989 -0.14360021 0
2.7801504 0.06273374 -0.14500026 0
2.8707805 0.064880483 -0.14640032 0
2.9614105 0.067027234 -0.14780036 0
3.0520406 0.069173977 -0.14920041 0
3.1426706 0.071320727 -0.15060046 0
3.2656503 0.074233741 -0.15250026 0
-3.3370986 0.16445321 -0.19181773 0
-3.283 0.17399999 -0.19499999 0
-2.1466391 0.15219581 -0.16766788 0
-2.0656853 0.14626107 -0.17239052 0
-1.9524372 0.15065221 -0.17857811 0
2.349 0.16599999 -0.141 0
2.4394643 0.17170073 -0.14240183 0
2.5299284 0.17740148 -0.14380364 0
2.6203928 0.18310222 -0.14520547 0
2.7108569 0.18880297 -0.14660729 0
2.8013213 0.19450371 -0.14800911 0
-2.1239479 0.25135878 -0.16743697 0
-2.0475969 0.24047837 -0.17158264 0
-1.9545323 0.23482613 -0.17652754 0
2.8917854 0.20020445 -0.14941093 0
2.9822497 0.2059052 -0.15081276 0
3.0727139 0.21160594 -0.15221457 0
3.163178 0.21730667 -0.1536164 0
3.2536423 0.22300741 -0.15501823 0
3.3169999 0.227 -0.156 0
-4.0830851 0.39953774 -0.18725732 0
-3.9473224 0.3876071 -0.18766873 0
-3.8115594 0.37567642 -0.18808013 0
-3.721051 0.36772266 -0.18835439 0
-3.6305425 0.35976887 -0.18862866 0
-3.5400341 0.3518151 -0.18890293 0
-3.4495254 0.34386131 -0.1891772 0
-3.3528693 0.36669645 -0.18951499 0
-3.2632542 0.35697687 -0.18986286 0
-3.178 0.31999999 -0.19 0
-2.0671492 0.34521145 -0.16769895 0
-1.9515175 0.34163433 -0.17455861 0
-1.8538078 0.35803553 -0.1698519 0
-1.7305 0.368 -0.1665 0
-4.1680002 0.40700001 -0.18700001 0
-4.0782471 0.49218407 -0.18610334 0
-3.9677732 0.47788277 -0.18662816 0
-3.8790517 0.46639743 -0.18704964 0
-3.7459691 0.4491694 -0.18768185 0
-3.6201189 0.46484795 -0.18691881 0
-3.5309229 0.45442981 -0.1872772 0
-3.4417267 0.44401169 -0.18763559 0
-3.3692389 0.48368353 -0.18711215 0
-3.2536023 0.47367203 -0.18783985 0
-3.1454999 0.45700002 -0.18799999 0
-2.0336866 0.43889284 -0.16503124 0
-1.9319459 0.46328431 -0.16478139 0
-1.8582973 0.4443562 -0.16502091 0
-1.754415 0.44358137 -0.16564417 0
-1.673 0.47999999 -0.168 0
2.3970001 0.46399999 -0.146 0
2.4852481 0.47839054 -0.14695232 0
2.5734961 0.49278113 -0.14790463 0
-4.0471239 0.56226492 -0.18452415 0
-3.9512222 0.55107695 -0.18489349 0
-3.8433621 0.53256804 -0.18513675 0
-3.7273378 0.52549553 -0.18573147 0
-3.6482749 0.53233051 -0.18662973 0
-3.5588958 0.52077544 -0.18702477 0
-3.4673097 0.55002844 -0.1874212 0
-3.3768272 0.57762742 -0.18806696 0
-3.2444134 0.5578137 -0.18903348 0
-3.1104999 0.56299996 -0.18799999 0
-2.0039999 0.50700003 -0.164 0
-1.9719757 0.55947518 -0.16365473 0
-1.8519599 0.54163975 -0.16470021 0
-1.7483358 0.55904686 -0.16392116 0
-1.6473333 0.53899997 -0.16433333 0
1.944755 0.58474267 -0.1477455 0
2.6617441 0.50717169 -0.14885695 0
2.7499921 0.52156228 -0.14980927 0
2.8382401 0.53595281 -0.15076159 0
2.9264879 0.55034339 -0.15171389 0
3.0147362 0.56473398 -0.15266621 0
3.1471081 0.5863198 -0.1540947 0
-3.9202409 0.65894115 -0.18410043 0
-3.8182058 0.64367318 -0.18484521 0
-3.7299302 0.63046402 -0.18548957 0
-3.6340084 0.6549409 -0.18462382 0
-3.5467567 0.63961744 -0.18518652 0
-3.4539082 0.65775126 -0.18407583 0
-3.367681 0.64031345 -0.18455687 0
-3.2704372 0.65705776 -0.18444671 0
-3.1674118 0.65808964 -0.18619783 0
-3.0665002 0.66799998 -0.1875 0
-1.9222459 0.66005391 -0.16250575 0
-1.8410445 0.65540689 -0.16275541 0
-1.7624888 0.66467971 -0.16393967 0
-1.6691833 0.63037992 -0.16422737 0
-1.5815001 0.65700001 -0.1645 0
-1.346 0.69800001 -0.16599999 0
1.882 0.66600001 -0.149 0
1.9658995 0.69712061 -0.14857945 0
2.07302 0.62597072 -0.14698203 0
2.1585302 0.65345609 -0.14647304 0
2.2440403 0.68094146 -0.14596406 0
3.2309999 0.60000002 -0.155 0
-3.826 0.73299998 -0.182 0
-3.7656958 0.7428422 -0.18073542 0
-3.6537724 0.77451259 -0.18036272 0
-3.5446682 0.75818354 -0.18225969 0
-3.4576643 0.74176794 -0.18322244 0
-3.3410821 0.74217665 -0.18471827 0
-3.2266693 0.74033391 -0.18616757 0
-3.1483717 0.74912268 -0.18602081 0
-3.046 0.76049995 -0.18700001 0
-2.0191131 0.79172635 -0.16553548 0
-1.9342905 0.75958109 -0.16562837 0
-1.870734 0.72671795 -0.16386065 0
-1.7339125 0.76619834 -0.16331919 0
-1.6379642 0.72746974 -0.16392386 0
-1.5575523 0.74781734 -0.16291678 0
-1.4548426 0.75795341 -0.16471344 0
-1.311 0.76300001 -0.16500001 0
1.8380001 0.75199997 -0.148 0
1.920361 0.78648663 -0.14789291 0
2.049799 0.72824121 -0.14815891 0
2.1336985 0.75936186 -0.14773835 0
2.217598 0.79048246 -0.14731781 0
2.3295503 0.70842683 -0.14545506 0
2.4150603 0.73591226 -0.14494607 0
2.5433254 0.77714032 -0.14418259 0
-3.902 0.81300002 -0.176 0
-3.8733926 0.80757934 -0.17634973 0
-3.7481899 0.80934501 -0.18208709 0
-3.6548009 0.87742949 -0.18007281 0
-3.5652304 0.85473621 -0.18112482 0
-3.4818587 0.83361351 -0.18210402 0
-3.3734603 0.84771967 -0.18140399 0
-3.2680752 0.86046141 -0.18154356 0
-3.1475377 0.82673073 -0.18427178 0
-2.96 0.88200003 -0.18700001 0
-2.8684702 0.89646965 -0.17219451 0
-2.7428675 0.8556174 -0.17129862 0
-2.595 0.87599999 -0.16599999 0
-2.273581 0.88816214 -0.16525675 0
-2.146347 0.83994424 -0.16539612 0
-1.972509 0.88350385 -0.16546851 0
-1.8461549 0.81946504 -0.16366801 0
-1.7543523 0.88325238 -0.16124098 0
-1.6357523 0.85830289 -0.1616801 0
-1.54469 0.85616589 -0.16242251 0
-1.4678457 0.83534211 -0.16261849 0
-1.3653507 0.8411231 -0.16349638 0
-1.2685 0.84399998 -0.16350001 0
1.79 0.88800001 -0.149 0
1.831 0.801 -0.149 0
1.9529371 0.85467249 -0.14866455 0
2.0439024 0.83821666 -0.14773226 0
2.1674442 0.88994664 -0.14757159 0
2.3434472 0.83716333 -0.14668697 0
2.4692965 0.88384426 -0.14605616 0
2.6715906 0.81836838 -0.14341912 0
2.7420001 0.84100002 -0.14300001 0
-3.5110755 0.92846143 -0.17604357 0
-3.4333961 0.94971788 -0.17645296 0
-3.364336 0.97673982 -0.17684931 0
-3.2430353 0.94831789 -0.17989451 0
-3.1207051 0.94903505 -0.178463 0
-3.038404 0.92594367 -0.17917944 0
-2.9411032 0.95831943 -0.1716533 0
-2.8462508 0.96370071 -0.16938612 0
-2.743221 0.96324921 -0.16819821 0
-2.6601105 0.9331246 -0.16709909 0
-2.5249999 0.96133333 -0.16533333 0
-2.4432263 0.95245272 -0.16507095 0
-2.3584037 0.9203074 -0.16516386 0
-2.2224145 0.99060619 -0.16574962 0
-2.1391127 0.95490545 -0.16565591 0
-2.0558109 0.91920465 -0.16556221 0
-1.7515 0.94850004 -0.16049999 0
-1.6698859 0.9552018 -0.16052401 0
-1.5510063 0.95194632 -0.16214097 0
-1.4473245 0.95179617 -0.16139814 0
-1.3648798 0.955791 -0.16130529 0
-1.2482938 0.94493341 -0.16081598 0
-1.184 0.98900002 -0.161 0
1.473 0.995 -0.149 0
1.5417802 0.938878 -0.14984082 0
1.775 0.963 -0.15000001 0
1.8673718 0.95437014 -0.14931367 0
1.9482186 0.96556282 -0.14876208 0
2.0748744 0.90834498 -0.14832909 0
2.1561658 0.94412661 -0.14810546 0
2.2436314 0.95217079 -0.14767316 0
2.3321662 0.95892 -0.14735739 0
2.4145272 0.99340665 -0.14725029 0
2.553196 0.91496485 -0.1456356 0
2.6585479 0.95404273 -0.14510754 0
-3.402 1.0700001 -0.176 0
-3.3708811 1.0598787 -0.17577803 0
-3.2452784 1.0190264 -0.17488214 0
-3.1812518 1.0806351 -0.17390096 0
-3.0556264 1.0367846 -0.17220789 0
-2.9713538 1.0850782 -0.17134753 0
-2.8476477 1.0385548 -0.16974327 0
-2.7516263 1.0753446 -0.16835266 0
-2.6704173 1.0425631 -0.16723511 0
-2.5892086 1.0097815 -0.16611756 0
-2.4449999 1.086 -0.16599999 0
-2.3473673 1.0441574 -0.16589017 0
-1.7305405 1.0467343 -0.1595979 0
-1.6473337 1.0623186 -0.15915909 0
-1.556192 1.0527773 -0.16031703 0
-1.4431777 1.0508996 -0.16025841 0
-1.3350396 1.0612862 -0.15962577 0
-1.2458177 1.0413073 -0.16061959 0
-1.1390001 1.049 -0.16 0
1.398 1.095 -0.15099999 0
1.444 1.025 -0.15099999 0
1.5317657 1.0624948 -0.149856 0
1.6373494 1.0547576 -0.14918163 0
1.7363408 1.043134 -0.14952245 0
1.8276458 1.0479294 -0.14993685 0
1.9290049 1.0441831 -0.14948204 0
2.0241153 1.0331104 -0.14894101 0
2.1459918 1.0625163 -0.14846468 0
2.3187487 1.01569 -0.14765818 0
2.45942 1.0555394 -0.14726287 0
2.5792491 1.06238 -0.14703609 0
2.6070001 1.074 -0.147 0
-3.3369999 1.135 -0.176 0
-3.2455893 1.1596646 -0.17486191 0
-3.1362951 1.1471095 -0.17348653 0
-3.0538244 1.1160939 -0.17241703 0
-2.954648 1.1572983 -0.17114654 0
-2.832835 1.108126 -0.16947021 0
-2.6433489 1.1769099 -0.16917866 0
-2.5243394 1.1223639 -0.16727147 0
-1.9032428 1.1844057 -0.15958749 0
-1.8196558 1.1517792 -0.16071594 0
-1.7476678 1.1379843 -0.15971166 0
-1.6115394 1.1292973 -0.15985635 0
-1.5667053 1.1562935 -0.15907869 0
-1.4521059 1.1557631 -0.15933542 0
-1.3537018 1.1394166 -0.16072837 0
-1.2527367 1.1486993 -0.15965468 0
-1.1779629 1.154904 -0.15920334 0
-1.092 1.1345 -0.1595 0
0.87800002 1.168 -0.152 0
1.3460001 1.1609999 -0.15033333 0
1.4546976 1.1676121 -0.15059197 0
1.5904851 1.1309761 -0.15042403 0
1.678297 1.1674844 -0.14956802 0
1.7457913 1.1457506 -0.1505942 0
1.8599621 1.1243577 -0.14913686 0
1.9789373 1.1317883 -0.14981058 0
2.0692341 1.1497568 -0.14949335 0
2.1600122 1.1659578 -0.1487051 0
2.2592306 1.1512206 -0.14838201 0
2.343765 1.1594698 -0.14816727 0
2.4228742 1.1982511 -0.14804831 0
2.5580001 1.1210001 -0.147 0
-3.1598349 1.2401261 -0.17397019 0
-3.0764613 1.2064706 -0.17282286 0
-2.8416979 1.2678199 -0.17235734 0
-2.7623584 1.2314559 -0.17108586 0
-2.418371 1.2838218 -0.16518545 0
-2.3421855 1.2424109 -0.16359273 0
-2.266 1.201 -0.162 0
-2.0554047 1.2813429 -0.15997916 0
-1.9610149 1.2574507 -0.16021444 0
-1.8766317 1.2200007 -0.16037551 0
-1.7467144 1.2563486 -0.16036987 0
-1.6741269 1.203573 -0.16036311 0
-1.5404756 1.2508556 -0.15960401 0
-1.4515219 1.2528311 -0.16026537 0
-1.3462718 1.236845 -0.15959336 0
-1.2454289 1.2444322 -0.15871641 0
-1.1530622 1.2510785 -0.15894943 0
-1.0472602 1.2662917 -0.16 0
0.671 1.2970001 -0.155 0
0.792 1.2970001 -0.154 0
0.85712463 1.2632555 -0.15311706 0
0.9490906 1.2604511 -0.15233375 0
1.2666668 1.2590001 -0.15133333 0
1.3719912 1.2712693 -0.15023302 0
1.4485773 1.2510024 -0.14968795 0
1.542522 1.2491676 -0.15004264 0
1.639205 1.2393088 -0.15039596 0
1.7475051 1.235077 -0.14985551 0
1.8342739 1.2519836 -0.1493123 0
1.9594806 1.2513486 -0.1481362 0
2.0329239 1.2492919 -0.14777139 0
2.1388714 1.2740091 -0.14965691 0
2.2584095 1.2519581 -0.14828232 0
2.3357201 1.2588558 -0.14811203 0
2.4275 1.2355 -0.148 0
-3.0346885 1.3562739 -0.17545015 0
-2.9210374 1.3041838 -0.17362881 0
-2.5707417 1.3666437 -0.1683709 0
-2.4945564 1.3252327 -0.16677818 0
-2.2075667 1.3782799 -0.16037083 0
-2.1230779 1.3477645 -0.1607237 0
-2.0480487 1.3372221 -0.16025813 0
-1.9025168 1.359054 -0.16132961 0
-1.839955 1.3276647 -0.16006352 0
-1.7360884 1.3727798 -0.15899999 0
-1.6493797 1.3451738 -0.16041607 0
-1.4594942 1.3316272 -0.15957524 0
-1.3459213 1.3610678 -0.15840401 0
-1.2488338 1.326704 -0.15873282 0
-1.1462944 1.3465279 -0.15999942 0
-1.0619433 1.3535604 -0.15864228 0
-0.95450002 1.3605 -0.15824999 0
-0.56738895 1.3495908 -0.155 0
-0.49700001 1.3609999 -0.155 0
0.56099999 1.396 -0.154 0
0.61400002 1.34 -0.154 0
0.72370452 1.3577182 -0.15377995 0
0.83240646 1.3598826 -0.15374745 0
0.92349863 1.3570218 -0.15346825 0
1.0201812 1.3529023 -0.15266751 0
1.3402857 1.3523461 -0.15085165 0
1.4374824 1.3320386 -0.14996602 0
1.5339534 1.3562295 -0.14937246 0
1.6527306 1.3482739 -0.14989823 0
1.7503498 1.3743629 -0.14898656 0
1.8578013 1.3404309 -0.14995478 0
1.9518172 1.353979 -0.14899473 0
2.0679131 1.3415071 -0.14694203 0
2.1581802 1.3739375 -0.14642169 0
2.2558155 1.342814 -0.14965527 0
-2.7612052 1.4701709 -0.17235272 0
-2.6469271 1.4080546 -0.16996363 0
-2.3597286 1.4752171 -0.16076249 0
-2.2484233 1.4451218 -0.16065799 0
-2.1775472 1.4189532 -0.16059344 0
-2.0370641 1.4674512 -0.16039696 0
-1.9644766 1.4146755 -0.1603902 0
-1.8431104 1.4564748 -0.15899999 0
-1.7459326 1.4456921 -0.16083212 0
-1.6155605 1.4729223 -0.16001166 0
-1.5488484 1.4123379 -0.16020933 0
-1.4547789 1.4650176 -0.1583806 0
-1.3430001 1.426 -0.15800001 0
-1.1224933 1.437196 -0.15818186 0
-1.0407963 1.452117 -0.15814206 0
-0.95751667 1.4456589 -0.1576518 0
-0.85288292 1.4680572 -0.15610062 0
-0.61655581 1.4653629 -0.155 0
-0.53861177 1.4615275 -0.154588 0
-0.4520787 1.4413257 -0.15385447 0
-0.38100001 1.462 -0.154 0
0.43900001 1.488 -0.153 0
0.54650474 1.4544737 -0.15362798 0
0.65223891 1.4504042 -0.15321155 0
0.76101995 1.423575 -0.15355989 0
0.84312832 1.4496597 -0.15324746 0
0.94048369 1.4525902 -0.15347236 0
1.048643 1.460145 -0.15345663 0
1.3648114 1.4208149 -0.15109028 0
1.4559546 1.4470049 -0.15022475 0
1.5639764 1.4520515 -0.15028803 0
1.6679223 1.4750493 -0.14895409 0
1.7545253 1.4328219 -0.1492094 0
1.8472357 1.460914 -0.14884253 0
1.9672794 1.4520457 -0.14793688 0
2.0367329 1.4407603 -0.14909613 0
2.1325986 1.463014 -0.149 0
-2.8399999 1.513 -0.17399999 0
-2.4439049 1.5288429 -0.16097915 0
-2.3507252 1.5467844 -0.16085413 0
-2.1487062 1.5447134 -0.16063893 0
-2.059094 1.5593858 -0.15938258 0
-1.9501326 1.5401697 -0.15899999 0
-1.8501657 1.532115 -0.16054015 0
-1.7489847 1.5940913 -0.15961634 0
-1.6822727 1.5335069 -0.159814 0
-1.5460384 1.5566901 -0.15817413 0
-1.246973 1.5907844 -0.15672745 0
-1.1601647 1.5620749 -0.15654072 0
-1.0466936 1.524648 -0.15738845 0
-0.9514479 1.5465487 -0.15618066 0
-0.85460234 1.5426811 -0.15537553 0
-0.75503588 1.5382787 -0.15490773 0
-0.64116687 1.5637722 -0.15450001 0
-0.58022356 1.5620549 -0.154176 0
-0.48831487 1.5413024 -0.15341789 0
-0.35031065 1.5407456 -0.15153784 0
-0.234 1.5625 -0.153 0
-0.182 1.595 -0.152 0
0.35469362 1.5728877 -0.1532547 0
0.46193767 1.5694364 -0.15269211 0
0.5471952 1.5490422 -0.15232886 0
0.64059085 1.5390749 -0.15257239 0
0.7494719 1.5252609 -0.15315717 0
0.85010052 1.5661925 -0.15307985 0
0.97000003 1.5345 -0.15349999 0
1.0387998 1.5973605 -0.15330411 0
1.4933114 1.5438149 -0.15109028 0
1.5524912 1.558782 -0.15012702 0
1.6509321 1.5507636 -0.15021223 0
1.7349067 1.5344591 -0.14874491 0
1.857767 1.5404457 -0.14866678 0
1.9503859 1.5665969 -0.14813642 0
2.0631311 1.5522975 -0.14742312 0
2.1670558 1.5332805 -0.14875959 0
2.2378688 1.5671197 -0.14454432 0
-2.2456691 1.6320891 -0.15999189 0
-2.0439625 1.666051 -0.15968451 0
-1.9543989 1.618538 -0.16024818 0
-1.8156967 1.6546757 -0.15941867 0
-1.6149391 1.6259025 -0.15801825 0
-1.2994663 1.6564806 -0.15640929 0
-1.128 1.602 -0.156 0
-1.0062919 1.6501082 -0.1548768 0
-0.92965114 1.6474135 -0.15532193 0
-0.88023639 1.6275043 -0.15531437 0
-0.7562924 1.6637383 -0.15403141 0
-0.67476863 1.6443566 -0.15422311 0
-0.54861808 1.6174884 -0.1535317 0
-0.42738539 1.6475415 -0.15047705 0
-0.34575561 1.6480399 -0.14204538 0
-0.25310183 1.6461301 -0.1410547 0
-0.15021451 1.6504155 -0.15183026 0
0.24885516 1.6492462 -0.15232095 0
0.34355032 1.6628194 -0.15137614 0
0.42468482 1.6419948 -0.15208437 0
0.55399978 1.6525149 -0.15221515 0
0.66574359 1.6491808 -0.15149799 0
0.75631118 1.6313081 -0.15208977 0
0.84100002 1.608 -0.153 0
1.0895995 1.671721 -0.15260823 0
1.446 1.6339999 -0.152 0
1.5271276 1.6554022 -0.15054783 0
1.6255254 1.6565372 -0.14966455 0
1.7461525 1.6473845 -0.14909023 0
1.8503307 1.6624284 -0.148844 0
1.9743954 1.6670895 -0.14770377 0
2.0570652 1.6522655 -0.14750834 0
2.1224649 1.6591988 -0.14770418 0
2.3414748 1.6064788 -0.13317727 0
2.4142122 1.6557182 -0.1252659 0
-1.9530605 1.7794223 -0.15901166 0
-1.8824089 1.7152603 -0.15922101 0
-1.3619865 1.7347256 -0.1560304 0
-1.217 1.795 -0.155 0
-1.0399473 1.7669854 -0.15430549 0
-0.96404016 1.7382327 -0.15397584 0
-0.82757545 1.744548 -0.15285735 0
-0.73937964 1.7762659 -0.15447313 0
-0.62180787 1.7913181 -0.15272558 0
-0.5914039 1.705659 -0.1533628 0
-0.45760834 1.7684333 -0.14818165 0
-0.36256671 1.7360299 -0.13453403 0
-0.24412797 1.7407137 -0.13495077 0
-0.12927653 1.7477437 -0.15146695 0
0.088 1.724 -0.152 0
0.24641678 1.7329613 -0.15010658 0
0.45043039 1.7590159 -0.15075243 0
0.5407033 1.7285771 -0.15126908 0
0.63022971 1.7628969 -0.1517728 0
0.74307001 1.747393 -0.1517151 0
1.1403992 1.7460815 -0.15191233 0
1.3940001 1.737 -0.153 0
1.5644536 1.7625347 -0.15073985 0
1.6785994 1.7311046 -0.14943536 0
1.7583411 1.7702463 -0.14888293 0
1.8708479 1.7664483 -0.1483693 0
1.9586029 1.7524923 -0.14815424 0
2.063899 1.7850748 -0.13378432 0
2.4869494 1.7049576 -0.11735453 0
2.5596867 1.754197 -0.10944317 0
-1.4511585 1.8467908 -0.1555555 0
-1.2668179 1.8665169 -0.15435801 0
-1.1225502 1.8349494 -0.15389378 0
-1.0389143 1.84404 -0.15311046 0
-0.84725809 1.8363999 -0.15115517 0
-0.74590659 1.8602978 -0.15245564 0
-0.6336059 1.8794885 -0.15154418 0
-0.15013345 1.8420949 -0.15104333 0
0.092309281 1.8141031 -0.15190205 0
0.44244015 1.8396713 -0.14976542 0
0.54231685 1.8497659 -0.15096094 0
0.64561266 1.8593763 -0.15105821 0
0.76240712 1.8786378 -0.15058221 0
1.1745994 1.842221 -0.15160823 0
1.2704993 1.8884013 -0.15176028 0
1.4485922 1.8054882 -0.15175927 0
1.5031842 1.8739766 -0.15051854 0
1.6532938 1.8589358 -0.14979474 0
1.7657485 1.8380865 -0.14812039 0
1.829488 1.8290389 -0.14819685 0
1.9289126 1.8731201 -0.13517791 0
2.0349054 1.8618927 -0.13728915 0
2.1297979 1.8431498 -0.11956865 0
2.6324241 1.8034364 -0.1015318 0
-1.5353169 1.9525816 -0.155111 0
-1.3166358 1.9380339 -0.15371603 0
-1.1462377 1.9556689 -0.15310162 0
-1.0749645 1.9473181 -0.15223318 0
-0.8268857 1.9488627 -0.15305638 0
-0.75593483 1.9390322 -0.15114212 0
-0.66199547 1.9644122 -0.15093121 0
0.096618563 1.9042063 -0.15180412 0
0.10092784 1.9943094 -0.15170617 0
0.46912834 1.944589 -0.14960779 0
0.55652285 1.9548106 -0.15041113 0
0.63852334 1.9684883 -0.15040226 0
0.7366519 1.9603449 -0.15016295 0
0.82597715 1.9505308 -0.15079731 0
1.2480929 1.9508877 -0.15046909 0
1.3468698 1.9496011 -0.15179896 0
1.5577763 1.9424648 -0.14927781 0
1.742134 1.9553368 -0.14884964 0
1.8576777 1.9120517 -0.14255315 0
1.9339914 1.9668404 -0.13229023 0
2.0524864 1.9487543 -0.11461969 0
2.1686988 1.9216363 -0.10511072 0
-1.6475283 2.093636 -0.15451834 0
-1.5914227 2.0231087 -0.15481468 0
-1.4162718 2.081068 -0.15243207 0
-1.3664539 2.009551 -0.15307406 0
-1.2607768 2.0624685 -0.15288484 0
-1.1597835 2.047688 -0.15178511 0
-0.83600336 2.040885 -0.15133107 0
-0.74217713 2.0437624 -0.15040627 0
-0.66775036 2.0503771 -0.14982253 0
0.10523712 2.0844126 -0.15160824 0
0.45968765 2.0271683 -0.14779419 0
0.55179709 2.0407116 -0.14999078 0
0.650792 2.0586591 -0.15029179 0
0.74132836 2.0712335 -0.15040269 0
0.83023119 2.0432355 -0.14982565 0
1.2714679 2.0355313 -0.14978382 0
1.3691689 2.0303626 -0.14986336 0
1.4426093 2.0848031 -0.1493969 0
1.6396644 2.0451972 -0.14741671 0
1.8309742 2.0517378 -0.14790453 0
1.9724567 2.028583 -0.13099533 0
2.0252922 2.0136156 -0.11112382 0
-1.703634 2.1641631 -0.154222 0
-1.4660897 2.152585 -0.15179008 0
-1.3262526 2.1702406 -0.15240692 0
-1.2398201 2.1550305 -0.15088639 0
-1.1720958 2.121803 -0.15079969 0
-0.93621427 2.1886566 -0.15014096 0
-0.85841745 2.1343272 -0.15024477 0
-0.74342358 2.133954 -0.15017675 0
-0.69412553 2.1345658 -0.1492338 0
0.1095464 2.1745157 -0.1515103 0
0.4795835 2.1148911 -0.14739226 0
0.55522197 2.1501372 -0.14869142 0
0.65438384 2.155292 -0.14970036 0
0.74476403 2.1483455 -0.14974867 0
0.88107163 2.1262672 -0.14972368 0
0.96499997 2.1459999 -0.15000001 0
1.1215 2.1659999 -0.15099999 0
1.3669732 2.1281672 -0.14844352 0
1.4678384 2.1723244 -0.14796644 0
1.7215526 2.1479297 -0.14555563 0
1.916 2.1440001 -0.147 0
2.0285513 2.1125543 -0.10398754 0
-1.7597396 2.2346904 -0.15392567 0
-1.5408165 2.2598605 -0.15082711 0
-1.346958 2.2667727 -0.15106614 0
-1.2523891 2.2495432 -0.14965798 0
-0.9405309 2.2627435 -0.14936952 0
-0.84675264 2.2445173 -0.14874685 0
-0.74716413 2.2191837 -0.14909232 0
0.11385568 2.2646189 -0.15141237 0
0.49947941 2.2026138 -0.14699031 0
0.5474894 2.2767336 -0.14757101 0
0.65082395 2.2336793 -0.14903167 0
0.73978996 2.2447417 -0.14943542 0
0.8489362 2.2321491 -0.14870222 0
0.94972837 2.2480664 -0.14926627 0
1.0016831 2.2266574 -0.14977215 0
1.1629887 2.2442646 -0.15015221 0
1.2156497 2.2892616 -0.15003856 0
1.3849356 2.2070627 -0.14756766 0
1.4696659 2.2628682 -0.14701371 0
1.5581744 2.2480025 -0.14649741 0
1.7575724 2.2472091 -0.14365745 0
1.8466842 2.2702265 -0.14401855 0
1.9468354 2.2862377 -0.13666657 0
-1.8438982 2.3404813 -0.15348117 0
-1.605 2.352 -0.15000001 0
-1.2845 2.326 -0.148 0
-1.0091 2.3485193 -0.14819734 0
-0.94283032 2.3408861 -0.14901614 0
-0.84362346 2.3546312 -0.14838775 0
-0.74043292 2.3523715 -0.13537091 0
0.11816496 2.354722 -0.15131442 0
0.56849933 2.364146 -0.14713211 0
0.65204585 2.3398411 -0.14811829 0
0.75914782 2.342082 -0.148599 0
0.8387875 2.3565087 -0.14868337 0
0.92263651 2.3463843 -0.14785802 0
1.0382909 2.3548067 -0.1491311 0
1.1933048 2.3557966 -0.14857024 0
1.2584746 2.3673925 -0.14905784 0
1.7930032 2.3491766 -0.13555129 0
1.8552822 2.3590074 -0.13999151 0
1.9662247 2.3429308 -0.13715634 0
2.0056708 2.3544757 -0.12633315 0
-1.9315283 2.4506359 -0.15301833 0
-1.0351809 2.4568169 -0.1474085 0
-0.94971335 2.4373393 -0.14797872 0
-0.86503935 2.4765902 -0.14762792 0
-0.76353693 2.4616733 -0.13463572 0
0.12247424 2.4448252 -0.15121649 0
0.57589227 2.4508843 -0.14715028 0
0.6493364 2.4457841 -0.1469779 0
0.74362952 2.4467835 -0.14774027 0
0.84829074 2.4442127 -0.14810957 0
0.94684887 2.4793591 -0.14733973 0
1.0359424 2.4498441 -0.14804336 0
1.1117326 2.4686296 -0.14908862 0
1.2334571 2.434195 -0.14785537 0
1.3012995 2.4455233 -0.14807712 0
1.776 2.4170001 -0.145 0
1.8505951 2.4448705 -0.13090351 0
1.9428983 2.4774816 -0.12000193 0
2.0562024 2.4322186 -0.1178125 0
2.1233416 2.4909513 -0.10566629 0
-0.95200002 2.5309999 -0.147 0
-0.85333377 2.5711696 -0.14643003 0
-0.75372386 2.5370131 -0.13419627 0
0.12678352 2.5349283 -0.15111855 0
0.57906294 2.5535049 -0.14538257 0
0.64746666 2.54669 -0.14711991 0
0.73315316 2.5490553 -0.1469463 0
0.84125966 2.5423818 -0.14784631 0
0.94968331 2.5687842 -0.14688672 0
1.0398588 2.5426478 -0.1472193 0
1.1484158 2.5492871 -0.14886077 0
1.2736094 2.5125935 -0.14714049 0
1.328943 2.557323 -0.146761 0
1.881796 2.5561929 -0.11977713 0
1.9693277 2.5628455 -0.10893166 0
2.0522573 2.5650585 -0.10693205 0
2.1023481 2.507585 -0.10793793 0
-0.77999997 2.622 -0.146 0
0.13154641 2.6345158 -0.1510103 0
0.59799999 2.6370001 -0.145 0
0.76700002 2.6170001 -0.147 0
0.83907795 2.6356483 -0.14713776 0
0.93736023 2.6594477 -0.14691126 0
1.0439507 2.6380835 -0.14649494 0
1.1431373 2.6443958 -0.14742462 0
1.3704317 2.6355877 -0.1459132 0
1.429774 2.6799159 -0.14513496 0
1.9346939 2.6257894 -0.10716569 0
2.009016 2.6338832 -0.10575642 0
1.056204 2.7244751 -0.14603516 0
1.1769423 2.7798438 -0.14604336 0
1.2401237 2.7509305 -0.14829116 0
1.3940666 2.7477887 -0.14499584 0
1.4725988 2.7580466 -0.14415424 0
1.2869999 2.8540001 -0.148 0
1.4421095 2.8415937 -0.14414048 0
1.5192119 2.8430886 -0.14308676 0
2.1586328 3.0516293 -0.13209319 0
1.994 3.1199999 -0.139 0
2.0392113 3.1914167 -0.12546538 0
2.2325306 3.1585174 -0.1143728 0
2.0844228 3.2628334 -0.11193075 0
2.2817957 3.2297759 -0.10255919 0
1.359 3.3959999 -0.13699999 0
1.527 3.3499999 -0.138 0
1.3926482 3.4773738 -0.12761511 0
1.5638635 3.4294167 -0.12780622 0
1.4262965 3.5587478 -0.11823021 0
1.619159 3.5485418 -0.11251553 0
1.4599447 3.6401215 -0.10884532 0
-0.56 4.743 -0.125 0
-0.57332051 4.8236527 -0.12390517 0
-0.59330124 4.9446321 -0.12226291 0
-0.61328197 5.0656114 -0.12062066 0
-0.62980127 5.1656322 -0.11926292 0
-2.6930001 -3.4100001 -0.075999998 0
-2.641259 -3.3455572 -0.087020673 0
-2.5854523 -3.2760508 -0.098907262 0
-2.3329999 -2.6700001 -0.003 0
-1.98 -2.6029999 -0.0060000001 0
-1.723 -2.6159999 -0.0089999996 0
-2.168 -2.598 -0.0040000002 0
-1.78 -2.5739999 -0.0080000004 0
-2.3080001 -2.3069999 -0.001 0
-2.214 -2.316 -0.001 0
-2.1289999 -2.3299999 -0.0020000001 0
-2.868 -1.624 -0.011 0
-2.9219999 -1.501 -0.0040000002 0
-2.8599999 -1.551 -0.0060000001 0
-0.52399999 1.794 -0.031000003 0
-0.54351479 1.8571181 -0.039766409 0
2.7051616 1.8526758 -0.093620434 0
-0.5697909 1.9421051 -0.051570147 0
2.2615962 1.9592996 -0.091137297 0
2.7778988 1.9019152 -0.085709073 0
2.812 1.925 -0.082000002 0
-0.59606707 2.027092 -0.063373879 0
2.087723 2.0761542 -0.098831758 0
2.1475782 2.0398068 -0.094591498 0
2.2380509 2.0305719 -0.083302706 0
2.3604445 2.046412 -0.06981378 0
-0.63548124 2.154572 -0.081079476 0
2.090189 2.1769431 -0.092984423 0
2.1501536 2.1386929 -0.086539693 0
2.2426701 2.1308594 -0.074563317 0
2.366518 2.1486039 -0.054548353 0
2.4592931 2.1335242 -0.048490271 0
2.5251923 2.1915991 -0.034274593 0
-0.67489547 2.2820525 -0.098785073 0
2.1518269 2.2413316 -0.081981316 0
2.2437997 2.2325006 -0.0681016 0
2.3377619 2.2219117 -0.054535136 0
2.4320123 2.2598705 -0.037082799 0
2.5633638 2.2592247 -0.021019638 0
2.2442837 2.3379145 -0.065476641 0
2.3686614 2.3575776 -0.043517482 0
2.4590001 2.3380001 -0.028999999 0
2.3618703 2.4607487 -0.044485986 0
2.4170001 2.4059999 -0.034000002 0
2.169487 2.566318 -0.095791712 0
1.987592 2.6953859 -0.094554253 0
2.0644641 2.6644769 -0.083987288 0
2.1068215 2.6340733 -0.097915068 0
2.2507021 2.6541336 -0.081409551 0
2.0517545 2.7350211 -0.090125263 0
2.1412313 2.7484312 -0.081024483 0
2.2408233 2.7386363 -0.076378472 0
2.3379428 2.7746449 -0.061173692 0
2.0933878 2.8345788 -0.069331385 0
2.1850958 2.8405218 -0.066473022 0
2.2705145 2.8411169 -0.070864111 0
2.306 2.8859999 -0.064999998 0
2.4175184 2.8321407 -0.053999156 0
2.1727347 2.9389734 -0.050414234 0
2.248769 2.9227204 -0.054429181 0
2.4763536 2.9003785 -0.043665729 0
2.52 2.951 -0.035999998 0
2.2290001 3.013 -0.037 0
2.1518507 3.3634524 -0.053704318 0
2.3556936 3.3366637 -0.084838793 0
2.1748457 3.4056668 -0.084861502 0
2.2193842 3.4720936 -0.046167608 0
2.3203607 3.4644847 -0.014268139 0
2.4295914 3.4435518 -0.067118391 0
2.2643123 3.5450258 -0.045398213 0
2.3696802 3.5352423 -0.02963407 0
2.4788566 3.5148106 -0.055304788 0
2.526 3.5829999 -0.044 0
1.6744543 3.6676667 -0.097224854 0
1.7066195 3.6976995 -0.0082064979 0
2.3080001 3.6159999 -0.045000002 0
2.4189999 3.6059999 -0.045000002 0
1.4935931 3.7214954 -0.09946043 0
1.7253913 3.7626791 -0.053092971 0
1.5440655 3.8435564 -0.085383095 0
1.7602456 3.842675 -0.053470269 0
1.5945379 3.9656172 -0.071305752 0
1.7850451 3.9059169 -0.066643491 0
1.8135319 3.9623792 -0.048750665 0
1.6281862 4.0469909 -0.061920866 0
1.8380001 4.02 -0.052000001 0
1.653 4.1069999 -0.055 0
-2.2756865 -2.608835 0.0084010698 0
-1.9349999 -2.6289999 0.028000001 0
-2.2306867 -2.5328348 0.01940107 0
-2.1113372 -2.529706 0.0062441048 0
-1.9386551 -2.5282946 0.015014809 0
-1.8842474 -2.5585601 0.0363096 0
-1.7312233 -2.5037081 0.0056307279 0
-1.6761529 -2.545311 0.0056397039 0
-2.1403723 -2.4623239 0.03000956 0
-2.0449293 -2.4591093 0.022071118 0
-1.968832 -2.4285357 0.030514294 0
-1.8685218 -2.4688427 0.0319204 0
-1.7827425 -2.4176805 0.052928798 0
-1.6558764 -2.4540193 0.019770432 0
-1.5824589 -2.4039335 0.034919109 0
-2.1223655 -2.3829038 0.033461511 0
-2.0542402 -2.3397651 0.047348805 0
-1.9680741 -2.3463707 0.040718805 0
-1.8334152 -2.3901141 0.036127195 0
-1.7645267 -2.3297627 0.051535055 0
-1.6336701 -2.3631246 0.032892186 0
-1.5356119 -2.3332446 0.049558815 0
-2.648 -2.2259998 0.0024999999 0
-2.5185001 -2.217 0.0035000001 0
-2.4949999 -2.253 0.027000001 0
-2.3629999 -2.2590001 1.1861316e-15 0
-2.2549286 -2.2261486 0.0098146442 0
-2.1572461 -2.2564118 0.012386791 0
-2.0377593 -2.2344429 0.024087818 0
-1.9506694 -2.2778735 0.057087712 0
-1.8572407 -2.2464857 0.05043029 0
-1.7281752 -2.2519336 0.057239577 0
-1.6558614 -2.241581 0.073702797 0
-1.5605052 -2.2576871 0.053338274 0
-1.4887648 -2.2625556 0.064198524 0
-2.8110001 -2.1389999 0.001 0
-2.6500001 -2.1730001 0.022 0
-2.5657234 -2.140188 0.014776736 0
-2.4566298 -2.1557331 0.019060288 0
-2.3540792 -2.1358759 0.023260117 0
-2.2501428 -2.1483788 0.015289228 0
-2.1458902 -2.1597035 0.022649921 0
-2.0515077 -2.1444814 0.027925014 0
-1.9477172 -2.1639853 0.04096812 0
-1.8445616 -2.1491754 0.059491623 0
-1.7597606 -2.1373103 0.0661401 0
-1.649245 -2.1482985 0.073073871 0
-1.5797327 -2.1359212 0.086167186 0
-1.4646289 -2.1720581 0.076311298 0
-1.3910353 -2.1150889 0.094738968 0
-2.8150001 -2.0439999 0.001 0
-2.7394993 -2.0833883 0.008213996 0
-2.6629992 -2.0518882 0.017213996 0
-2.5479774 -2.041677 0.02963651 0
-2.4405839 -2.0370576 0.028727919 0
-2.3435419 -2.0555134 0.024783358 0
-2.2599516 -2.0442238 0.046266254 0
-2.1552014 -2.0589621 0.027492814 0
-2.0492117 -2.0449314 0.038386311 0
-1.9609061 -2.07285 0.040289417 0
-1.8609965 -2.0448275 0.050386451 0
-1.7300555 -2.0468509 0.072793223 0
-1.6654083 -2.0519824 0.077342913 0
-1.5551577 -2.0483315 0.091204077 0
-1.4267818 -2.0649788 0.090707541 0
-2.7429094 -1.9902489 0.0086090295 0
-2.6485512 -1.9520777 0.018617937 0
-2.5455239 -1.9523878 0.028038323 0
-2.4436145 -1.914668 0.037925489 0
-2.3582778 -1.9689915 0.03421481 0
-2.263181 -1.966133 0.038759205 0
-2.1655188 -1.9454181 0.045241594 0
-2.0438793 -1.9511142 0.043675203 0
-1.9551781 -1.9532337 0.050711382 0
-1.8579251 -1.9399294 0.058402579 0
-1.7464119 -1.9460261 0.069371939 0
-1.6486464 -1.9612265 0.087332696 0
-1.5595521 -1.9507619 0.093038119 0
-2.9130001 -1.83 0.001 0
-2.8659999 -1.827 0.0080000004 0
-2.7623336 -1.8626667 0.0043333336 0
-2.6648498 -1.8468466 0.010767672 0
-2.5520117 -1.8634046 0.028844902 0
-2.4565005 -1.8425736 0.037988611 0
-2.3516133 -1.8244444 0.046353478 0
-2.2490113 -1.872669 0.049319707 0
-2.1414683 -1.841593 0.051991243 0
-2.0404658 -1.8518885 0.06057395 0
-1.9310052 -1.8258153 0.058623031 0
-1.855655 -1.8369344 0.066544577 0
-1.7558954 -1.8406349 0.073484793 0
-1.6398269 -1.8425193 0.091307543 0
-1.5725083 -1.8501208 0.09226314 0
-2.8394382 -1.7816101 0.0099653499 0
-2.7496641 -1.7596045 0.017909056 0
-2.6443503 -1.7630669 0.023058198 0
-2.5536242 -1.7731164 0.025419179 0
-2.4545467 -1.7752452 0.039045144 0
-2.3496161 -1.7392074 0.049718469 0
-2.229229 -1.753336 0.056850977 0
-2.1359334 -1.7732856 0.056695975 0
-2.0571046 -1.7392836 0.065037809 0
-1.9748768 -1.7533826 0.070343666 0
-1.8655491 -1.7478653 0.074611351 0
-1.7463715 -1.7303249 0.084154539 0
-1.684 -1.776 0.084000006 0
-1.584 -1.78 0.097999997 0
-2.8179998 -1.65 0.0024999999 0
-2.7347634 -1.6525373 0.015649941 0
-2.6525462 -1.6525128 0.031301089 0
-2.547029 -1.6687336 0.037457447 0
-2.4488153 -1.6728377 0.043573745 0
-2.3393068 -1.658988 0.052050777 0
-2.254344 -1.6426475 0.060501177 0
-2.1667016 -1.6483999 0.06617856 0
-2.0412271 -1.6674579 0.067769445 0
-1.9332809 -1.6477499 0.080200419 0
-1.8395818 -1.6487713 0.083942808 0
-1.785 -1.66 0.08600001 0
-2.8310001 -1.531 4.9287871e-14 0
-2.7622888 -1.5465193 0.0081824157 0
-2.6730351 -1.5187407 0.023961257 0
-2.5461781 -1.5552707 0.043458778 0
-2.453351 -1.5648437 0.053864256 0
-2.3527565 -1.5639156 0.05985406 0
-2.2199481 -1.5519259 0.069373704 0
-2.1385534 -1.5386319 0.075236209 0
-2.0582323 -1.5528443 0.076501682 0
-1.967 -1.556 0.079999998 0
-1.873 -1.59 0.088 0
-2.8452497 -1.4617976 0.0097463112 0
-2.7452192 -1.4598151 0.01864364 0
-2.6459489 -1.4415196 0.029306741 0
-2.5480115 -1.4409394 0.042023476 0
-2.4338167 -1.4706867 0.058249701 0
-2.3547158 -1.461839 0.068597414 0
-2.250663 -1.4560722 0.075872876 0
-2.1614635 -1.4465783 0.083153605 0
-2.0532904 -1.4683092 0.086657695 0
-1.974 -1.454 0.090999998 0
-2.6533742 -1.3637915 0.044112086 0
-2.5461886 -1.3501498 0.053042654 0
-2.4453652 -1.3439066 0.062650703 0
-2.3606617 -1.3337865 0.071753368 0
-2.2606912 -1.3415508 0.084537834 0
-2.1387684 -1.3432008 0.093899451 0
-2.0765109 -1.3888253 0.0935864 0
-2.4317484 -1.2690337 0.074518651 0
-2.3533885 -1.2613697 0.082649633 0
-2.2141409 -1.2689627 0.095845029 0
-2.194 -1.258 0.098999999 0
1.9644452 3.0430915 0.047312498 0
2.0227213 3.0374694 0.078463718 0
2.0569482 3.1400032 0.044768251 0
2.1230819 3.1814542 0.047195584 0
2.0847785 3.2437582 0.014979161 0
2.1724014 3.2522118 0.031829655 0
1.5731194 3.3701997 0.036293503 0
2.1294229 3.3182065 0.002983328 0
