# .PCD v0.7 - Point Cloud Data file format
VERSION 0.7
FIELDS x y z intensity
SIZE 4 4 4 4
TYPE F F F F
COUNT 1 1 1 1
WIDTH 683
HEIGHT 1
VIEWPOINT 0 0 0 1 0 0 0
POINTS 683
DATA ascii
-32.270741 -55.710426 14.489385 10
-32.143387 -55.339714 16.856407 11
-32.383957 -55.754059 19.558388 12
-31.718632 -55.681568 16.809351 11
-28.822321 7.203548 12.261625 15
-28.633747 7.5585608 11.828713 15
-21.691408 11.002002 9.5090179 15
-21.21517 16.879393 5.0394864 9
-21.407701 16.581604 5.5143452 9
-21.270956 16.742796 5.7235141 10
-21.258608 16.859886 7.355402 11
-21.325449 11.430194 9.4174566 15
-21.142664 16.850677 5.2387285 9
-21.131941 11.507435 9.6818933 15
-20.71557 17.247631 5.0143948 9
-20.515316 17.478216 5.4776521 9
-20.410507 17.641394 5.6587281 10
-20.662199 17.322359 9.6414661 14
-20.307312 17.828466 5.2527666 9
-20.31785 17.743229 9.3368702 13
-20.266453 17.804718 9.6379337 14
-15.655397 -7.4611826 -0.086299933 3
-13.70694 4.3442502 2.9961157 10
-13.273376 5.4658928 3.1817985 10
-13.570974 4.3689656 3.4304583 10
-13.422534 5.1846576 3.4387627 10
-13.367202 5.3114829 3.3987455 10
-13.274025 5.4422159 3.8278313 11
-12.795916 -3.2336199 -0.027661553 3
-12.248094 -3.7284698 0.046479523 3
-11.773335 -4.1242962 -0.010209531 3
-11.794474 -4.1781545 0.22600827 3.75
-11.882142 -4.4875522 0.53654999 4
-11.799521 -4.2170792 0.62822741 4.5
-11.894412 -3.9481175 0.62553209 5
-11.799862 -4.0416684 0.81288248 5
-11.784365 7.4064984 2.5734115 9
-11.761608 7.2252722 2.9737127 10
-11.933709 7.12324 3.3453624 10
-11.514342 7.0992694 3.6365745 11
-10.810803 -1.7689821 -0.11757109 3
-10.712674 -1.9571158 0.20615426 4
-10.01614 -18.691948 -0.10036732 3
-9.7084141 9.7223282 2.6177852 9
-9.7870169 9.7604408 2.8970134 10
-9.6162643 9.5310383 3.3217983 11
-9.5083742 8.4534798 0.94449049 6
-9.5559654 9.9135265 2.5594671 9
-7.6923862 1.900252 0.069928646 3
-7.6683035 2.6901994 0.0070272041 3
-7.4236407 8.2100248 -0.16127001 3
-7.018909 3.3204823 0.015050063 3
-6.8939056 -26.339003 2.7359836 6
-6.8358803 -25.947002 3.3469737 7
-6.6886582 8.1673841 -0.0791208 3
-6.611414 3.4970055 0.0089846281 3
-6.4270964 -25.852997 2.8730659 6
-6.6569963 -26.044998 3.6220224 7
-6.0235839 -5.9702415 -0.24995026 2
-6.317421 1.5770086 -0.15445071 2
-6.1722679 -26.066996 2.726146 6
-6.251204 -25.890995 3.1841128 7
-6.1598091 -22.975008 5.6779542 10
-6.1598034 -22.958012 6.226953 11
-6.1668 -22.983015 6.7569523 12
-5.6040192 8.2851915 -0.12919314 3
-5.8759952 -22.971996 5.692019 10
-5.9839454 -23.104 6.2330017 11
-5.300509 -3.5648444 -0.20108946 2
-5.5566907 1.9830871 -0.18217468 2
-5.3509531 3.7737963 -0.15724537 3
-5.0251698 4.1040173 -0.15620108 3
-4.630619 -1.1701099 -0.17543307 2
-4.7047787 4.2257237 -0.15241742 3
-4.5931516 4.5366669 -0.15647155 3
-4.7973247 6.4522676 -0.099481516 3
-4.7429008 5.7195191 0.12161771 4
-3.7819777 -1.1549391 -0.20806037 2
-3.8522494 -23.119047 3.0056088 7
-3.707356 -23.171045 3.212662 7
-3.5320816 -14.316019 -0.16296139 3
-3.440995 -1.7271998 -0.20291948 2
-3.360441 -1.3089836 -0.19405617 2
-3.4378316 2.2918792 -0.17745163 2
-3.3235629 2.5829005 -0.17393707 2
-3.3001816 2.9710252 -0.17480686 2
-3.5374098 -23.11109 2.3927162 6
-3.0575621 -2.6316493 -0.20688775 2
-3.1911058 -2.3835216 -0.20463927 2
-2.9324753 -1.742246 -0.17631446 2
-3.0101373 1.4036647 -0.19057459 2
-2.9210899 3.8790302 -0.1617586 2
-2.8044631 -1.6962992 0.006630668 3
-2.8251631 -1.5291975 0.0018015688 3
-2.8005223 -18.960985 5.111599 11
-2.862505 -19.007963 5.5055823 12
-2.5074775 2.4852188 -0.16688125 2
-2.7925847 4.1050014 -0.15765983 2
-2.5680594 -2.2116301 0.025563516 3
-2.7059283 -1.9149394 0.0148738 3
-2.5218208 -1.1900321 0.076910026 4
-2.6500986 -18.924017 4.5701489 10
-2.697614 -19.098995 5.014648 11
-2.2738283 -5.4486437 -0.23597592 2
-2.3527286 -2.8449652 -0.059406951 3
-2.1219616 -2.7024724 -0.19246642 2
-2.1478975 -2.2130797 -0.064876996 2.3333333
-2.0482075 -1.7664822 -0.19248827 1
-2.0487692 -1.4154661 -0.18769684 1
-2.1643279 -1.1689709 -0.19536023 1
-2.372788 -0.59843534 -0.17447464 1
-2.0160666 0.46583572 -0.16043139 1
-2.2938306 1.190227 -0.17591377 1
-2.0689795 1.6814554 -0.17369482 1
-2.2100375 2.510536 -0.16900289 2
-2.2600844 5.4739451 -0.13292025 3
-2.0236733 5.6408119 -0.13248385 3
-2.1453485 -1.2775158 0.20476255 5.5714288
-2.3059742 -1.1836215 0.25274125 6
-2.2798958 -1.165169 0.40573987 8
-1.76335 -3.4814351 -0.20483406 2
-1.6129011 -1.9698608 -0.19041863 1
-1.8002053 -0.94207543 -0.19000806 0.5
-1.9170942 -0.66351384 -0.17469732 1
-1.8607528 0.60811043 -0.1752836 0.66666669
-1.8505883 0.83954728 -0.1742713 1
-1.8155253 1.6978414 -0.17141925 1
-1.770756 3.9673133 -0.15997814 2
-1.7553735 5.7136559 -0.128837 3
-1.9515376 -10.002137 0.0071287183 3
-1.9321553 -2.6280682 0.028466173 3
-1.6608455 -2.0389266 0.085575975 4
-1.7297354 -1.7087082 0.1306548 4.8333335
-1.8632021 -1.4611273 0.23702665 6.1666665
-1.6025118 -1.8359264 0.52864873 10
-1.8808801 -1.5345082 0.68418872 11.5
-1.2170178 -4.8190069 -0.21699488 2
-1.3916547 -4.5998821 -0.21599421 2
-1.5173069 -4.2997632 -0.21697502 2
-1.5452203 -2.0779755 -0.19051372 1
-1.3495145 -1.0067813 -0.19205032 0
-1.5615439 -0.60470045 -0.18442364 0
-1.2694857 1.1511688 -0.17092434 0
-1.3467445 3.9746146 -0.15725607 2
-1.4762809 -9.7812481 0.20256743 3.6666667
-1.5351813 -2.0770302 0.093480811 4
-1.588281 -1.6697737 0.29624158 7
-1.4549841 -9.799242 0.43424138 5
-1.5673677 -1.856721 0.58511317 10.5
-1.5662249 -17.63711 4.0719385 10
-1.4043664 -17.557102 4.3289976 10
-1.3364108 -17.194082 4.6499882 11
-1.5603079 -17.735058 4.8199496 11
-1.4173855 -17.273056 4.9889622 12
-1.5263453 -17.424017 5.3319325 12
-0.93432748 -2.1205425 -0.18335164 1
-1.028953 1.4061986 -0.16793072 0.5
-0.95834553 1.777034 -0.10787409 1.75
-0.98942393 -9.9504023 0.063399225 3
-0.95685369 1.7926055 0.035739232 4
-0.97189647 7.0848479 0.22278233 4.5
-0.93647635 7.0668044 0.5279029 6
-0.94244117 7.046329 1.0181696 7.5
-0.93523264 7.0411162 1.2574474 8.666667
-0.89378786 6.9899521 2.2331357 12.5
-0.80941093 6.6961908 2.4312932 14
-0.63610071 -3.69473 -0.20599723 2
-0.49172857 -3.215287 -0.20201245 1
-0.62238425 -3.1051502 -0.20001148 1
-0.7025857 -2.2243354 -0.18620355 1
-0.77245736 1.5691566 -0.16540194 1
-0.49396709 1.7624828 -0.095884964 1.875
-0.5199815 5.0939393 -0.13457608 3
-0.78308529 5.2410722 -0.13049565 3
-0.52560908 1.7553226 0.19578303 6.75
-0.56656522 6.7518682 0.18716258 4.3333335
-0.74121451 6.8919783 0.18950254 4.3333335
-0.60813826 1.577315 0.56249934 13.142858
-0.48692602 1.619297 0.52529544 12.5
-0.56120211 6.7394791 0.47586289 5.5
-0.70142221 6.8520532 0.4673329 5.5
-0.46522003 6.6531458 1.0529075 8
-0.75880128 6.8998737 2.2491207 13
-0.37712374 -3.7084396 -0.20697798 2
-0.29954332 1.7865651 -0.09707173 2
-0.32400405 2.9846988 -0.15792325 2
-0.022178017 4.3537455 -0.13515791 2
-0.23428866 4.4998064 -0.13593332 2
-0.029250337 5.5148835 -0.046936244 3
-0.33844456 6.565012 -0.067307673 3
-0.39398682 1.7560111 0.085115343 4.6666665
-0.1801603 -16.017273 3.8953853 10
-0.082252987 -15.730764 4.1429014 11
0.2516222 -4.9079471 -0.22069313 2
0.26455596 -3.4780219 -0.20237432 1.5
0.25098825 1.5554563 -0.17093545 0
0.17290981 1.6704658 -0.16241154 0.66666669
0.17921038 2.674747 -0.15806048 2
0.38583133 5.0740914 0.18977454 4.5
0.3826457 5.080658 0.57175809 6.5
0.016597927 -15.522211 4.7224264 12
0.77193904 -8.1481066 -0.052049685 3
0.70765072 -3.6104472 -0.20069905 2
0.64066678 -3.1934524 -0.19379647 1
0.7062096 -2.5407004 -0.18639837 1
0.54855627 1.7171843 -0.15653737 1
0.6065889 2.6143768 -0.15285216 2
0.41026554 2.8007894 -0.15064603 2
0.62513113 4.8807135 0.28320447 5.1999998
0.6227504 4.8523207 0.55969423 6.5
1.0155894 -3.7197273 -0.19903579 2
0.90577179 -2.0791905 -0.17593689 1
0.87218696 1.8853053 -0.15701754 1
1.1126698 2.1232688 -0.156865 1
1.1808103 3.2877629 -0.14556882 2
1.1041626 4.5115805 -0.072649889 3
0.94068557 5.4769707 -0.091019772 3
1.1377952 3.6794739 0.21051383 5
1.1432348 5.3271904 0.21351334 4.3333335
1.101459 5.3399825 0.64406633 6.5
1.0035799 5.4383035 1.0060239 8.7777777
1.0315104 5.405417 1.7514757 12.666667
1.0440485 5.3844585 2.0168719 14
1.180838 -14.632763 8.9399529 20
1.0988489 -14.26869 9.3868608 21
1.4821627 -7.5795355 -0.18072169 3
1.4958097 -2.1205037 -0.17162395 1
1.5783604 -1.9372642 -0.16862893 1
1.2665873 -0.63730162 -0.1560013 0
1.3882589 1.0650272 -0.15285623 1
1.2197058 1.279622 -0.15475646 1
1.4077801 2.998559 -0.14795664 2
1.4142342 3.4735026 0.19539978 4.875
1.3424268 3.6616423 0.18413186 4.8571429
1.2479566 4.0977602 0.015317295 3
1.2431284 5.2468691 0.59153181 7
1.3216636 5.161562 0.97650754 9
1.2687371 5.2191038 1.1166341 9.5
1.3702164 5.313261 2.6917219 17
1.3317119 5.1265903 2.8999243 18
1.4695679 -14.289806 8.743083 20
1.3925943 -14.129756 9.0270185 20
1.3301024 -14.076203 9.3489733 21
1.54537 -13.87572 9.2930784 21
1.9359425 -4.6333303 -0.20583482 2
1.9213984 -3.5806749 -0.20101765 2
1.6320572 -1.8214422 -0.1666327 1
1.7747552 -0.89729309 -0.14845039 1
1.7556967 -0.69011378 -0.14409669 1
1.9474821 -0.073638 -0.13917693 1
1.7377501 0.084409215 -0.14379258 1
1.8210899 0.56181896 -0.1484219 1
1.8778577 1.7863128 -0.15086016 2
1.72417 2.4822154 -0.14918074 2
1.9168525 -6.2708707 0.19088358 4
1.6541121 3.1579452 0.19231074 5
1.624455 3.2488005 0.11119333 4.5
1.8880689 2.3460639 0.5530827 8.5
1.7342554 2.9859235 0.63257039 8.5
1.8617311 4.071166 3.3976803 23
1.8458334 -13.545399 5.4602242 15
1.9166054 -13.218293 6.1482306 16
2.1425986 -4.5335317 -0.19370578 2
2.1564121 -3.4314744 -0.19637752 2
2.3321068 -0.467987 -0.13676034 2
2.2818387 -0.34413946 -0.13389185 1
2.0236962 1.6729584 -0.14945601 2
2.2130663 3.0030684 -0.041049205 3
2.0766375 -6.2584653 0.24123979 4.5
2.004621 3.0251973 0.074532762 4
2.6123042 -3.5153701 -0.18951598 2
2.6108978 -3.0451341 -0.18460348 2
2.5714953 -2.5978889 -0.17772785 2
2.4892411 -2.2890387 -0.1708675 2
2.6938877 -0.95961654 -0.15516391 2
2.6234932 -0.72785711 -0.15184401 2
2.6453083 0.97953659 -0.14622077 2
2.5018034 2.2440569 -0.028488258 3
2.5716715 2.8620245 -0.1462218 2
2.4032753 3.5957432 -0.049569365 3
2.7454257 1.877105 0.13602822 4.6666665
2.6170366 2.043323 0.15979469 4.6666665
2.5919919 -15.658159 1.9949491 7
2.4940078 -15.731582 2.2583923 7.5
2.7328107 -15.346153 2.2990086 7.5
2.7731619 7.3078671 2.3626523 12
2.6088474 -15.463061 2.5649388 8
2.7418857 7.3185959 2.5205739 13
2.7111688 3.7171245 3.5738187 23
2.705344 -12.541106 7.7826738 20
2.4825139 -12.816994 8.1985531 20
2.5613909 -12.462003 8.1985655 20.5
2.6862202 -12.305011 8.2446346 21
3.0707824 -2.5314283 -0.17932953 2
2.9825382 -2.2375722 -0.16747381 2
3.1940854 -1.3206239 -0.15257145 2
2.9795229 1.8743502 -0.08630956 2.5
2.8384771 -6.8004231 0.024109509 3
2.9499481 -5.5588012 0.0030445622 3
2.9340327 -4.0042553 0.232821 5
3.0356164 -3.9569843 0.24264741 4.5
2.8242817 1.8489878 0.007508229 3
3.1180933 -14.967853 1.9392313 7
3.0435679 -15.057758 2.2841897 8
2.8131852 7.2568321 2.3478088 12
2.8946304 -15.051169 2.5020857 8
2.9080234 7.263473 2.4899886 12.5
2.9443672 7.1484785 2.8702333 14
3.08565 -12.078815 4.9158902 15
3.0974708 -11.809712 5.4098678 16
3.4816687 -4.2327175 -0.034687977 3
3.2142758 -0.15498009 -0.14713544 2
3.263941 0.068221018 -0.15123636 2
3.4005823 1.706383 -0.15156133 2
3.3187017 2.1944602 -0.15821983 2
3.2165673 -3.8905189 0.29703811 5
3.3223643 -3.8945386 0.4511283 6
3.3948758 -14.622464 1.9128898 7
3.341356 -14.598397 2.1443484 8
3.4711778 -14.474386 2.417429 8
3.3174942 -11.779979 4.5290265 14
3.30143 -11.801904 4.8220162 15
3.2602413 -11.664727 5.5544724 16
3.5543969 -11.487386 7.2751718 20
3.5202768 -11.316278 7.6891284 21
3.6463616 -4.0489345 -0.021570757 3
3.8400314 -2.5710652 -0.15164585 2
3.8311579 -2.1953468 -0.14773856 2
3.934725 -0.57893044 -0.14620791 2
3.9455004 -0.39213043 -0.14729173 2
3.6232085 -14.425565 1.8525343 7
3.707109 -14.177588 1.9285694 7
3.7664809 -14.136296 2.21611 8
3.7897246 -14.106361 3.0616238 9
3.8066146 -14.08929 3.3976345 10
3.8255112 -14.100223 3.7116501 11
3.7551618 -11.251463 7.1703019 20
3.9549258 -11.036535 7.0824347 20
3.7201102 -11.29337 7.4932775 20
3.6021507 -11.206286 7.7261791 21
3.8428473 -10.930366 7.6363358 21
4.3162665 -7.2893405 -0.17963392 3
4.3730464 1.1111921 -0.14185935 2
4.3874817 -13.405852 2.0690095 8
4.1397028 -10.795617 6.9775577 20
4.1679688 -10.588756 7.4210596 20.75
4.7326937 -4.7863536 0.1494935 4
4.5003238 -13.271856 2.2530849 8
4.5572977 -13.187907 2.1661217 8
4.5910492 -13.268723 2.8921564 9
4.6779246 -10.109605 4.3079329 14
4.6318789 -10.177492 4.6009002 15
4.6136675 -10.048836 5.1283736 16
4.5032558 -10.35778 6.8028102 20
4.5808921 -10.053158 7.3173475 21
4.8520799 -1.2108989 -0.10807943 3
4.867867 -0.97611386 -0.11314996 3
4.9436564 -0.75335699 -0.11816598 3
4.8229046 -10.217723 4.0720639 14
5.1352773 -9.5437965 4.4412746 15
5.1569824 -9.3956337 4.9962816 16
5.2832518 -1.5868797 -0.11355033 3
5.4086666 2.862535 -0.12423662 3
5.3030744 -9.3479023 4.3974066 15
5.2440281 -9.4247665 4.7003613 16
5.2618475 -9.2646961 4.9713626 16
5.3715153 24.060856 18.364983 23
5.3003492 24.058041 18.443838 23
5.842473 -5.8827724 -0.046368681 3
5.7448292 2.7195282 -0.12069271 3
5.7674623 -1.1602474 0.25877723 4.5
5.7898126 -1.2290508 0.47932175 5.5
5.7981586 -1.1380523 0.57479936 6
5.8468971 -8.6687756 4.2563429 15
5.6984549 -8.8500652 4.5787206 16
5.851263 -8.6801643 4.5528474 16
5.8001513 -8.627037 4.8507977 16
5.8280725 -8.6803389 9.3665791 25
5.7364078 -8.6177111 10.980741 28
5.8634701 23.962486 18.460651 23
6.2213979 1.227428 -0.091966443 3
6.1981297 -0.62997282 0.1479976 4
6.2290745 -11.225307 3.707371 12
6.3099413 -11.08933 3.791434 12
6.2951083 -8.0729485 4.572216 16
6.1826496 -8.4385252 9.1611385 25
6.3503947 -8.2795906 9.1382837 25
6.0547943 -8.546443 9.2715273 25
6.2630115 -8.1768322 9.3091965 25.333334
6.3709483 -7.8844519 9.523778 26
6.2370887 -7.9513726 9.6151562 26
6.475534 0.97450995 -0.084539086 3
6.4910374 -10.982638 3.1685898 11
6.6477456 -10.829618 3.4767218 11
6.5186214 -10.06565 3.5205541 12
6.6519661 -9.9022331 3.5266662 12
6.4663029 -10.91544 3.7250626 12
6.6176562 -10.743543 3.684689 12
6.6600003 -7.7471566 4.2225399 15.333333
6.5107713 -7.7883248 4.6189013 16
6.7793388 -7.445724 4.7096348 16.5
6.7827606 -7.4576578 4.8586397 17
6.5605216 -7.6974607 6.5387764 20.333334
6.6960044 -7.5598783 6.5095649 20
6.4891682 -8.0846663 9.0784035 25
6.6438575 -7.8259778 9.0760317 25
6.5712957 -7.6915307 9.4974546 26
6.6553855 -7.4865441 9.5425224 26
6.8707428 -5.6465874 -0.092402466 3
7.1264772 -5.3229065 -0.10318058 3
7.065114 -0.38576713 -0.043253914 3
6.9700108 -2.495146 0.17928959 4
6.8633127 -9.7174168 3.3848517 11.5
6.9434552 -7.4427624 4.2460423 15
6.8802276 -7.3323169 4.6612244 16
6.8953228 -7.4215393 6.3782449 20
7.0935326 -7.1661777 6.3399196 20
6.9171877 -7.3030219 6.4727588 20
7.0740967 -7.2339363 9.0069065 25
7.1026478 -7.0327215 9.5184221 26
7.4298902 -9.5912418 3.3033788 11
7.4872098 -9.6681232 3.6314373 12
7.2574363 -6.9602318 4.3310661 15
7.4581742 -6.7084002 4.3112445 15
7.248735 -6.901094 4.6385531 16
7.4789419 -6.6279521 4.6062598 16
7.2246461 -6.9149861 4.8380299 17
7.447844 -6.6509051 4.8302312 17
7.2199841 -7.2030277 8.9270449 25
7.274291 -7.0000548 8.9418354 25
7.5073953 -6.7371545 8.9552984 25
7.2469077 -6.8677912 9.4955521 26
7.4277639 -6.6648688 9.4918823 26
7.701952 -4.6456304 -0.14768156 3
7.7595215 -9.4003792 3.4491839 11.5
7.9971924 -9.0585203 3.5478959 12
7.7094612 -9.4102707 3.6426363 12
7.9267163 -9.1424255 3.6478319 12
7.7897453 -6.294683 4.2895412 15
7.8618031 -9.1470156 4.5257697 14
7.6497507 -6.4294448 4.5504141 16
7.7975578 -6.2545643 4.5475473 16
7.8018322 -6.2323985 4.88555 17
7.705297 -6.575758 8.9239788 25
7.9462342 -6.2943778 8.9216986 25
7.6182914 -6.4729543 9.4828873 26
7.7630515 -6.3070226 9.4755192 26
8.1600504 -5.5195069 -0.12715235 3
8.0106277 -4.2499976 -0.092422538 3
8.120245 -3.4015119 -0.079430059 3
8.2092419 -0.78914857 -0.089979127 3
8.1116028 4.8765707 -0.06487339 3
8.1464825 -8.949028 3.3680358 11.333333
8.3758898 -8.6693602 3.3927462 11.5
8.0740747 -8.9835367 3.6239674 12
8.2588816 -8.7776756 3.6191373 12
8.242301 -6.0035267 8.9189682 25
8.2352142 -5.9115138 8.956955 25
8.202055 -6.0112791 9.3519306 26
8.1898317 -5.8092241 9.4789038 26
8.757267 -8.161828 2.0255966 8
8.7179918 -8.1735544 2.5445588 10
8.4770575 -8.565156 2.9133399 10
8.5462151 -8.4585028 3.3789036 11.5
8.6918039 -8.2891073 3.3962884 11.5
8.4691372 -8.5198259 3.6423304 12
8.7823257 -8.1480875 3.6046212 12
8.6402044 -8.3757219 4.1174917 13
8.4661827 -8.5654268 4.4853306 14
8.6469927 -8.3515673 4.4644976 14
8.4584408 -5.7416325 8.9401627 25
8.5427256 -5.583652 8.9982338 25
8.4015713 -5.6373463 9.438097 26
8.5755157 -5.3445768 9.4989128 26
8.6828966 -5.1494203 9.588335 26
8.8414822 -8.0519686 -0.17332619 3
8.9875164 4.2777071 0.11372576 4
8.9819622 -7.8781128 0.51113796 4.6666665
9.1212997 -7.7317305 0.87426901 5.3333335
8.8905506 -8.0532541 1.3627228 7
9.0594053 -7.8464174 1.35588 7
8.8740358 5.8114958 1.4611551 7
8.8772926 -8.0250463 1.7957082 8
9.0139236 -7.8761649 1.7968366 7.5
9.0364733 5.1510878 1.8469977 8.5
9.0016317 5.4168954 1.7467021 8
8.8929243 5.8609853 1.9416294 8.5
8.9585304 6.1368351 1.9199332 8
8.893055 -8.0678415 2.2067261 9
9.0708904 -7.841011 2.1928916 9
9.020565 5.0769482 2.1580484 9.5
8.9342442 5.2292733 2.0107996 9
8.944253 5.7931299 2.0752625 9
8.8212481 6.0001163 2.0798986 9
9.062664 -7.7378745 2.5178785 9
9.1653957 -7.7357554 2.8679805 10
8.8893681 -8.0417871 3.3577218 11.5
9.0774117 -7.8239279 3.3826475 11.5
8.8512058 -8.0631046 3.6826849 12
9.0250196 -7.8562412 3.6908476 12
8.8270102 -8.1518707 4.0986652 13
9.1022272 -7.8190989 4.0754218 13
9.0352325 -4.7887578 4.3046465 15
8.8307991 -8.1437063 4.4506688 14
9.0930204 -7.8214183 4.4284129 14
8.925848 -4.9007583 4.9940495 16.5
9.051815 -4.7454638 4.8346581 17
8.8402805 -5.2757964 9.0285015 25
9.0726442 -5.0001469 9.0854568 25
8.8498249 -5.0735765 9.4544935 26
9.1328354 -4.7122045 9.5077372 26
8.8930368 -4.9075046 9.6375208 26
9.3625908 -7.4171133 0.6101597 5
9.4173813 5.079464 0.41051993 4
9.4573174 -7.3383598 0.93991655 5.6666665
9.2282591 -7.6325865 1.3470374 7
9.4895439 -7.320343 1.338281 7
9.3544025 -7.4660125 1.7386544 7.5
9.59167 -7.1607275 1.7723746 8
9.4400797 -7.3688869 2.1322351 8.5
9.316926 -7.4096165 2.5016146 9
9.5891838 -7.095366 2.4933691 9
9.5100737 -7.3220654 2.8533022 10
9.2131405 -7.6866212 3.2110252 11
9.3528786 -7.4746642 3.3844876 11.666667
9.3402147 -7.4815145 3.6606424 12
9.3744488 -7.4843268 4.0571761 13
9.8569384 4.1172252 -0.096146703 3
9.8573675 -6.8217549 0.37062004 4
9.9118595 3.451458 0.33692741 4
9.720644 -6.9974737 0.61582714 5
9.9481201 -6.725194 0.6477049 5
9.8320436 3.3745234 0.58864707 5.25
9.7517519 -6.9843264 0.93552423 5.6666665
9.938694 -6.8042884 1.3257005 7
9.7076054 -7.0418553 1.7299836 7.5
9.9623537 -6.7397366 1.7913872 7.6666665
9.7912693 -6.9457188 2.1335621 9
9.952117 -6.735868 2.1517096 9
9.763031 -6.8775339 2.4855301 9
9.9348793 -6.6617007 2.4816883 9
9.7742176 -6.9924693 3.0165479 10.5
9.7069731 -7.0514212 3.4749844 12
9.9772148 -6.7271562 3.478735 12
9.7612982 -6.979373 3.6567845 12
9.9679575 -6.7209392 3.8687258 13
9.7879572 -6.9632916 4.152894 13.333333
9.6432943 -4.0730524 4.7131634 16
9.6445131 -4.0593319 5.0681624 17
9.9057322 -3.8057156 10.187387 26
10.036795 -6.629478 0.29578745 4
10.277166 -6.327775 0.23900771 4
10.126488 -6.5133781 0.65236962 5
10.303857 -6.2955656 0.65803242 5
10.164101 -6.491745 0.94557256 5.6666665
10.259441 -6.368638 1.3149931 6
10.244089 4.164628 1.5112519 7
10.141754 -6.5182872 1.7238859 7.5
10.319115 -6.305964 1.7240487 7.5
10.29972 4.2044024 1.8317826 8
10.126957 -6.5310225 2.1748717 9
10.299803 -6.3251772 2.1970308 9
10.268302 4.4031839 2.1840894 9
10.302574 -6.2330494 2.4790275 9
10.114661 -6.5847807 3.0128632 10.5
10.361193 -6.2692671 3.009589 10.5
10.332879 -6.2864733 3.4880617 12
10.097356 -6.562571 3.8338454 12.5
10.338162 -6.2813029 3.7945666 12.5
10.092619 -6.6088448 4.2128429 13.5
10.739899 -5.7927933 0.20742972 4
10.484731 -6.0812545 0.6636976 5
10.667607 -5.865447 0.66886365 5
10.405599 -6.2010031 0.93712753 6
10.655404 -5.8787613 0.96285248 6
10.454308 -6.1638293 1.3131734 6
10.492267 -6.0959301 1.79654 7.6666665
10.678349 -5.8768268 1.7238754 7.5
10.469647 -6.1133323 2.2211852 9
10.672523 -5.8845482 2.1863704 8.5
10.482428 -6.0122252 2.4791908 9
10.452965 4.2674623 2.494406 10
10.547541 -6.0684319 3.0142603 10.5
10.707904 -5.8485937 3.0114033 10.5
10.522709 -6.0716352 3.4992366 12
10.694551 -5.8417964 3.5053895 12
10.667233 -5.9014759 3.9923675 13
10.671719 -5.0675821 4.2412972 14
10.704784 -2.772392 4.2069941 14
10.703507 -2.7541747 4.5239887 15
10.684179 -2.8408306 4.9589868 16
10.719895 -2.8066463 5.2660165 17
10.720675 -2.7405117 5.4870038 17
10.60259 -2.9938953 10.51994 26
10.818434 -5.6975384 0.78050035 5
10.934503 -5.5587802 0.58610392 5
11.014647 -5.4541202 1.0001744 6
11.169827 -5.28859 1.3048136 6
10.845163 -5.6809382 1.8200259 7.5
11.042532 -5.4381495 1.8093679 7.6666665
10.826346 -5.6996503 2.2725089 9
11.079832 -5.3555956 2.2560639 8.666667
10.973559 -5.4701824 2.4926357 9
10.891883 -5.6223741 2.8395674 10
11.147882 -5.3429384 3.9337981 12
11.180711 -5.1559424 4.053812 13
10.899093 -2.5487018 5.4331388 17
10.879161 -2.5333428 5.9291158 18
11.561602 -4.1072721 -0.15393725 3
11.307958 -5.1408992 1.0309364 6
11.202534 -5.2753825 1.6788452 7
11.380041 -5.0293803 1.7326632 7.3333335
11.386517 -4.974793 2.1759975 8.25
11.422807 -4.783268 2.3620121 9
11.245609 -5.1827164 2.849879 10
11.283055 -5.1683006 3.5579154 12
11.422189 -1.880981 4.3554964 14
11.400917 -1.8997306 4.6694803 15
11.454289 -1.9162393 5.3630366 16.5
11.295092 -2.0368967 5.665411 17
11.487902 -1.7870239 5.7305374 17
11.447042 -1.7882016 6.1349969 18
11.566693 -1.814187 10.927624 26
11.712037 2.9020629 -0.067275472 3
11.958969 3.2297254 0.93777776 5
11.919544 3.1201298 1.2998064 6
11.91361 3.2070436 1.2457447 6
11.691924 3.1527038 1.819046 7.5
11.637733 3.3068218 1.9883883 8
11.668418 -4.6861115 2.0972443 8
11.735408 3.338042 2.2854717 9
11.676111 -4.6338978 2.4672465 9
11.791969 3.1564534 2.6756499 10
11.834975 3.4493229 2.6825049 10
11.626342 -4.7350755 2.8672092 10
11.69486 -1.8902866 4.1312666 13
11.673247 -1.6784933 5.27669 16
11.684927 -1.6712419 5.6227007 17
11.677716 -1.5291514 5.7956538 17
11.717324 -1.7074555 10.682746 25
12.061199 3.1805184 0.74091685 5
12.288097 2.7115247 1.7194421 7
12.240731 2.3739841 2.0405884 8
12.1247 2.5894415 2.1723444 8.5
12.04954 2.8510151 2.1981108 8.5
12.185083 2.5569615 2.6244268 9.5
12.10598 2.9014347 2.7071395 10
12.437091 2.4295893 1.732759 7
12.730702 -3.0981004 4.5530534 13
12.77806 -2.7372224 4.5860276 13
13.131139 -2.9262333 3.3434143 11
12.958842 -3.1867266 3.7942953 12
12.912626 -3.2204988 4.0652547 12
12.801156 -2.8832316 4.521081 13
12.856509 -2.5178568 4.5585585 13
13.488641 2.2895935 2.2359145 8
13.407629 2.4455769 2.2457478 8
13.222336 2.3949111 2.4955854 9
13.805406 2.4969344 0.64712614 5
13.797514 2.3377285 1.4542038 6
13.849482 2.4426956 1.4962009 6
13.636024 2.3252027 1.8930457 7
13.80785 -1.858811 2.2558367 8
13.843454 -2.0594039 2.7149224 9
13.871417 -1.734557 2.7028675 9
13.730783 -2.1981225 2.9393454 9.5
13.814311 -1.8663673 2.8448453 9
13.841787 -1.846965 3.4068675 10
14.153696 2.3695977 0.38954973 4
14.243388 2.2308621 0.66471326 5
14.165553 2.2436678 0.9751274 5
14.363384 2.7327516 5.311573 14
14.304125 2.9829054 5.5333734 14
14.306438 3.2035787 5.2492495 14
14.600684 2.1135104 0.39913538 4
14.463818 2.9171844 0.37257129 4
14.422486 2.1185689 1.5079528 6
14.566247 2.1236129 2.2090969 7.5
14.519523 2.2892587 2.4239657 8
14.500206 2.8409855 4.5736527 12
14.540738 2.7313886 5.0057545 13
14.466408 2.895638 5.2985892 14
17.922005 0.94010496 0.044987004 3
