# .PCD v0.7 - Point Cloud Data file format
VERSION 0.7
FIELDS x y z intensity
SIZE 4 4 4 4
TYPE F F F F
COUNT 1 1 1 1
WIDTH 113
HEIGHT 1
VIEWPOINT 0 0 0 1 0 0 0
POINTS 113
DATA ascii
-41.884251 -51.883179 13.622327 9
-41.939491 -51.761814 14.677897 10
-21.24309 14.819895 15.935613 20
-20.996668 12.086046 2.799998 7
-20.813675 12.185307 3.4003544 8
-20.758791 19.738684 22.200443 23
-20.387339 15.591598 14.788087 19
-17.954445 21.081507 29.216047 28
-8.7019091 -13.01104 0.34315512 4
-8.1730413 4.287014 0.14989348 4
-5.0304585 -1.0833663 0.16679488 4
-4.925992 -1.18007 0.25212458 5
-4.8302217 -1.4336121 0.46961939 6
-4.4787149 -2.1126924 0.053259309 3.5
-4.5551581 -1.6455182 0.079969123 3.5
-4.4529562 -2.0704851 0.36125714 6
-4.4760098 -1.770586 0.25680077 5
-1.2354406 3.3533928 0.29949808 6
-1.2880989 3.2704875 0.45242268 7
-1.0779828 1.5028921 -0.079086751 2
-1.0422395 1.5121146 0.049517803 4
-1.0093303 1.5663917 0.2201004 7
-1.1008371 1.2847362 0.65188777 15
-0.98376209 1.5219768 -0.14181076 1
-0.81003535 4.1780591 3.3548965 23
-0.93727285 -13.473646 14.973667 28
-0.94874746 -13.415396 15.08047 29
-0.64215839 1.9623324 0.5489769 11
-0.37353224 -4.3748884 0.21390669 5
-0.28257683 2.1574731 0.27080092 7
-0.32375211 1.9979577 0.80882245 15
-0.10143525 -4.3447227 0.38176134 6
-0.098532632 2.1881344 0.23523812 6.5
0.15837915 -4.3678751 0.23446183 5
0.15496372 1.3784735 0.34865293 10.5
0.1326894 1.2881007 0.52268898 14.5
0.082122408 3.6477497 3.5323176 26
0.29059198 3.5281949 2.803854 23
0.65278476 2.4141219 0.050651781 4
0.71823102 2.2618423 0.29843003 7
0.67795438 -13.737719 15.404671 29
0.84968036 2.2193878 0.25371161 6.5
1.0909986 -5.2442751 1.0580484 9
1.7942615 2.4747896 0.21429026 5
1.7649617 -9.7085238 9.3467474 26
1.8318276 2.7949417 0.3740474 7
1.9503742 4.2217484 2.7909138 19
1.9130883 -9.3906536 10.784968 29
2.3485198 -9.0997124 6.9850545 23
2.5142894 -9.0833588 10.445009 28
2.5385582 -8.7565613 10.805299 29
2.7692556 4.8721728 1.3663421 10
2.7883484 4.8581963 1.4003748 11
2.9607694 -2.4409926 0.081735998 4
2.8127859 -2.0569546 0.3540487 6
2.8150387 -2.0970297 0.51901937 8
2.8935611 -1.9345467 0.73012143 9.5
2.9016435 -8.5952339 6.2903228 22
2.9180095 -8.5445671 6.760365 23
3.861274 -10.205867 2.2215815 9
3.9232883 -10.17098 2.3525987 10
3.9074478 -10.286935 3.7104959 13
3.8207605 -7.718936 4.4078951 18
3.8591323 -7.6651597 6.3299389 22
3.9310334 -7.5932341 6.4759917 23
4.0045142 -10.175137 3.9745765 14
4.1089253 -7.4488716 4.3410945 17
4.551837 -9.6686096 3.0539365 12
4.7367988 -9.4192152 0.85713857 6
4.7614388 -9.4557867 1.7301005 8
4.7647939 -6.8565664 3.9895573 17
4.6849461 -7.0567803 9.5253801 29
4.821136 -9.3448038 0.17219514 4
4.9708419 -9.2486334 1.4242636 7
4.825458 -7.1386008 9.1852856 28
5.0522099 -9.1572447 0.7713387 5
5.3401213 -6.3104897 4.1670222 17
5.282445 -6.2951703 4.5380421 18.5
5.3934035 -6.6241269 9.0517225 28
6.1434999 -5.5651307 4.1406913 17
6.1654797 -5.4582348 4.5207915 18
6.1346531 -5.4923053 4.6397605 19
6.7838511 -7.5633559 0.70973653 5
6.7971725 -7.5766363 1.2767234 7
6.973639 3.7090094 0.74552894 6
6.8567243 3.7794683 2.2204835 12
7.1548405 2.4843583 0.48364377 5
7.1441197 -7.1933665 0.82508832 6
7.0383139 3.8091519 1.0745304 7
7.1876583 3.3761258 1.7886266 10
7.0351419 3.4502182 1.983582 11
7.1528296 -7.2099595 2.1100726 9
7.2302003 2.3663812 0.92664808 7
7.2393756 -7.1767058 1.5541028 8
7.387342 -6.9719548 2.242301 10
7.5238571 1.9590887 0.47863629 5
7.4628286 2.2472978 0.81866789 6
7.8936849 -6.6251726 3.0356359 12
7.8858643 -3.8611906 4.8452387 18
8.0843744 -6.4562144 3.330801 13
8.6368113 -5.9607677 2.7552824 11
9.0041351 -5.4908428 3.7457349 14
9.1749382 -2.6552022 4.9952431 18
9.7049093 1.2427619 1.2495719 7
9.6168098 1.2637904 1.4475772 8
9.7592087 -2.1196404 4.1676488 15
10.040899 -4.6913366 3.7934871 13
10.69389 -3.9266233 2.8411715 11
10.604425 -4.1568494 3.2289693 12
10.640372 -3.9869506 4.2401195 14
18.267668 -3.7414801 3.7023492 9
18.524624 -3.6605134 4.5124159 10
18.515907 3.5699487 17.846771 26
