# .PCD v0.7 - Point Cloud Data file format
VERSION 0.7
FIELDS x y z intensity
SIZE 4 4 4 4
TYPE F F F F
COUNT 1 1 1 1
WIDTH 262
HEIGHT 1
VIEWPOINT 0 0 0 1 0 0 0
POINTS 262
DATA ascii
-3.1303926 -0.78317714 0.89743912 11.5
-3.0548954 -1.1253866 1.3730453 15
-3.1399403 -0.72694224 1.3099239 15
-3.006094 -1.4866663 2.0591614 20
-3.065062 -0.89048588 2.3419833 22
-2.8343692 -1.0139638 0.11008246 4.5
-2.9707732 -0.70404917 0.22596841 5
-2.8935723 -0.60811621 0.53497052 9
-2.923382 -1.880077 1.6683139 17
-2.9231205 -1.9180501 1.9263271 18
-2.9800749 -1.5957874 1.9032032 19
-2.8730764 -2.0333261 2.1103837 19.5
-2.9273412 -1.8016897 2.3012865 21
-2.8082943 -0.5888226 2.3369915 24
-2.7272155 -0.49976474 0.1119969 4
-2.6982529 -2.1185479 2.3294747 21
-2.6316035 -1.5469103 2.3322992 23
-2.6786141 -1.0781717 2.3371463 24
-2.7210271 1.1044848 2.4588046 24
-2.4700899 -2.1227639 2.3335567 22
-2.4461472 -2.1185355 2.4085636 23
-2.5762076 -1.4862874 2.5292978 24
-2.5711401 -1.0211799 2.5141635 25
-2.3118725 1.5712298 2.3579164 24
-2.3215647 -1.9732553 2.5375528 24
-2.3669505 -1.7271804 2.5264468 25
-2.3213344 -1.0614421 2.5187504 26.5
-2.2534451 -0.72812796 2.5281854 28
-2.3121464 1.2897097 2.55393 26
-2.3207102 1.4950502 2.4659169 25
-2.0276456 0.61504018 2.3780615 29
-2.1859508 0.96078748 2.3769894 27
-2.1627972 0.90786618 2.5440001 28
-2.0202785 1.543107 2.5620198 27
-1.9372172 0.5024308 2.5450976 31
-1.6314763 -0.6372447 0.16834535 6
-1.6389462 -0.64478719 0.25084502 7.5
-1.606191 2.0582342 2.3581476 25
-1.7532294 -1.2525524 2.5374873 29
-1.5570855 0.45223147 0.011222721 3
-1.5906965 -1.0016435 0.50345761 11
-1.58403 -0.96350569 0.52444804 12
-1.5993406 -0.21377786 0.47127211 12
-1.5791231 -1.2642062 2.544549 30
-1.4709426 1.5715146 2.5732172 30
-1.2942766 0.65253031 0.021305248 4
-1.2089924 -1.0764124 0.27060568 8.5
-1.3242787 -1.3453321 2.383667 30
-1.0513874 -0.85543793 -0.053919431 2
-1.0619925 -0.84895223 0.086575069 5
-1.0446217 -0.90379339 0.35059911 10.5
-1.0349642 0.77855641 0.32539934 11
-1.0395161 -0.9214676 0.49210718 13.5
-1.1814271 -1.6254162 2.3838356 29
-1.1524391 1.932556 2.5713196 29
-1.1826534 2.0014369 2.4923048 28
-0.83267242 -1.0027952 0.074707009 5
-0.84217572 0.87737358 0.3042247 10.75
-0.9277333 0.83235192 0.52594084 15.5
-0.91922188 0.82842165 0.63444424 17.5
-0.82832491 -1.891283 2.388109 29
-0.80059397 -1.9609569 2.5471561 30
-0.71689761 0.91707307 0.051525276 4.5
-0.79623771 0.88713223 0.21249318 9
-0.63510054 -0.63800436 0.90697116 27
-0.64556462 2.1017895 2.462492 29
-0.43182886 -1.3652526 0.023033842 4
-0.42666614 -1.0170584 0.094867662 6
-0.44795531 -0.99123245 0.15184692 7
-0.42194942 -0.69978237 0.27072871 13
-0.53739142 0.90586925 0.29993364 11.666667
-0.48087785 -0.69021797 0.4898718 19.5
-0.54310906 0.89753264 0.44959807 15.5
-0.50245482 -0.64796764 0.66834897 24
-0.45410839 -0.58479315 0.72467405 27
-0.41143429 3.1414988 1.5724769 17
-0.28446656 1.518612 -0.025336374 3
-0.37766227 -0.83245832 0.18080223 9
-0.3439438 0.94068706 0.093013905 6
-0.3132318 -0.83525944 0.24882933 11.5
-0.3208307 0.9499653 0.23468979 10.5
-0.32337064 0.94548947 0.4301891 15.5
-0.32658008 -0.63463795 0.67806745 26
-0.37835521 -0.57509184 0.71969342 28
-0.39630604 3.1334889 1.1304824 14
-0.37521723 3.1046121 1.6884913 18
-0.37211862 3.0277009 2.382499 23
-0.010091232 1.5709624 -0.06391637 2
-0.060235303 -0.56435764 0.051130921 6.1666665
-0.0070539243 1.5573118 0.034752626 4
-0.042684544 -0.61235869 0.28316265 16
-0.058418073 -0.62098569 0.53857797 24.25
-0.095795937 -0.53965855 0.55227309 27
-0.15579668 -3.0709882 0.68407404 10
-0.1408581 2.9801099 0.87657189 12
-0.10275859 3.0062068 0.97358 13
-0.050809335 3.1213465 1.2355831 15
-0.1369819 2.9902503 2.0975721 22
-0.1038839 3.014317 2.0405786 21
0.080861911 3.113512 0.2656194 6
0.088162288 3.1325493 0.50661939 8
0.084842578 3.11356 0.67862052 10
0.026484571 3.1335175 1.3806028 16
0.12702964 3.0797143 1.5026351 17
0.076044858 2.9696333 1.6166327 18
0.13251036 2.4147739 2.1967049 25
0.19799492 2.7698824 2.1606853 23
0.16631457 2.3483331 2.3332207 26.5
0.062580958 2.2296772 2.4097047 28
0.3454358 -1.4462004 0.31949627 9.5
0.38881719 -1.3190218 0.36945269 11
0.33006781 -1.4218464 0.4184736 12
0.27283397 -1.0924826 0.48725748 15
0.30988652 -2.9702394 0.71230048 10
0.2949571 -2.9823794 0.8062979 11
0.2851094 2.9328961 0.8106904 11
0.31809708 2.1169963 2.3237841 28
0.35443899 -2.4285486 2.5540366 27
0.25168377 -2.296875 2.5449023 28
0.48685998 -1.3803918 -0.021452699 2.5
0.58711559 1.048956 -0.055540159 1.5
0.47076222 -1.3592862 0.10452562 5.5
0.5772047 1.0564758 0.043624006 4.3333335
0.51776582 2.8876102 0.10675 4.5
0.43161005 -1.3359894 0.25798842 9
0.40418509 -1.2737234 0.4734371 13
0.56596094 2.8682125 0.93026286 12.5
0.49689999 2.9716814 1.1627365 14.5
0.51712412 2.9062164 1.4717482 17
0.578493 1.8740542 2.1638696 28.5
0.55986041 2.8682897 2.0442612 21.5
0.50917459 -2.5016119 2.3591733 25.5
0.57630938 -2.3905611 2.5441566 27
0.61279345 1.0344132 -0.11303436 0
0.67447966 0.92095029 0.12273607 6.5
0.70856261 0.87132877 0.27924517 10.5
0.72560412 -2.7631273 1.6869539 19.5
0.76264578 -2.7314634 1.9334611 21.5
0.63597137 1.9800963 2.15187 27
0.78464061 -2.700968 2.2424591 23
0.94730604 -1.8455343 -0.10789735 2
0.94031614 -1.8525627 0.025101868 3.5
0.98308468 0.47856516 0.31402752 12
0.82739484 0.70403194 0.27101815 10.5
0.95269829 1.197145 1.245993 24
0.94764775 1.2071675 1.2129918 23
0.96677172 -2.6558254 1.4855548 18
0.88261271 1.2928869 1.5379778 26.5
0.85877925 1.6923217 2.1594374 28.5
0.88717866 2.4983008 2.135864 23.5
0.87452638 -2.6046023 2.3464663 24
0.92776841 -2.3797112 2.3613799 26
1.082203 0.28371185 -0.048483253 2
1.0172545 0.43886673 0.12502617 6.5
1.1087247 0.30317104 0.35351628 12
1.0811003 0.34713018 0.48552006 15.5
1.0345366 0.36152312 0.92802352 24.5
1.1431688 0.92727172 0.90501958 19.5
1.1079662 -2.4749668 1.0015521 14
1.1309469 0.22528416 1.0550091 25.5
1.0960327 1.0375992 1.0953465 22
1.1505849 -2.4531469 1.2995692 17
1.1732544 0.93019736 1.3475201 25.5
1.1484052 0.27287009 1.4140115 29.5
1.1331424 0.93028945 1.448019 27
1.062771 3.5366821 1.7387937 16
1.0960846 -2.5256176 1.9295716 22
1.1587807 2.8784263 1.944873 20
1.1852397 -2.4581368 2.1295958 23
1.3645906 -0.16814812 0.34793067 10.5
1.273778 0.071101122 0.26697925 9.666667
1.2429632 0.2240431 0.29599977 10
1.2687457 -2.3447356 0.59159106 10
1.2311317 0.073027059 0.53348398 15.5
1.3399352 2.7126844 0.44041386 7.5
1.2945868 -2.3362496 0.73960429 11
1.2961891 -0.076198891 0.74345475 18.5
1.2467403 0.81676894 0.77502292 18
1.2685941 2.74225 0.63190174 9
1.2642608 2.865329 0.71689004 10
1.2203083 -2.4063282 0.88859135 13
1.3512951 -2.3192232 0.99263412 14
1.3157117 -0.06623438 0.89295453 21.5
1.2317561 0.7987591 0.84102303 19
1.2015492 0.84895402 0.91202253 20
1.2815428 2.7782729 0.81590021 11
1.267099 -2.3974512 1.1721185 15.5
1.233103 0.15977372 1.0559942 24
1.2249705 0.25412694 1.045004 24
1.2569307 0.75757831 1.1090231 23
1.2828562 0.80664396 1.0040225 21
1.337216 0.10125384 1.331977 27
1.3330553 0.26484105 1.3319961 27
1.2959923 0.76999909 1.3780224 25.5
1.3893844 2.5960932 1.29993 16
1.222351 -2.4389095 1.5716108 19
1.3462404 -0.15470216 1.4489355 28
1.2452193 0.061851196 1.4174806 29
1.2519872 0.27609551 1.4130038 28
1.345441 0.62094587 1.450018 27
1.2061303 -2.4290624 1.7035942 20
1.2320346 2.8894038 1.8438834 19
1.2955495 2.3940349 2.1839352 24
1.3258172 -1.6748511 2.5622683 29
1.3745282 -1.4347045 2.5081699 30
1.5899838 -0.66579556 0.13178805 6
1.4931307 -0.014438206 0.18294339 7
1.5860902 -0.63973826 0.30179542 8.5
1.4389721 -0.24608843 0.20690651 7
1.5638822 -0.5494442 0.5243215 12.5
1.5159091 -0.30553883 0.55388486 14
1.4519495 -0.30505469 0.67522591 16
1.441237 2.7291446 0.91092551 12
1.4403675 2.6746087 1.1024295 13.5
1.547444 -0.5796414 1.3998158 24
1.5242211 -0.09895616 1.3259252 25
1.4584196 2.6771014 1.2629319 15
1.5205141 -0.55850869 1.4238245 25
1.4654784 -0.34868366 1.4383814 26.5
1.4482484 -0.084715746 1.4099364 26
1.4614382 2.6701033 1.5809325 18
1.4452533 -0.14897871 1.7329249 30
1.5533072 2.452816 1.7309591 19
1.5193207 2.5954955 1.9379449 20.5
1.4300439 2.3888993 2.1659513 23
1.5269511 2.5529542 2.177949 22
1.4879496 -1.7424985 2.3774168 27
1.5923617 -1.4132038 2.378309 28
1.4924175 -1.3230222 2.5691895 30.5
1.5854406 -0.93496251 2.4247134 31
1.648676 -1.011851 -0.076316893 2
1.6579936 -1.0229397 0.10001204 4.6666665
1.6411155 -0.90859324 0.058714285 4
1.6010484 -0.64678168 0.20179179 7
1.7460014 -0.95610887 0.57868838 12
1.7463343 -0.87291062 0.73571217 14
1.6029892 -0.70609587 0.97377563 19
1.7210822 -1.193722 1.0356197 17
1.6848028 -1.0413058 1.3436702 21
1.6171237 -0.6761027 1.3182819 22.5
1.6685796 -0.50069398 1.3168212 23
1.6319494 -1.0110955 1.419685 22
1.6207145 2.577862 1.5594567 17.5
1.6154698 -1.993868 2.3726418 26
1.7059755 -1.0435746 2.3806667 30
1.6541095 -0.73456621 2.3837619 31
1.7659353 -0.38573036 2.383837 31
1.7714238 -1.9102252 2.4077058 26
1.8764629 -2.5800483 1.6421394 17.5
1.9485134 -0.88779926 2.3756847 28
1.923458 -0.57878023 2.3797717 29
2.0961719 -2.1042707 0.98703897 13
2.0616083 -2.0434494 2.165482 22.5
2.1980219 -1.678468 2.1224146 23
2.0482879 -0.9361698 2.1656597 26
2.091742 -1.637099 2.3339391 25
2.1265965 -1.3535262 2.2625253 25
2.0493648 -0.91813415 2.243665 27
2.2789595 -2.5614729 1.9774137 19
2.2780352 -1.9834504 1.9691027 21
2.2402601 -2.520896 2.1743641 20
2.2038114 -1.9083742 2.1720095 22
