# .PCD v0.7 - Point Cloud Data file format
VERSION 0.7
FIELDS x y z intensity
SIZE 4 4 4 4
TYPE F F F F
COUNT 1 1 1 1
WIDTH 1390
HEIGHT 1
VIEWPOINT 0 0 0 1 0 0 0
POINTS 1390
DATA ascii
-1.7483226 1.2542847 -0.20532265 0
-1.6345062 1.2691939 -0.20591825 0
-1.5298475 1.236329 -0.20648701 0
-1.4260675 1.2496761 -0.20602058 0
-1.3242836 1.2486615 -0.20509805 0
-1.2328 1.2190993 -0.20338586 0
-1.1518937 1.2436237 -0.20285304 0
-1.1 1.2869999 -0.204 0
1.186 1.293 -0.204 0
1.2467138 1.2543806 -0.20388071 0
1.3255379 1.2225847 -0.20340012 0
1.4371271 1.2529283 -0.2042668 0
1.5411496 1.2601182 -0.20449206 0
1.6438361 1.2488607 -0.20448965 0
1.7273772 1.2000886 -0.20258033 0
1.8384728 1.2542161 -0.20532537 0
1.9739586 1.2281027 -0.20772696 0
2.0391898 1.2770793 -0.20886429 0
-2.0109999 1.318 -0.204 0
-1.9122907 1.3864963 -0.206 0
-1.8670324 1.3346373 -0.20590575 0
-1.751626 1.3704162 -0.20793088 0
-1.6666595 1.3469614 -0.2081383 0
-1.573487 1.343679 -0.20819482 0
-1.4684774 1.3497933 -0.2079827 0
-1.3604002 1.3462977 -0.20615758 0
-1.2614346 1.3414217 -0.20549472 0
-1.1574265 1.3545839 -0.20549053 0
-1.0650001 1.342 -0.20449999 0
1.1555001 1.3545001 -0.205 0
1.2459497 1.3578706 -0.20525579 0
1.3560672 1.3437123 -0.20504753 0
1.4536136 1.340754 -0.20520034 0
1.5422602 1.3561465 -0.20580234 0
1.6447099 1.3458067 -0.20612007 0
1.735044 1.3527673 -0.2062705 0
1.8259542 1.3559203 -0.20667116 0
1.9648241 1.3333569 -0.20793362 0
2.0260789 1.3993595 -0.20544459 0
2.1629567 1.3449461 -0.2088607 0
-1.9351983 1.4506522 -0.20595054 0
-1.8557466 1.4541736 -0.2101301 0
-1.7517188 1.4644048 -0.20945041 0
-1.6173916 1.4488636 -0.2110448 0
-1.5197089 1.4349039 -0.20899512 0
-1.441052 1.4613864 -0.20822337 0
-1.3356045 1.44282 -0.20777123 0
-1.2491329 1.4573365 -0.20847633 0
-1.1499939 1.4477911 -0.20725477 0
-1.007 1.438 -0.205 0
-0.98299998 1.478 -0.206 0
1.097 1.454 -0.207 0
1.1502531 1.4508539 -0.2075882 0
1.2415526 1.4534833 -0.20706996 0
1.3525959 1.4499108 -0.20696707 0
1.4559957 1.4439957 -0.2062474 0
1.5563297 1.4466944 -0.20686495 0
1.6731403 1.4717196 -0.2077035 0
1.7772994 1.4552363 -0.2079841 0
1.8645763 1.4366534 -0.2077229 0
1.911 1.42 -0.208 0
2.0840001 1.438 -0.206 0
-2.9526863 1.5738275 -0.2036825 0
-1.918 1.521 -0.2115 0
-1.8617843 1.5798813 -0.21210045 0
-1.7695956 1.5364668 -0.21511173 0
-1.6499925 1.5590655 -0.21159315 0
-1.5518005 1.5370953 -0.21031515 0
-1.433573 1.5618114 -0.21089774 0
-1.3500018 1.5391753 -0.2106811 0
-1.2340639 1.554127 -0.20994267 0
-1.13884 1.5454319 -0.209034 0
-1.0465794 1.5327134 -0.20774856 0
-0.92900002 1.552 -0.207 0
1.0385001 1.562 -0.2095 0
1.1501387 1.523003 -0.20828977 0
1.2306744 1.5509607 -0.20890427 0
1.355796 1.5506295 -0.20969865 0
1.4338773 1.5392348 -0.20900433 0
1.5302451 1.5528988 -0.20768216 0
1.6324159 1.5418539 -0.2083905 0
1.7557902 1.5632532 -0.20882705 0
1.8326066 1.5376718 -0.20949414 0
-3.1055579 1.6604822 -0.20204751 0
-3.0417442 1.6243095 -0.20273001 0
-1.89 1.6390001 -0.21799999 0
-1.7663515 1.630805 -0.21327904 0
-1.6794007 1.6642938 -0.21308687 0
-1.5582391 1.6314954 -0.21198298 0
-1.4700027 1.674763 -0.21427165 0
-1.3545914 1.6343833 -0.21262746 0
-1.276722 1.6470156 -0.21198949 0
-1.1642282 1.6605341 -0.21185987 0
-1.0844984 1.6284977 -0.21042098 0
-0.97602999 1.629378 -0.20916772 0
-0.86049998 1.6559999 -0.2085 0
0.98399997 1.6470001 -0.21149999 0
1.074077 1.6549811 -0.21134293 0
1.1255168 1.6473374 -0.21081257 0
1.2714672 1.6405662 -0.21069926 0
1.3552458 1.6648761 -0.21113321 0
1.4752957 1.6341432 -0.21118963 0
1.5523385 1.6657171 -0.21089454 0
1.6543885 1.6402072 -0.20896292 0
1.7460001 1.649 -0.20999999 0
1.959 1.653 -0.205 0
-1.838925 1.7529678 -0.21562916 0
-1.7432009 1.7278931 -0.21447273 0
-1.6166167 1.7617981 -0.21593639 0
-1.5466706 1.740097 -0.2155059 0
-1.4186723 1.7429845 -0.21528645 0
-1.3598678 1.7538965 -0.21461055 0
-1.2166376 1.7347122 -0.21414649 0
-1.1606221 1.7413709 -0.21373671 0
-1.0465748 1.7454448 -0.21241929 0
-0.93907118 1.7528883 -0.21131849 0
-0.88697016 1.752773 -0.21067177 0
-0.778 1.744 -0.20900001 0
0.91100001 1.7539999 -0.214 0
1.050786 1.7398796 -0.21255654 0
1.1461923 1.7629528 -0.21335733 0
1.2000337 1.753675 -0.21262515 0
1.3559265 1.7615219 -0.21282999 0
1.4540174 1.7420161 -0.21264617 0
1.543149 1.7605187 -0.2139366 0
1.6269375 1.7448498 -0.21210127 0
1.7401329 1.7281328 -0.20913693 0
1.8032745 1.7912744 -0.20977905 0
1.962 1.738 -0.20900001 0
-1.7770103 1.8471988 -0.21685514 0
-1.673161 1.8383236 -0.21817014 0
-1.5552275 1.8576949 -0.21868646 0
-1.4594822 1.8369629 -0.21719956 0
-1.3214564 1.8830683 -0.21871974 0
-1.2528965 1.8315673 -0.21674278 0
-1.1171198 1.8615117 -0.21567085 0
-1.0041424 1.8717767 -0.21463698 0
-0.92694032 1.8275461 -0.21234351 0
-0.83233392 1.8574977 -0.21117336 0
-0.713 1.826 -0.20999999 0
-0.676 1.8609999 -0.20999999 0
0.82350004 1.8445001 -0.214 0
0.95211828 1.8287472 -0.21488111 0
1.0585263 1.814374 -0.21447919 0
1.1214422 1.8700066 -0.2145744 0
1.255803 1.8636497 -0.21474905 0
1.4329345 1.8456324 -0.2143985 0
1.5215552 1.866533 -0.21498311 0
1.6493801 1.8305203 -0.21482143 0
1.7172692 1.8763795 -0.2126568 0
1.825 1.813 -0.20999999 0
1.946 1.808 -0.211 0
2.0095909 1.866567 -0.20346428 0
-1.7470455 1.9399073 -0.22163975 0
-1.6667049 1.934279 -0.22101009 0
-1.5905085 1.9534767 -0.22092968 0
-1.498444 1.9320313 -0.21897897 0
-1.374933 1.9546232 -0.22000319 0
-1.2874953 1.9294931 -0.21926296 0
-1.1641498 1.9388897 -0.21783857 0
-1.0272019 1.9640639 -0.21626815 0
-0.96691042 1.9023192 -0.21401528 0
-0.88666797 1.9709952 -0.21334672 0
-0.73985505 1.9418899 -0.213057 0
-0.63816398 1.9474648 -0.21220107 0
-0.56 1.969 -0.20999999 0
0.86012959 1.9221904 -0.2148461 0
0.95482963 1.9430752 -0.21563786 0
1.0343549 1.9782414 -0.21664332 0
1.1672564 1.9443419 -0.21559921 0
1.2663848 1.9429057 -0.21671465 0
1.3490672 1.96635 -0.21625029 0
1.4689713 1.9370209 -0.21602842 0
1.5463333 1.9423332 -0.21633333 0
1.762 1.925 -0.213 0
-1.733 2.01 -0.223 0
-1.641773 2.0655451 -0.2230711 0
-1.5538745 2.0032852 -0.22072634 0
-1.4396445 2.0434399 -0.22202034 0
-1.3531876 2.0595124 -0.22250421 0
-1.2534631 2.0456376 -0.22072677 0
-1.0688773 2.04108 -0.21821019 0
-0.9228906 2.0466604 -0.21479562 0
-0.80225623 2.058974 -0.21655555 0
-0.73261786 2.0203915 -0.21523099 0
-0.66327906 2.0476804 -0.21520622 0
-0.54816031 2.0507352 -0.2126369 0
-0.45899999 2.0735002 -0.212 0
0.87709582 2.0171053 -0.21587095 0
0.93338883 2.0775712 -0.21653834 0
1.0754732 2.0529888 -0.21752442 0
1.1928157 2.035435 -0.21819797 0
1.2567575 2.039412 -0.21545506 0
1.3585819 2.0463324 -0.21830559 0
1.421 2.069 -0.21799999 0
-1.5238762 2.1633382 -0.22581716 0
-1.4592137 2.1304212 -0.22573704 0
-1.3394444 2.1658163 -0.22452614 0
-1.1406502 2.156122 -0.22158675 0
-1.0868208 2.1266384 -0.21903053 0
-0.97722459 2.1601579 -0.21696898 0
-0.83200836 2.136632 -0.21874073 0
-0.7572127 2.1426842 -0.2190394 0
-0.65071887 2.1430705 -0.21700649 0
-0.53152627 2.15804 -0.21594545 0
-0.45452723 2.1779201 -0.2150642 0
-0.37349999 2.1690001 -0.214 0
0.97001851 2.1552615 -0.21738443 0
1.1165915 2.1277359 -0.21840553 0
1.2599604 2.1459656 -0.22005737 0
1.3555274 2.1354439 -0.21833503 0
-1.6112154 2.2779126 -0.2269734 0
-1.5591816 2.2519534 -0.22845249 0
-1.4539213 2.2507067 -0.22819729 0
-1.3522696 2.2484014 -0.22650942 0
-1.2210463 2.2680712 -0.22569859 0
-1.003 2.214 -0.21799999 0
-0.856435 2.2539229 -0.22233446 0
-0.73113263 2.2474327 -0.22111839 0
-0.62942648 2.2185268 -0.21898459 0
-0.5518831 2.2425649 -0.21893299 0
-0.44384584 2.2487121 -0.21702489 0
-0.33363649 2.2519388 -0.21594797 0
-0.25600001 2.2869999 -0.21699999 0
0.32909745 2.2221334 -0.20824432 0
0.98373955 2.2467637 -0.21867736 0
1.0484123 2.2585545 -0.21816212 0
1.1743548 2.2327416 -0.21964332 0
1.294 2.2019999 -0.221 0
1.3739198 2.2268717 -0.21748009 0
1.404 2.2750001 -0.21799999 0
-1.456 2.3559999 -0.23050001 0
-1.3992995 2.3257794 -0.22867714 0
-1.2644272 2.3473301 -0.22791092 0
-0.83560157 2.3691804 -0.22643749 0
-0.75816578 2.3274159 -0.22352301 0
-0.64454484 2.3435667 -0.22320575 0
-0.54881215 2.3525701 -0.22270718 0
-0.45892259 2.350893 -0.2195998 0
-0.34590387 2.3387356 -0.21877237 0
-0.23504195 2.3467922 -0.21776578 0
-0.154 2.3729999 -0.21799999 0
0.26499999 2.358 -0.21950001 0
0.34200001 2.306 -0.22 0
1.0266438 2.3391581 -0.2198064 0
1.1049793 2.3767962 -0.21929725 0
-1.316404 2.4422946 -0.23056163 0
-0.815 2.4319999 -0.228 0
-0.77422333 2.4392159 -0.22561786 0
-0.66277349 2.4481015 -0.22677425 0
-0.54249167 2.4578905 -0.22577637 0
-0.47154886 2.4693348 -0.22168545 0
-0.35137591 2.4484036 -0.22215073 0
-0.23472591 2.448385 -0.22054483 0
-0.16388693 2.4487998 -0.21964781 0
0.2454751 2.4538162 -0.22 0
0.31271678 2.4500132 -0.22001797 0
1.14 2.45 -0.22 0
-0.72599757 2.5656145 -0.23148203 0
-0.65870243 2.5541945 -0.22995311 0
-0.56094277 2.5433607 -0.22883809 0
-0.46242604 2.5474768 -0.22439684 0
-0.34904695 2.5808616 -0.22601148 0
-0.25413078 2.5538697 -0.22408302 0
-0.17377387 2.5245996 -0.22129564 0
0.2519502 2.5276325 -0.22 0
0.33443359 2.5640264 -0.22103596 0
-0.64881206 2.64607 -0.23320717 0
-0.55092698 2.6504812 -0.23191729 0
-0.41636503 2.6173894 -0.22847965 0
-0.36030868 2.667577 -0.22876436 0
-0.26200774 2.6369932 -0.22661069 0
-0.1910695 2.6571996 -0.22417824 0
0.26121265 2.6332242 -0.22 0
0.35195571 2.6560175 -0.22185731 0
-0.63300002 2.7219999 -0.236 0
-0.57860887 2.7861805 -0.2367568 0
-0.43627456 2.7477062 -0.23282355 0
-0.32783106 2.7529068 -0.2311215 0
-0.24017495 2.7526555 -0.22930944 0
-1.9170001 2.8369999 -0.23800001 0
-0.45618406 2.8780231 -0.23716743 0
-0.3499161 2.8480039 -0.23413505 0
-2.020797 2.9859662 -0.23873746 0
-1.9688985 2.911483 -0.23836873 0
-1.8303196 2.9987717 -0.24070908 0
-1.7819999 2.9230001 -0.23999999 0
-0.46000001 2.9030001 -0.23800001 0
-0.39399999 2.927 -0.237 0
1.141 2.9289999 -0.228 0
-2.0726957 3.0604494 -0.23910619 0
-1.8786392 3.0745435 -0.24141818 0
-1.567 3.027 -0.243 0
-1.3585 3.0489998 -0.2405 0
1.1735727 3.0052199 -0.21627384 0
1.2061453 3.08144 -0.20454769 0
-2.1245942 3.1349325 -0.23947492 0
-1.9269589 3.150315 -0.24212727 0
-1.6293132 3.1453142 -0.23798257 0
-1.4515367 3.1575463 -0.23644668 0
-1.3611627 3.1453121 -0.24059293 0
1.6117966 3.1764896 -0.20489182 0
-2.2283912 3.2838988 -0.24021237 0
-2.1764927 3.2094157 -0.23984365 0
-1.9752785 3.2260866 -0.24283637 0
-1.6916265 3.2636285 -0.23296514 0
-1.5090731 3.2810926 -0.23289335 0
-1.3993255 3.226624 -0.24018586 0
1.5570214 3.2477953 -0.21600786 0
1.653 3.256 -0.219 0
-2.2802896 3.358382 -0.2405811 0
-2.0477581 3.3397441 -0.2439 0
-1.7331687 3.3425047 -0.22962019 0
-1.5474308 3.363457 -0.23052447 0
-1.4565697 3.3485923 -0.23957525 0
-2.3321881 3.4328651 -0.24094982 0
-2.1202376 3.4534018 -0.24496365 0
-1.7747109 3.4213808 -0.22627524 0
-1.5498011 3.4581909 -0.23356012 0
-2.4359853 3.5818315 -0.24168728 0
-2.3840868 3.5073483 -0.24131855 0
-2.1685572 3.5291734 -0.24567273 0
-1.8370242 3.539695 -0.22125779 0
-1.6241462 3.5281854 -0.2257867 0
-1.5519764 3.5518725 -0.23855758 0
-2.48 3.645 -0.242 0
-2.2379384 3.6379726 -0.24669091 0
-2.151 3.6860001 -0.25 0
-1.8993374 3.6580093 -0.21624036 0
-1.7008616 3.692914 -0.22104894 0
-1.6625038 3.6105497 -0.22341782 0
-1.5475696 3.6470923 -0.25007525 0
-2.1837871 3.7480297 -0.24350165 0
-1.9482932 3.750962 -0.21229847 0
-1.7392192 3.7752781 -0.21868005 0
-1.6473835 3.7551527 -0.23753992 0
-1.535017 3.7315052 -0.25804427 0
0.48708406 3.75037 -0.2101825 0
-2.2426453 3.8593826 -0.23183608 0
-1.7775769 3.8576424 -0.21631117 0
-1.698 3.8629999 -0.237 0
-1.5800426 3.8372629 -0.25211066 0
-1.8150001 3.938 -0.214 0
-1.629534 3.9535103 -0.24558854 0
1.6657195 -2.0282719 -0.11171938 0
3.686672 -2.0184512 -0.10993911 0
1.60618 -1.934068 -0.12142985 0
1.8730512 -1.9226618 -0.10270897 0
2.1691327 -1.92512 -0.11327022 0
2.2576497 -1.9336587 -0.10960017 0
2.3686116 -1.9605016 -0.11497515 0
2.4416826 -1.9401001 -0.13748258 0
2.5521622 -1.9141046 -0.14812434 0
2.6719999 -1.91 -0.15099999 0
3.0346751 -1.9401292 -0.10142076 0
3.1696918 -1.9128854 -0.11893871 0
3.2561436 -1.9409295 -0.10606104 0
3.3878031 -1.939683 -0.10659077 0
3.4405723 -1.9077098 -0.12870124 0
3.535836 -1.9442257 -0.13646956 0
3.6200962 -1.9602325 -0.11538091 0
3.7100947 -1.9791476 -0.10115041 0
0.93099999 -1.8380001 -0.103 0
1.1239167 -1.8508523 -0.10202177 0
1.2413611 -1.8356166 -0.1228959 0
1.3734469 -1.8464988 -0.12668307 0
1.4409813 -1.870936 -0.127662 0
1.5441972 -1.8530192 -0.13382156 0
1.6470225 -1.869434 -0.14192691 0
1.7317352 -1.8331275 -0.14652085 0
1.8136528 -1.8347461 -0.14050987 0
1.9796696 -1.8236674 -0.11316418 0
2.0621119 -1.8682075 -0.11369286 0
2.1136379 -1.8540678 -0.11810908 0
2.2503004 -1.8252918 -0.1325248 0
2.337296 -1.8667613 -0.13688673 0
2.4622836 -1.847808 -0.1487176 0
2.5741627 -1.841141 -0.15143037 0
2.6651807 -1.8592013 -0.15114835 0
2.7160001 -1.848 -0.15099999 0
2.8517532 -1.8362985 -0.13178279 0
2.9615064 -1.8985969 -0.11356556 0
3.064173 -1.8484714 -0.13698468 0
3.1620667 -1.8405046 -0.12503244 0
3.252193 -1.8349397 -0.12462025 0
3.3567319 -1.8619995 -0.13038205 0
3.4666255 -1.8590844 -0.12037165 0
3.5477819 -1.8991054 -0.11396457 0
0.096297033 -1.7727454 -0.10204244 0
0.103 -1.767 -0.103 0
1.0653834 -1.7469932 -0.11733048 0
1.1745778 -1.7325866 -0.13183345 0
1.2970001 -1.748 -0.148 0
1.3600464 -1.7629871 -0.13827351 0
1.4549582 -1.7319534 -0.13404134 0
1.5533128 -1.7369019 -0.13218699 0
1.6626623 -1.7542118 -0.13084111 0
1.7543472 -1.7494085 -0.13511735 0
1.8308603 -1.7497717 -0.12438836 0
1.9514452 -1.747872 -0.12791954 0
2.0474317 -1.7773089 -0.12675424 0
2.1449728 -1.7550036 -0.13190095 0
2.2180269 -1.7484573 -0.14782727 0
2.3557229 -1.7692063 -0.14942098 0
2.428122 -1.7383556 -0.15207277 0
2.5180297 -1.7578232 -0.15189317 0
2.6090477 -1.7758837 -0.15161115 0
2.7420001 -1.774 -0.15000001 0
2.8269477 -1.7385007 -0.15202615 0
2.97525 -1.7404062 -0.14424281 0
3.0697498 -1.7759062 -0.13974279 0
3.1490526 -1.7494612 -0.1352782 0
3.2231565 -1.7390211 -0.13959292 0
3.3043127 -1.7790421 -0.13318583 0
-1.729 -1.603 -0.101 0
-1.5338027 -1.6564288 -0.10828122 0
-1.3213058 -1.6381555 -0.10812846 0
-1.1368593 -1.6438044 -0.10910412 0
-1.003 -1.671 -0.101 0
-0.95499998 -1.677 -0.101 0
1.0502445 -1.6466136 -0.12300426 0
1.1512759 -1.6448793 -0.1252473 0
1.2754419 -1.6542485 -0.12698528 0
1.3705379 -1.6496092 -0.14265704 0
1.4441808 -1.6399231 -0.140982 0
1.5659555 -1.6456324 -0.1352402 0
1.6550468 -1.6574783 -0.13308695 0
1.7593181 -1.6585814 -0.14129564 0
1.8569254 -1.6412678 -0.14134251 0
1.9320352 -1.6572735 -0.13919705 0
2.0423102 -1.6573271 -0.14112546 0
2.1635709 -1.6670232 -0.14960685 0
2.2656217 -1.6630875 -0.15141976 0
2.3708782 -1.6564453 -0.15263797 0
2.4607859 -1.6759127 -0.15245837 0
2.6695166 -1.6414011 -0.15304182 0
2.7575414 -1.6524258 -0.15358999 0
2.8469741 -1.6621668 -0.1542588 0
2.9189999 -1.6746668 -0.15433334 0
3.0326211 -1.6813846 -0.14711128 0
3.142 -1.699 -0.146 0
-2.539 -1.51 -0.13600001 0
-2.3444731 -1.5482851 -0.12808761 0
-2.233 -1.506 -0.138 0
-2.1379664 -1.5441204 -0.12490862 0
-2.0517149 -1.5536779 -0.12453722 0
-1.9420154 -1.5576895 -0.1212597 0
-1.8733615 -1.5638914 -0.11737177 0
-1.7498347 -1.5449739 -0.1111542 0
-1.631537 -1.5355387 -0.13178705 0
-1.518 -1.5930001 -0.139 0
-1.4614617 -1.5456153 -0.12215628 0
-1.2448281 -1.5451177 -0.12227984 0
-1.0783851 -1.5506086 -0.12754157 0
0.94848335 -1.5395705 -0.14790435 0
1.0429312 -1.5543505 -0.14451806 0
1.1573974 -1.5314924 -0.13777204 0
1.2457643 -1.5699438 -0.1389762 0
1.3391254 -1.5361352 -0.13029805 0
1.4591807 -1.571187 -0.13544166 0
1.5430802 -1.545681 -0.1461004 0
1.627335 -1.5600328 -0.14100784 0
1.7580541 -1.5504494 -0.14420502 0
1.8674331 -1.5667725 -0.14240012 0
1.9381801 -1.5528835 -0.14736028 0
2.0235238 -1.5620077 -0.15086895 0
2.1215608 -1.5592937 -0.15220988 0
2.223727 -1.5550671 -0.15338278 0
2.3125238 -1.5759418 -0.15330558 0
2.554482 -1.5704509 -0.15378398 0
2.6517305 -1.5471251 -0.1551941 0
-2.8234076 -1.4206842 -0.1490176 0
-2.5042005 -1.4901823 -0.13666376 0
-2.4252558 -1.4239699 -0.14107278 0
-2.3339806 -1.4339724 -0.14114073 0
-2.2627761 -1.4650517 -0.13745153 0
-2.1737967 -1.4545397 -0.1375602 0
-2.057111 -1.4706236 -0.13352843 0
-1.9691259 -1.4538559 -0.13401692 0
-1.8293872 -1.470315 -0.12949483 0
-1.7528156 -1.4310712 -0.13101475 0
-1.6327417 -1.4294587 -0.1069179 0
-1.5602614 -1.4519014 -0.13197123 0
-1.4567814 -1.4501354 -0.14456522 0
-1.3575464 -1.4287177 -0.14144222 0
-1.1690446 -1.4529245 -0.13630277 0
-1.0351925 -1.4918042 -0.13977078 0
-0.96106488 -1.4512166 -0.15106501 0
-0.89212626 -1.4321817 -0.15000001 0
0.97750002 -1.4660001 -0.155 0
1.0488532 -1.4578031 -0.14960326 0
1.1431543 -1.4271077 -0.15513429 0
1.2601765 -1.4376842 -0.14984433 0
1.3706633 -1.4523778 -0.14251305 0
1.4511075 -1.4587634 -0.14849287 0
1.591 -1.47 -0.154 0
1.6584126 -1.4639859 -0.15257339 0
1.7454917 -1.4336753 -0.15259628 0
1.8320115 -1.4731859 -0.15045169 0
1.9816666 -1.4469999 -0.15333332 0
2.0765758 -1.4536891 -0.1541276 0
2.1642621 -1.475971 -0.1541528 0
2.2860687 -1.4049004 -0.15551569 0
2.3627582 -1.4522005 -0.15502092 0
2.4479675 -1.4657921 -0.15532777 0
2.5345845 -1.4781001 -0.15575528 0
-3.8722718 -1.3601944 -0.10265739 0
-3.75667 -1.3199966 -0.12078586 0
-3.2321849 -1.3429453 -0.10618234 0
-3.1422815 -1.3362702 -0.10925151 0
-3.0445566 -1.3398634 -0.11679533 0
-2.935401 -1.3461516 -0.11802465 0
-2.8628006 -1.3531961 -0.119798 0
-2.7521307 -1.3556136 -0.13764806 0
-2.6408904 -1.3545734 -0.15401883 0
-2.5246475 -1.3597803 -0.151125 0
-2.4325666 -1.3316811 -0.15050374 0
-2.3563361 -1.361721 -0.14491282 0
-2.2637625 -1.3473722 -0.14377016 0
-2.156527 -1.3523588 -0.141763 0
-2.0613508 -1.3547916 -0.14168578 0
-1.9522167 -1.3711214 -0.13933824 0
-1.8500952 -1.3511436 -0.14108667 0
-1.7085128 -1.350498 -0.13405949 0
-1.6528345 -1.3761039 -0.13738321 0
-1.5398707 -1.3472294 -0.12795895 0
-1.4525661 -1.3533595 -0.14381404 0
-1.3054025 -1.3604269 -0.14803658 0
-1.1185223 -1.3914622 -0.14565139 0
-1.039384 -1.3505865 -0.15381379 0
-0.94506854 -1.3404729 -0.15133004 0
-0.87450004 -1.3685 -0.15000001 0
1.066 -1.3755 -0.15900001 0
1.1524267 -1.3293667 -0.16077311 0
1.2316667 -1.3393334 -0.15966667 0
1.3401872 -1.3492714 -0.15655412 0
1.416117 -1.3988843 -0.14659724 0
1.676 -1.3759999 -0.15650001 0
1.723 -1.318 -0.15800001 0
1.8609201 -1.3334993 -0.15791775 0
1.9319086 -1.3865707 -0.15576315 0
2.016 -1.376 -0.155 0
2.1326895 -1.3103001 -0.15650523 0
2.2093792 -1.3576003 -0.15601046 0
2.3393409 -1.3630584 -0.1566906 0
-3.641068 -1.2797986 -0.13891435 0
-3.5639999 -1.253 -0.15099999 0
-3.2582936 -1.2750115 -0.11004423 0
-3.1477866 -1.2521627 -0.1193029 0
-3.0533867 -1.2564769 -0.12456226 0
-2.9656246 -1.2504704 -0.13899332 0
-2.8577409 -1.2444253 -0.13921872 0
-2.7409 -1.2635252 -0.14800411 0
-2.6310174 -1.2882942 -0.15223391 0
-2.5411112 -1.260801 -0.15616347 0
-2.4383616 -1.2411335 -0.15810208 0
-2.3616235 -1.2595029 -0.15383808 0
-2.2296085 -1.2391304 -0.15109991 0
-2.1234739 -1.2483338 -0.14601149 0
-2.0345933 -1.2544112 -0.14664057 0
-1.9420052 -1.2749339 -0.14462124 0
-1.8570858 -1.260272 -0.14557737 0
-1.7540292 -1.2725868 -0.14496572 0
-1.6672001 -1.2620862 -0.14231889 0
-1.5537692 -1.2654142 -0.14449154 0
-1.4463334 -1.2646667 -0.149 0
-1.3343093 -1.2580343 -0.15187743 0
-1.2468019 -1.2963202 -0.15052745 0
-1.1882013 -1.2322135 -0.1530183 0
-1.0186026 -1.2702637 -0.15442561 0
-0.95866662 -1.257 -0.153 0
1.1795 -1.2565 -0.1645 0
1.2589582 -1.2479227 -0.16448508 0
1.312 -1.237 -0.164 0
1.5942773 -1.2260551 -0.16219398 0
1.6618465 -1.2743189 -0.15999247 0
1.770555 -1.2453408 -0.16058016 0
2.0609999 -1.2325001 -0.1575 0
2.1440973 -1.2480167 -0.15762588 0
2.2221949 -1.2940334 -0.15725176 0
-3.0514638 -1.1922274 -0.13224189 0
-2.9395413 -1.1704538 -0.13980907 0
-2.8612251 -1.1581322 -0.14874955 0
-2.7347403 -1.1321001 -0.15426999 0
-2.4482889 -1.1939119 -0.15552633 0
-2.3610897 -1.1614413 -0.15997517 0
-2.26581 -1.1456423 -0.15940854 0
-2.1286023 -1.1340017 -0.15631396 0
-2.0530815 -1.1481805 -0.15241042 0
-1.9571356 -1.1680471 -0.14888316 0
-1.8551966 -1.1651254 -0.14858341 0
-1.7729964 -1.1613714 -0.14927836 0
-1.6243625 -1.1729201 -0.14896573 0
-1.5393851 -1.1374234 -0.15256885 0
-1.2403196 -1.1658767 -0.15535852 0
-1.1536303 -1.1362724 -0.1565942 0
-1.071 -1.104 -0.15800001 0
1.238 -1.171 -0.167 0
1.4591386 -1.1295276 -0.16659699 0
1.5627375 -1.1352123 -0.16584674 0
1.6498809 -1.1621163 -0.16439719 0
1.7190766 -1.1932631 -0.16221708 0
1.867 -1.108 -0.163 0
-2.6291871 -1.0708002 -0.15429333 0
-2.5464139 -1.0372002 -0.15450667 0
-2.4636405 -1.0036001 -0.15471999 0
-2.2131445 -1.0724559 -0.15976316 0
-2.1490624 -1.0539298 -0.166282 0
-2.0518379 -1.0709987 -0.15842031 0
-1.9508524 -1.0647811 -0.15563889 0
-1.8443333 -1.0556667 -0.15333332 0
-1.7754666 -1.0941539 -0.15231901 0
-1.663576 -1.0477114 -0.15335901 0
-1.5955514 -1.0401207 -0.15407188 0
-1.4532126 -1.0528084 -0.15729713 0
-1.115 -1.043 -0.16 0
1.3577846 -1.0571319 -0.16989926 0
1.4424943 -1.0175357 -0.1709227 0
1.5116231 -1.0657291 -0.16874753 0
1.6962091 -1.0115621 -0.167417 0
1.7695115 -1.0529526 -0.16552126 0
1.8428137 -1.0943432 -0.16362551 0
1.909 -1.017 -0.164 0
2.1187894 -1.0386891 -0.16216929 0
-2.7859607 -0.91498709 -0.15300035 0
-2.380867 -0.97000015 -0.15493333 0
-2.2567067 -0.91960007 -0.15525334 0
-2.0563815 -0.9914853 -0.16258773 0
-1.978 -0.95099998 -0.164 0
-1.5282403 -0.99927181 -0.15741174 0
-1.4638269 -0.96018124 -0.16060783 0
-1.3791492 -0.95550698 -0.16256139 0
-1.296 -0.94800001 -0.164 0
1.364 -0.96200001 -0.17299999 0
1.5496045 -0.92878103 -0.1712085 0
1.6229068 -0.97017157 -0.16931276 0
1.7561169 -0.93869394 -0.16710739 0
1.8654375 -0.951922 -0.16468444 0
1.9329624 -0.92489052 -0.16460632 0
2.0209589 -0.98866946 -0.16307874 0
-2.7014856 -0.88719922 -0.15377842 0
-2.6170499 -0.85942435 -0.15455611 0
-2.5326142 -0.83164942 -0.15533382 0
-2.4481785 -0.80387455 -0.15611151 0
-2.1325469 -0.86920005 -0.15557334 0
-2.0497735 -0.83560002 -0.15578666 0
-1.967 -0.80199999 -0.156 0
-1.335 -0.88200003 -0.167 0
1.4572206 -0.84566307 -0.17352419 0
1.5677186 -0.8421973 -0.17093661 0
1.6651759 -0.84132564 -0.16720247 0
1.7494259 -0.84317285 -0.16544621 0
1.8562641 -0.85331368 -0.16438037 0
1.9550694 -0.87028432 -0.16494375 0
-2.9319999 -0.76300001 -0.15099999 0
-2.8548841 -0.74299508 -0.15212931 0
-2.7637775 -0.73976409 -0.15259151 0
-2.623703 -0.73057491 -0.15415467 0
-2.5362914 -0.70628881 -0.15535972 0
-2.3637428 -0.77609962 -0.1568892 0
-2.2793071 -0.74832475 -0.15766691 0
-2.1948714 -0.72054982 -0.1584446 0
-1.7253652 -0.73288065 -0.15952906 0
-1.6387432 -0.71958739 -0.16276477 0
1.44031 -0.73435432 -0.17112991 0
1.5388322 -0.73785126 -0.16625986 0
1.6379778 -0.74619931 -0.15828998 0
1.7543036 -0.78265131 -0.16207054 0
-2.9460001 -0.69400001 -0.16 0
-2.8457892 -0.66196471 -0.15673882 0
-2.7580502 -0.66082138 -0.15601102 0
-2.6586423 -0.64589506 -0.15764454 0
-2.5511496 -0.65863985 -0.15635452 0
-2.4451196 -0.64607018 -0.15744181 0
-2.357399 -0.62293643 -0.15873937 0
-2.2740571 -0.63343054 -0.15897483 0
-2.1485407 -0.65095973 -0.15970108 0
-2.026 -0.66500002 -0.16 0
-1.9547007 -0.64191389 -0.16165812 0
-1.8734174 -0.61559486 -0.16354842 0
-1.7605424 -0.65131438 -0.1614732 0
-1.6360835 -0.64319837 -0.16433112 0
-1.5623553 -0.6657176 -0.1649839 0
-1.4679451 -0.63329715 -0.16863118 0
1.3839999 -0.66299999 -0.169 0
1.4490163 -0.64948291 -0.15813155 0
1.5684834 -0.65632343 -0.15028009 0
1.6660345 -0.67295378 -0.14404529 0
1.7377081 -0.65511823 -0.14642097 0
1.803 -0.60799998 -0.149 0
-2.9312761 -0.54519087 -0.15351635 0
-2.8456426 -0.5364024 -0.1555472 0
-2.739171 -0.54537773 -0.15753448 0
-2.6150882 -0.539235 -0.15959063 0
-2.541527 -0.56889653 -0.16009521 0
-2.4411445 -0.54990315 -0.16076091 0
-2.328042 -0.5408535 -0.16239774 0
-2.2443645 -0.55332541 -0.1618561 0
-2.1446934 -0.53577739 -0.16337323 0
-2.0516677 -0.5497154 -0.16297166 0
-1.9502057 -0.52564305 -0.16439748 0
-1.8267689 -0.52070934 -0.16501617 0
-1.7552915 -0.56283951 -0.1660413 0
-1.6610913 -0.54838079 -0.16720004 0
-1.5467522 -0.55236357 -0.16954321 0
-1.4340698 -0.5524556 -0.17121442 0
-1.329 -0.551 -0.171 0
1.3806769 -0.54159409 -0.15470451 0
1.4529985 -0.54923844 -0.15242516 0
1.539125 -0.55013835 -0.15017925 0
1.641569 -0.55435485 -0.15076496 0
1.7512128 -0.54510325 -0.1504243 0
1.822 -0.54350001 -0.1505 0
-2.8583212 -0.45074427 -0.15517817 0
-2.7514725 -0.4657495 -0.15745707 0
-2.6528533 -0.46310362 -0.15911181 0
-2.5639112 -0.44713905 -0.1609102 0
-2.4650602 -0.45111519 -0.16225599 0
-2.3674839 -0.45205426 -0.16367914 0
-2.2787635 -0.43516624 -0.16518985 0
-2.1672328 -0.44919869 -0.16513552 0
-2.0704391 -0.46435544 -0.16581607 0
-1.9725482 -0.45693567 -0.16655007 0
-1.8533292 -0.44692257 -0.16785884 0
-1.745912 -0.4419626 -0.17039299 0
-1.6354799 -0.45559502 -0.17084451 0
-1.5405416 -0.44189119 -0.1739362 0
-1.456589 -0.46242857 -0.17263561 0
-1.364 -0.45249999 -0.17399999 0
1.3425846 -0.44567686 -0.15522105 0
1.4456342 -0.45024705 -0.15158753 0
1.552868 -0.45645723 -0.15149793 0
1.6726699 -0.47719952 -0.15067299 0
-2.9204998 -0.35749999 -0.15799999 0
-2.847044 -0.33709645 -0.15994297 0
-2.7541838 -0.36976957 -0.15981467 0
-2.6652858 -0.35792339 -0.16146283 0
-2.5763879 -0.3460772 -0.163111 0
-2.4626989 -0.36742282 -0.16468371 0
-2.3417144 -0.33170629 -0.16740179 0
-2.2181575 -0.37258315 -0.16915235 0
-2.1292715 -0.35705543 -0.17110157 0
-2.0474567 -0.36047339 -0.17065121 0
-1.9514999 -0.32599998 -0.175 0
-1.7075146 -0.38818869 -0.17542024 0
-1.6332574 -0.37009436 -0.17871012 0
-1.5607892 -0.37393168 -0.17806251 0
-1.4428947 -0.36521584 -0.17703125 0
1.353 -0.38499999 -0.15000001 0
-2.9285798 -0.25693294 -0.1604543 0
-2.8171439 -0.24617931 -0.16281773 0
-2.7207322 -0.26820394 -0.16421342 0
-2.6308284 -0.25855345 -0.16612425 0
-2.5409241 -0.24890296 -0.16803506 0
-2.4510202 -0.23925248 -0.1699459 0
-2.3611162 -0.22960198 -0.17185672 0
-2.2430859 -0.27226779 -0.17148307 0
-2.1537409 -0.2610375 -0.1732634 0
-2.0643959 -0.24980721 -0.17504375 0
-1.9960001 -0.214 -0.17900001 0
1.4865026 -0.20042509 -0.15516567 0
1.5690054 -0.2128502 -0.15533134 0
1.651508 -0.22527531 -0.155497 0
1.7340107 -0.2377004 -0.15566267 0
1.8577646 -0.25633806 -0.15591118 0
1.902 -0.26300001 -0.156 0
-2.947958 -0.12214123 -0.16236068 0
-2.8417244 -0.1164542 -0.16474923 0
-2.7515328 -0.11162595 -0.1667771 0
-2.6613412 -0.10679771 -0.16880496 0
-2.5711496 -0.10196947 -0.17083283 0
-2.2770479 -0.19405977 -0.17427258 0
-2.187032 -0.18537319 -0.17618172 0
-2.0520079 -0.17234328 -0.17904544 0
1.4135001 -0.15449999 -0.156 0
1.5476984 -0.13428149 -0.15749191 0
1.6723968 -0.14756297 -0.15798381 0
1.7555289 -0.1564173 -0.15831175 0
1.8386612 -0.16527161 -0.15863968 0
1.9258966 -0.17456296 -0.15898381 0
-2.480958 -0.097141221 -0.17286068 0
-2.3456707 -0.089898854 -0.17590249 0
-2.2103832 -0.082656488 -0.17894427 0
-2.1201916 -0.077828243 -0.18097213 0
-2.03 -0.072999999 -0.183 0
1.483 -0.055 -0.164 0
1.5659131 -0.060245518 -0.16383079 0
1.6488261 -0.065491036 -0.16366158 0
1.7317392 -0.070736557 -0.16349237 0
1.8561087 -0.078604832 -0.16323856 0
1.973 -0.086000003 -0.163 0
1.4910001 0.050000001 -0.18099999 0
1.5750504 0.034594469 -0.17779723 0
1.6644983 0.034959197 -0.1788756 0
1.7539464 0.035323922 -0.17995398 0
1.8433945 0.035688646 -0.18103234 0
1.9328425 0.036053371 -0.18211073 0
2.0222905 0.036418095 -0.18318909 0
2.1397605 0.044359054 -0.18476357 0
2.245311 0.029702542 -0.18581136 0
2.38816 0.013864575 -0.18806045 0
2.4789555 0.013405084 -0.18962272 0
2.559 0.013 -0.191 0
-2.0528224 0.12085283 -0.18371773 0
-2.1029999 0.28 -0.18799999 0
-2.079962 0.24264629 -0.18902895 0
-2.102 0.33199999 -0.189 0
-2.0598576 0.35148025 -0.18942179 0
-1.8504856 0.38771433 -0.18855795 0
-1.7253237 0.36380956 -0.19103862 0
-1.6418824 0.34787306 -0.19269241 0
-1.5584413 0.33193654 -0.1943462 0
-1.4751633 0.35329342 -0.19156599 0
-1.391 0.37 -0.18700001 0
-2.029 0.44800001 -0.186 0
-1.9658439 0.45134652 -0.18603975 0
-1.8547966 0.48322737 -0.18772581 0
-1.7283067 0.45234719 -0.18752787 0
-1.64398 0.4317604 -0.1873959 0
-1.5550535 0.45084417 -0.18826365 0
-1.4672269 0.46575737 -0.18913168 0
-1.3839999 0.44100001 -0.189 0
-2.158179 0.54928923 -0.18700001 0
-2.0350895 0.5346446 -0.1875 0
-1.9612201 0.55021399 -0.18823093 0
-1.8417478 0.57716548 -0.18972428 0
-1.7169075 0.54002947 -0.18952675 0
-1.6249959 0.55620527 -0.19008482 0
-1.5491037 0.57704616 -0.19225818 0
-1.4521037 0.53904611 -0.19025819 0
-1.3645 0.54649997 -0.19049999 0
1.682 0.52100003 -0.197 0
1.7631526 0.549178 -0.19798623 0
1.844305 0.57735598 -0.19897245 0
-3.2169874 0.69887316 -0.18526396 0
-3.1570001 0.67900002 -0.186 0
-2.1436286 0.65395749 -0.18803048 0
-2.031419 0.62330502 -0.18902032 0
-1.9482939 0.65065074 -0.19096091 0
-1.8324264 0.68434739 -0.19235218 0
-1.7516695 0.65342128 -0.19236389 0
-1.6475645 0.64212376 -0.19230591 0
-1.5202459 0.64858717 -0.19177772 0
-1.4308677 0.65380538 -0.19238552 0
-1.3430001 0.65499997 -0.193 0
1.452 0.64700001 -0.19499999 0
1.5322891 0.68502581 -0.19633815 0
1.665 0.60600001 -0.198 0
1.7448882 0.63764584 -0.19912519 0
1.9254576 0.60553396 -0.19995868 0
-3.3175075 0.76530206 -0.1837997 0
-3.2622414 0.74902415 -0.18541381 0
-3.1800001 0.76099998 -0.189 0
-2.1308503 0.76231885 -0.19103438 0
-2.0351982 0.75108701 -0.19189651 0
-1.951836 0.73914135 -0.19227223 0
-1.8621891 0.74849272 -0.19310337 0
-1.7621148 0.74696791 -0.19294429 0
-1.6814919 0.71417439 -0.19255543 0
-1.5407807 0.74704283 -0.19395547 0
-1.407317 0.77067989 -0.195379 0
-1.33 0.73000002 -0.19499999 0
1.4175 0.759 -0.19599999 0
1.5102861 0.76447904 -0.19725348 0
1.6527228 0.7420646 -0.19834538 0
2.3447213 0.74595648 -0.1992785 0
2.4267311 0.7628212 -0.1964062 0
2.5433428 0.7793166 -0.18978029 0
-3.405 0.82200003 -0.18000001 0
-3.3825228 0.81590617 -0.1808991 0
-2.1187658 0.84399843 -0.19297889 0
-2.0339673 0.86500013 -0.19429559 0
-1.9498656 0.831411 -0.19420353 0
-1.8176736 0.87590283 -0.1952931 0
-1.7385613 0.8390857 -0.19491093 0
-1.6553795 0.85726523 -0.19754505 0
-1.5554755 0.82851982 -0.1980685 0
-1.4846339 0.8113597 -0.195758 0
1.3835 0.85250002 -0.197 0
1.4709922 0.85935581 -0.1975715 0
1.5723 0.8455137 -0.19882184 0
1.6668581 0.8474372 -0.19976047 0
2.4561517 0.87146068 -0.19331576 0
2.5474453 0.82983625 -0.19240132 0
2.663624 0.83770263 -0.18378824 0
2.7686946 0.87016392 -0.178993 0
2.8595436 0.88239586 -0.17247798 0
2.9392109 0.89711255 -0.16950749 0
-3.336 0.98900002 -0.189 0
-3.268662 0.95863187 -0.19120058 0
-3.1830001 0.92000002 -0.19400001 0
-2.112 0.92900002 -0.19499999 0
-2.0509224 0.95935422 -0.19618842 0
-1.9550339 0.95489013 -0.19684422 0
-1.8768401 0.9390502 -0.1975075 0
-1.7614292 0.94551706 -0.19776814 0
-1.285 0.92299998 -0.2 0
1.3506666 0.94866663 -0.19866668 0
1.44665 0.93926519 -0.19922809 0
1.537941 0.92535394 -0.19914928 0
2.2923489 0.91806412 -0.19924691 0
2.3783617 0.93062329 -0.19430566 0
2.4580491 0.96421444 -0.18748787 0
2.5611906 0.94613814 -0.18249202 0
2.658071 0.95222843 -0.17550869 0
2.7388389 0.98453552 -0.16838586 0
2.8434689 0.92620707 -0.17896315 0
2.9399087 0.93719667 -0.17067586 0
3.0251667 0.95067102 -0.16593309 0
3.1421924 0.96967733 -0.15732367 0
-2.0727346 1.0524468 -0.19735509 0
-1.946447 1.0466306 -0.19862953 0
-1.8666093 1.0248795 -0.19882652 0
1.4286754 1.0008177 -0.19971606 0
2.530395 1.0232564 -0.17898765 0
2.6413133 1.0520594 -0.17106204 0
2.7451425 1.0526507 -0.16514626 0
2.8196065 1.0168426 -0.16126305 0
2.9351873 1.0630748 -0.15107012 0
3.0972033 1.0088105 -0.16744474 0
3.1070001 1.012 -0.167 0
-2.0467763 1.1423831 -0.19903259 0
-1.981035 1.1041775 -0.19937678 0
2.7684412 1.1284487 -0.15872841 0
2.8623936 1.1226093 -0.1536075 0
0.38299999 1.552 -0.15700001 0
0.41480592 1.5897272 -0.15657547 0
0.43454081 1.6569166 -0.15062179 0
0.59200001 1.699 -0.161 0
1.8383679 1.6565044 -0.19749004 0
0.252 1.721 -0.138 0
0.46399999 1.72 -0.155 0
0.52499998 1.72 -0.152 0
0.62083995 1.7845803 -0.15367259 0
1.9364198 1.7457609 -0.18022507 0
2.0411065 1.7504629 -0.18947077 0
0.27103591 1.8447332 -0.15534382 0
0.56375921 1.849722 -0.14284651 0
0.64967984 1.8701607 -0.14634518 0
2.0733883 1.8588748 -0.16730964 0
2.140393 1.805846 -0.16515297 0
2.2008574 1.8567947 -0.15187064 0
0.29038975 1.9705334 -0.17297733 0
0.64051914 1.9675925 -0.1363554 0
2.0731816 1.9251339 -0.19592857 0
2.1499202 1.9464515 -0.16837032 0
2.2450097 1.9246378 -0.14754184 0
0.3032923 2.0544 -0.18473299 0
0.62835807 2.0659254 -0.12759072 0
0.70735967 2.0413213 -0.13169037 0
2.249629 2.0348866 -0.14537606 0
2.3310001 2.063 -0.145 0
0.31619489 2.1382666 -0.19648866 0
0.65419757 2.1524067 -0.12148839 0
0.73619962 2.1269016 -0.12436297 0
2.2639542 2.1008351 -0.17332146 0
2.3546188 2.145647 -0.12473201 0
0.68003708 2.238888 -0.11538607 0
0.77945948 2.2552722 -0.11337186 0
2.3911357 2.2179689 -0.15825003 0
2.427 2.2509999 -0.154 0
0.70587659 2.3253694 -0.10928375 0
0.82271934 2.3836427 -0.10238075 0
0.73171616 2.4118507 -0.10318143 0
1.2723415 2.6447234 -0.11112579 0
1.3439746 2.6596723 -0.11318859 0
1.3102987 2.7251329 -0.12511006 0
1.4057797 2.7789378 -0.13435088 0
2.2667246 2.7798297 -0.10017841 0
1.3672347 2.8457472 -0.14608648 0
1.4469831 2.858448 -0.14845906 0
2.3238623 2.849915 -0.1060892 0
1.2582086 2.9498978 -0.10153537 0
1.4561787 2.9521601 -0.16481507 0
2.381 2.9200001 -0.112 0
1.2903669 3.0319183 -0.1126283 0
1.462128 3.0467713 -0.18104717 0
1.5499916 3.0572243 -0.18372953 0
0.41017687 3.1831794 -0.10855515 0
1.238718 3.15766 -0.19282153 0
1.3386042 3.1549487 -0.12926769 0
1.5000854 3.1271808 -0.19503145 0
0.42200875 3.2704394 -0.12419013 0
1.2712907 3.23388 -0.18109536 0
1.3764837 3.288053 -0.12778176 0
0.36548758 3.3517001 -0.10531168 0
0.43384063 3.3576994 -0.13982511 0
1.3270998 3.3644736 -0.16100408 0
1.4256667 3.3626664 -0.12733333 0
0.3792637 3.4865091 -0.11613576 0
0.44567251 3.4449596 -0.15546009 0
1.3049999 3.4230001 -0.11 0
0.38844779 3.5763817 -0.12335182 0
0.45750439 3.5322196 -0.17109506 0
0.39763185 3.6662545 -0.13056788 0
0.46933624 3.6194797 -0.18673004 0
0.40681595 3.7561274 -0.13778394 0
-1.9887843 3.8330822 -0.19746792 0
0.41600001 3.846 -0.145 0
-2.0439606 3.9457059 -0.17566982 0
-2.0965686 4.0731649 -0.15443586 0
-2.2279999 4.178 -0.12 0
-2.134367 4.150588 -0.1401408 0
-2.2701454 4.252192 -0.10559244 0
-2.1797769 4.2366738 -0.12256382 0
-2.2104375 4.3272924 -0.1128258 0
-1.9809999 4.3649998 -0.154 0
-2.0163953 4.4458423 -0.1403124 0
-2.0517905 4.5266843 -0.12662481 0
-2.0871859 4.6075268 -0.11293722 0
-0.019299679 -2.6629987 -0.00037293881 0
0.73750895 -2.661417 -0.042038251 0
0.90600002 -2.6359999 -0.035999998 0
1.0599291 -2.6772513 -0.040924314 0
1.243 -2.608 -0.027000003 0
-0.018369708 -2.5726988 -0.0088356435 0
0.68581235 -2.5719368 -0.023997001 0
0.75509745 -2.5746732 -0.043590255 0
0.88670635 -2.5797668 -0.037991162 0
1.0176724 -2.5738521 -0.045763768 0
1.2151442 -2.5499811 -0.022423791 0
2.259376 -2.5587745 -0.0043057576 0
-0.017439742 -2.482399 -0.017298348 0
0.65484458 -2.4497588 -0.045026183 0
0.73560971 -2.4417074 -0.045439031 0
0.84308863 -2.4526391 -0.042492632 0
0.94148189 -2.4636276 -0.04282406 0
1.179383 -2.4757953 -0.018916983 0
1.242 -2.438 -0.050000001 0
1.9978784 -2.4310873 -0.038877524 0
2.0109999 -2.447 -0.035999998 0
2.1699481 -2.45681 -0.015310112 0
-2.1589999 -2.3099999 -0.013999999 0
-2.0328152 -2.3475204 -0.036895677 0
-0.016044792 -2.3469491 -0.029992409 0
0.63876104 -2.3194208 -0.055789579 0
0.76314116 -2.3371232 -0.043809518 0
0.86386395 -2.3418021 -0.04383143 0
0.91511494 -2.3229015 -0.057509176 0
1.1378448 -2.339709 -0.049679846 0
1.210861 -2.3779247 -0.055306651 0
1.9425186 -2.3639514 -0.051017836 0
2.0507112 -2.3208575 -0.029982582 0
2.1103296 -2.3888338 -0.022646345 0
2.3369296 -2.347997 -0.017643662 0
-2.1136796 -2.2912741 -0.017789317 0
-2.0578926 -2.2518377 -0.030313175 0
-1.9535675 -2.2553368 -0.040412217 0
-1.4419112 -2.2730908 -0.0081070587 0
-1.3472685 -2.2391634 -0.015935995 0
-1.0240052 -2.266562 -0.031593386 0
-0.014649838 -2.2114992 -0.04268647 0
0.43849513 -2.2804909 -0.008336585 0
0.59152937 -2.2307196 -0.051144201 0
0.62593663 -2.2346663 -0.066998206 0
0.73714864 -2.230237 -0.051042631 0
0.84875834 -2.2290494 -0.057031941 0
1.0624052 -2.2386668 -0.051430598 0
1.1309006 -2.2236605 -0.068933323 0
1.3924295 -2.2149796 -0.0046410412 0
1.7355838 -2.2638879 -0.012808666 0
1.859479 -2.2632475 -0.069228306 0
1.9910927 -2.2528813 -0.037318822 0
2.0509119 -2.2162211 -0.007926628 0
2.1878495 -2.2272792 -0.04980785 0
2.2567763 -2.2580059 -0.029331505 0
2.3232801 -2.287652 -0.0069523156 0
3.2478898 -2.2339525 -0.0079496093 0
-2.0145862 -2.1541972 -0.031994779 0
-1.9691808 -2.1587725 -0.037857097 0
-1.8649728 -2.1522808 -0.044343516 0
-1.3708653 -2.1603863 -0.021024486 0
-1.2784148 -2.1255307 -0.032948792 0
-0.97743738 -2.1666772 -0.039017234 0
-0.64582008 -2.1211169 -0.036231417 0
-0.221 -2.1029999 -0.045000002 0
-0.12818173 -2.1719799 -0.051410802 0
-0.056497172 -2.1549215 -0.052553739 0
0.41349268 -2.1562362 -0.025004877 0
0.57301712 -2.147938 -0.06788063 0
0.65050578 -2.1417689 -0.062911682 0
0.76319206 -2.1464429 -0.055753861 0
0.84674329 -2.155601 -0.065339454 0
1.0570223 -2.152431 -0.066245571 0
1.3487436 -2.1441836 -0.019512828 0
1.6587882 -2.1621912 -0.033315398 0
1.769984 -2.1417933 -0.048956379 0
1.8718555 -2.1169288 -0.051991291 0
1.9637017 -2.1705408 -0.033098176 0
2.0639098 -2.1075673 -0.070684709 0
2.1352596 -2.1393747 -0.052111216 0
2.2041867 -2.1701014 -0.031634871 0
3.1380563 -2.1582203 -0.030093504 0
3.7520001 -2.102 -0.074000001 0
3.891 -2.119 -0.074000001 0
4.0159998 -2.1300001 -0.077 0
-1.9373136 -2.0895879 -0.04327878 0
-1.8721657 -2.0411949 -0.047336131 0
-1.7763784 -2.0492246 -0.048274815 0
-1.409 -2.0569999 -0.041000001 0
-1.266166 -2.0487287 -0.039116286 0
-1.1577432 -2.0430908 -0.026052289 0
-0.9225781 -2.0490079 -0.047762927 0
-0.71100003 -2.049 -0.035999998 0
-0.65792423 -2.0512099 -0.045348175 0
-0.55041522 -2.0423481 -0.034218457 0
-0.49327964 -2.0211043 -0.031516582 0
-0.21752721 -2.059094 -0.049092926 0
-0.12189078 -2.0795679 -0.062257279 0
-0.044903606 -2.0548756 -0.061210755 0
0.26537284 -2.0468273 -0.002325926 0
0.38899514 -2.0344908 -0.041336585 0
0.56588048 -2.0612104 -0.07356146 0
0.64914292 -2.0554287 -0.065254107 0
0.732894 -2.0630822 -0.060190395 0
0.81255746 -2.0719507 -0.069254592 0
0.98384315 -2.0780001 -0.062058359 0
1.0509404 -2.0693963 -0.082559995 0
1.2613719 -2.0025918 -0.049256414 0
1.3050576 -2.0733879 -0.034384623 0
1.5563941 -2.0265956 -0.060657699 0
1.6075912 -2.0943933 -0.046986546 0
1.7140492 -2.0738847 -0.062947541 0
1.8491008 -2.0425205 -0.05404909 0
1.9409471 -2.0961325 -0.035155974 0
2.0435166 -2.0501313 -0.068720289 0
2.9549999 -2.0320001 -0.067000002 0
3.0282223 -2.0824881 -0.052237403 0
3.1810124 -2.0231936 -0.07713113 0
3.23 -2.0510001 -0.068999998 0
3.3807292 -2.0417137 -0.082846783 0
3.4552495 -2.056031 -0.077547364 0
3.5308523 -2.0555124 -0.079693079 0
3.6402483 -2.0707185 -0.077928461 0
3.7615175 -2.0548592 -0.089176677 0
3.8549576 -2.0759335 -0.085872456 0
3.9535637 -2.0992107 -0.081929155 0
-1.8165097 -1.9567056 -0.060341984 0
-1.7473191 -1.9696615 -0.049202405 0
-1.6582522 -1.9118164 -0.053516544 0
-1.3442268 -1.9651992 -0.056377791 0
-1.2524556 -1.9725454 -0.042553529 0
-1.1485994 -1.9659829 -0.049558096 0
-1.0821503 -1.930251 -0.013473652 0
-0.8677187 -1.9313387 -0.056508616 0
-0.66052258 -1.9528227 -0.05508836 0
-0.54862285 -1.9447722 -0.054702684 0
-0.47420973 -1.9465783 -0.044887438 0
-0.20832951 -1.9428087 -0.059933081 0
-0.11368173 -1.9589801 -0.0764108 0
-0.054543857 -1.9520549 -0.072862208 0
0.25291523 -1.9675515 -0.014217284 0
0.34443393 -1.9279817 -0.043479014 0
0.541587 -1.9751402 -0.079485416 0
0.6529991 -1.9538471 -0.064277701 0
0.7481975 -1.9552965 -0.073503472 0
0.94027442 -1.9433775 -0.078748345 0
1.0109602 -1.9922643 -0.089373328 0
1.2176859 -1.9317958 -0.064128213 0
1.5495985 -1.9368989 -0.066164419 0
1.6601777 -1.9281282 -0.063377932 0
1.7682062 -1.9376588 -0.07288792 0
1.8479912 -1.9490221 -0.070192665 0
1.9511386 -1.9400693 -0.084636942 0
2.0255466 -1.9937754 -0.068658717 0
2.1166129 -1.9482782 -0.098776117 0
3.1078439 -1.9816614 -0.089275941 0
3.3284414 -1.985604 -0.09516713 0
3.4803009 -1.9685225 -0.09838371 0
3.5759687 -1.9990759 -0.091890246 0
-1.7345171 -1.8741112 -0.064619385 0
-1.6700053 -1.8242271 -0.06919641 0
-1.5991893 -1.8431122 -0.056137405 0
-1.2276151 -1.8676373 -0.044980973 0
-1.1428118 -1.8475127 -0.055583715 0
-1.0594666 -1.8457043 -0.05916442 0
-0.83114582 -1.8528924 -0.062339079 0
-0.64212906 -1.8515699 -0.07100942 0
-0.54952484 -1.8653373 -0.068808332 0
-0.45513982 -1.8720522 -0.058258291 0
-0.15230225 -1.8324578 -0.080668777 0
-0.042842146 -1.8435063 -0.082119852 0
0.2342288 -1.8486378 -0.03205432 0
0.33632547 -1.8579862 -0.056609266 0
0.48576865 -1.8312479 -0.089542948 0
0.54699111 -1.856522 -0.085003465 0
0.65817243 -1.8389899 -0.074375972 0
0.70999998 -1.821 -0.081 0
0.866 -1.837 -0.078000002 0
1.1783999 -1.8397794 -0.080697678 0
1.215 -1.868 -0.071999997 0
1.3458685 -1.837509 -0.070151798 0
1.4263654 -1.8831792 -0.077028573 0
1.5895511 -1.8369784 -0.080434509 0
1.7401531 -1.8360114 -0.088552207 0
1.846328 -1.8601863 -0.088122174 0
-2.4408369 -1.7484069 -0.012716752 0
-1.6353039 -1.7573823 -0.085936792 0
-1.5686276 -1.7661645 -0.057780966 0
-1.4810631 -1.7057041 -0.061379138 0
-1.2257675 -1.7973107 -0.084501244 0
-1.1376907 -1.7569911 -0.058724076 0
-1.0618798 -1.7377913 -0.073702656 0
-0.99444866 -1.7636182 -0.064810462 0
-0.79457289 -1.7744462 -0.068169542 0
-0.61656451 -1.7782849 -0.084004715 0
-0.5486328 -1.7394857 -0.09205658 0
-0.44754827 -1.758276 -0.077639684 0
-0.193 -1.749 -0.078000002 0
-0.061333332 -1.758 -0.093666673 0
0.32249999 -1.7885001 -0.066500001 0
1.1384399 -1.750447 -0.096716285 0
1.2725307 -1.7620313 -0.083032548 0
1.3046401 -1.7332412 -0.097346947 0
1.533901 -1.7701243 -0.091515295 0
1.6575421 -1.7905612 -0.094324976 0
-2.3329067 -1.669804 -0.033409573 0
-2.2609534 -1.617402 -0.047204785 0
-1.8422341 -1.6041013 -0.060202532 0
-1.5395615 -1.6520927 -0.084880009 0
-1.4495001 -1.6305 -0.063500002 0
-1.1059999 -1.6950001 -0.035999998 0
-1.053 -1.6735001 -0.072500005 0
-0.75800002 -1.696 -0.074000001 0
1.2228246 -1.694425 -0.097826041 0
-2.1889999 -1.5650001 -0.061000001 0
-1.8184834 -1.5939176 -0.064835809 0
-1.7565694 -1.539098 -0.078863174 0
-4.0040002 -1.406 -0.082000002 0
-3.6542938 -1.4335115 -0.067544229 0
-3.5823772 -1.4419844 -0.076242976 0
-3.4624431 -1.4321178 -0.070230931 0
-3.3571725 -1.4397156 -0.076925009 0
-3.2556632 -1.4334555 -0.084205069 0
-3.1688023 -1.4453032 -0.08204928 0
-3.0617788 -1.4520239 -0.081780113 0
-2.9426675 -1.426055 -0.095439419 0
-1.6946555 -1.4842783 -0.092890546 0
-3.9493399 -1.3869932 -0.090571739 0
-3.5478554 -1.3909093 -0.078967519 0
-3.4387636 -1.3669854 -0.089917675 0
-3.3555598 -1.3342302 -0.098232903 0
-3.2661791 -1.3674152 -0.090325311 0
1.772 2.1730001 -0.048999995 0
1.612 2.2909999 -0.083999999 0
1.8381919 2.2541912 -0.055847429 0
1.6612176 2.3664997 -0.081637554 0
1.9238983 2.3593187 -0.064713627 0
0.75755566 2.498332 -0.097079113 0
0.85155928 2.469223 -0.095053345 0
1.1962134 2.4834521 -0.083078615 0
1.2264831 2.4329481 -0.072959065 0
1.7104353 2.4419997 -0.079275109 0
1.9810361 2.429404 -0.070624426 0
2.0381739 2.4994891 -0.076535225 0
0.78339517 2.5848134 -0.09097679 0
0.88039917 2.5548034 -0.087725937 0
1.0266281 2.5746322 -0.0047822557 0
1.1085714 2.5206985 -0.00083401054 0
1.2582768 2.5523603 -0.094583914 0
1.7612035 2.5268548 -0.03865955 0
1.8088706 2.5929995 -0.074550211 0
2.0953116 2.5695744 -0.082446024 0
0.796 2.6270001 -0.088 0
0.89899999 2.6099999 -0.082999997 0
1.0574307 2.6523845 -0.015202299 0
1.1512238 2.639096 -0.030205935 0
1.8444244 2.6548479 -0.032846916 0
2.1524491 2.6396594 -0.088356815 0
1.0585387 2.7533386 -0.022441365 0
1.1592102 2.7359018 -0.059285905 0
1.2131 2.768589 -0.031783804 0
1.9098684 2.7519166 -0.047885932 0
2.2095869 2.7097447 -0.094267614 0
0.32233334 2.8853333 -0.05566667 0
1.0893464 2.8370461 -0.033386193 0
1.1743166 2.8423219 -0.04726693 0
1.2369965 2.8595483 -0.066271424 0
1.9594233 2.8269374 -0.05096139 0
2.0057411 2.894999 -0.065100424 0
0.34399053 2.9653902 -0.052783668 0
1.120154 2.920754 -0.044331022 0
1.2547069 2.9502409 -0.058349624 0
2.0430939 2.9542916 -0.052399293 0
0.36216143 3.0530598 -0.057570279 0
1.1663655 3.0463154 -0.060748272 0
1.2615025 3.0495059 -0.075625807 0
1.3350501 3.0577946 -0.067891903 0
2.1093919 3.0539997 -0.060125176 0
0.34405178 3.1401067 -0.053717628 0
1.2544769 3.1521282 -0.08206743 0
1.3873143 3.1817396 -0.083366804 0
0.35323986 3.2294087 -0.049352944 0
1.2433846 3.2555847 -0.088110343 0
1.3312513 3.2152529 -0.098312899 0
1.4221572 3.2643697 -0.093683399 0
1.2741923 3.3392923 -0.099055171 0
-2.3122909 4.3263845 -0.091184877 0
-2.3755093 4.4376726 -0.069573544 0
-2.2686563 4.446939 -0.091738693 0
-2.4387274 4.5489612 -0.047962196 0
-2.326875 4.5665855 -0.070651591 0
-2.5230184 4.6973457 -0.019147076 0
-2.4808729 4.6231532 -0.033554636 0
-2.3656874 4.6463494 -0.056593522 0
-2.122581 4.6883693 -0.099249631 0
-2.5409999 4.7290001 -0.013000004 0
-2.4045 4.7261138 -0.042535461 0
-2.1579764 4.7692118 -0.085562035 0
-2.459156 4.838439 -0.022738695 0
-2.1933715 4.8500538 -0.071874447 0
-2.2287669 4.9308963 -0.058186859 0
-2.2818599 5.0521598 -0.037655469 0
-2.312 5.1209998 -0.026000008 0
-0.02 -2.7309999 0.0059999973 0
2.335 -2.645 0.0050000027 0
2.102586 -2.5331278 0.084578007 0
3.6931124 -2.5409405 0.081813 0
-1.3609999 -2.411 0.081 0
0.64846963 -2.437928 0.0009556748 0
1.1462766 -2.4038851 0.0099824797 0
2.0460765 -2.4644468 0.068736002 0
3.5407798 -2.4359047 0.051100798 0
3.6140022 -2.486393 0.065863401 0
-1.5359035 -2.3607218 0.053877804 0
-1.4423494 -2.3647556 0.0028953434 0
-1.3437647 -2.3319924 0.050192133 0
0.6277045 -2.3603921 0.011433512 0
1.1105177 -2.3284235 0.023654988 0
1.456 -2.3180001 0.016999997 0
1.8166897 -2.3712921 0.0088490322 0
1.9613121 -2.3614254 0.044973005 0
3.3943348 -2.3349285 0.021575592 0
3.4675574 -2.3854167 0.036338195 0
-1.5004091 -2.2791471 0.06589637 0
-1.451108 -2.2061288 0.053159326 0
-1.3433319 -2.2391899 0.025257505 0
-1.256451 -2.2307532 0.045579057 0
0.29214403 -2.2171893 0.023228394 0
0.58617413 -2.2053201 0.032389183 0
0.60693932 -2.282856 0.021911349 0
1.4361153 -2.2857757 0.010230757 0
1.8765478 -2.2584043 0.02121 0
2.0910001 -2.26 0.0019999966 0
3.3211124 -2.2844405 0.0068129897 0
-1.4018068 -2.1331105 0.040422283 0
-1.2559369 -2.1624563 0.033101067 0
0.27783045 -2.1261029 0.0095654316 0
0.58099997 -2.1860001 0.035 0
1.8200382 -2.1897235 0.0053680018 0
-9.4464455 -2.0251622 0.086818911 0
-2.9112673 -2.0910096 0.077476062 0
-2.8365812 -2.0366178 0.063156918 0
-1.3525057 -2.060092 0.027685232 0
-1.2324967 -2.0644274 0.050579384 0
-1.1475132 -2.0429392 0.0086711105 0
-9.3150349 -1.996971 0.073245317 0
-9.2274275 -1.9781768 0.064196251 0
-9.1398201 -1.9593827 0.05514719 0
-9.0522137 -1.9405884 0.046098128 0
-8.9646072 -1.9217942 0.037049063 0
-8.8769999 -1.903 0.028000001 0
-2.7646277 -1.9842157 0.04936171 0
-2.6926742 -1.9318137 0.035566498 0
-1.3032045 -1.9870737 0.014948186 0
-1.2539034 -1.9140552 0.0022111423 0
-1.1654978 -1.9587849 0.065886259 0
-2.6207206 -1.8794117 0.021771286 0
-2.5487673 -1.8270098 0.0079760663 0
1.1081092 2.3452716 0.035952777 0
1.6280155 2.3349044 0.022584641 0
1.064 2.4974999 0.0009999983 0
1.1451092 2.4372716 0.019952778 0
1.7128618 2.4616685 0.0081069209 0
1.182 2.529 0.0040000002 0
0.36883238 3.1476674 0.013277896 0
0.38144317 3.236223 0.02803719 0
0.37900713 3.3277183 0.027261807 0
0.37315241 3.4193897 0.027672552 0
0.40666473 3.4133346 0.057555791 0
0.38694051 3.5524869 0.051590685 0
0.42558092 3.5461683 0.079694733 0
0.40072861 3.6855843 0.075508818 0
0.40992069 3.7743158 0.091454253 0
2.1690478 -2.6139042 0.10321 0
-9.7555351 -2.0914712 0.11874531 0
-9.6654625 -2.0721478 0.10944156 0
-9.5778551 -2.0533535 0.10039251 0
0.44449714 3.679002 0.10183369 0
0.4571079 3.7675579 0.11659299 0
