# .PCD v0.7 - Point Cloud Data file format
VERSION 0.7
FIELDS x y z intensity
SIZE 4 4 4 4
TYPE F F F F
COUNT 1 1 1 1
WIDTH 326
HEIGHT 1
VIEWPOINT 0 0 0 1 0 0 0
POINTS 326
DATA ascii
-3.2153726 -0.56820238 2.2673676 22
-3.2477942 -0.2048678 2.336791 22
-2.9700947 -1.0189357 -0.065289952 2.5
-2.940877 -0.60466915 -0.11679369 2.25
-2.84461 -0.85821497 0.18104102 5.25
-2.9101908 -0.71291071 0.16848832 4.75
-2.9842954 -0.85092318 0.59949803 9
-2.9096076 -0.70514351 0.55067569 8.666667
-3.0802438 -0.80486834 0.92595881 12
-3.1011288 -0.96631408 1.3224915 15
-3.1370032 -0.78559065 1.2949378 15
-2.9527347 -1.8399034 1.8174577 17.833334
-2.8336329 -2.132673 2.203433 20
-2.8969729 -1.8612423 2.1638167 20
-2.9911761 -1.5351597 2.0844307 20
-3.1222801 -0.85982549 2.3129587 22
-3.057951 -0.65278429 2.3431108 22.75
-2.9724996 -0.70260596 2.4509678 23.333334
-2.5299008 -1.5290335 -0.0036739225 3
-2.773068 -1.1659839 -0.071858682 3
-2.5737281 -0.26604331 -0.046001632 3
-2.7148108 -1.3188943 0.049202699 4
-2.7968533 -0.89889222 0.086981535 4.5
-2.7671068 -0.55243784 0.0677182 4
-2.6835754 -2.1722972 2.2827499 20.75
-2.607439 -1.8136606 2.3514972 22.4
-2.6931393 -0.98496974 2.3391175 24
-2.7750239 -0.73172486 2.3337822 24
-2.7421918 0.63910854 2.3468339 24
-2.4313397 1.3683631 2.3580518 24.333334
-2.4697309 -2.0611215 2.4175336 23
-2.4281197 -1.7647183 2.53894 24
-2.5473616 -1.5418658 2.5009916 24.333334
-2.5546949 -0.936683 2.5109246 25.333334
-2.5685022 -0.56688678 2.5156794 25.833334
-2.4584553 -0.23677813 2.5270276 27
-2.7050793 1.1266391 2.4208086 24
-2.4476571 1.4070185 2.419878 25
-2.017539 -1.1043361 -0.18564416 1
-2.3736629 -0.11417671 -0.056967657 3
-2.3836305 -0.12325107 0.014030802 3
-2.0113714 4.2223229 0.019868584 3
-2.2300711 0.20754294 2.3950331 28
-2.0717862 0.64580637 2.360045 28
-2.2599609 1.0172828 2.3633368 26
-2.2524579 1.5040838 2.3669996 24.666666
-2.0763879 1.6281829 2.3624964 25
-2.3568811 -1.9424838 2.5335288 24
-2.358814 -0.98768193 2.5179136 26.333334
-2.1927643 -0.65638024 2.5309947 28.333334
-2.1094275 -0.11887967 2.5340271 29.5
-2.0945733 0.21045499 2.5015743 29.5
-2.035675 0.54733473 2.4635639 29.5
-2.1786377 1.0145758 2.5064886 27.333334
-2.2185988 1.4332678 2.4931221 26
-1.7696694 -1.2622575 -0.070514865 2.5
-1.8344653 -0.9373706 -0.077134497 2.3333333
-1.8109871 -0.14829032 -0.09579818 2
-1.7801675 -0.67770457 0.26034293 7.5
-1.6255009 -1.0219666 0.45845321 10
-1.7953018 1.8046494 2.3762634 25.714285
-1.6577804 2.0204096 2.3633804 25
-1.6858683 -1.2447441 2.5423074 29.5
-1.8156575 -0.99765307 2.5386422 29.799999
-1.8666704 -0.65360242 2.5385606 30.6
-1.9694273 -0.25483933 2.5400317 30.5
-1.9757425 0.24829482 2.540169 30.666666
-1.9365672 0.52446568 2.5408671 30.333334
-1.7223092 1.4384141 2.5387909 28.666666
-1.735922 1.7467697 2.471314 27
-1.3339208 -1.0099283 -0.094957232 1.5
-1.3812615 0.50794154 -0.047845256 2.5
-1.2630206 -0.97027516 0.14519522 6.1428571
-1.289307 0.66760486 0.052306738 4
-1.2200167 3.9146419 0.078154609 4
-1.5779035 -0.9782424 0.51820457 11.5
-1.2832699 -1.3761265 2.3828604 30.333334
-1.4404728 1.9308389 2.3812346 26.666666
-1.34671 2.0244288 2.3762438 26.333334
-1.5482917 1.5473982 2.5652828 29.333334
-1.4518752 1.8401859 2.4919012 27.75
-0.97554737 -0.97419554 -0.050677478 2.2857144
-1.0092598 0.63369256 -0.044590227 2.3333333
-0.88664335 0.97716206 -0.0235445 2.5
-0.95846868 1.4236897 -0.079584159 1.5
-0.98625213 -0.95916086 0.11862303 5.8461537
-1.0329466 0.78048843 0.19187684 7.7142859
-0.91641098 0.85330313 0.18297498 7.6666665
-1.04703 -0.89152825 0.48488581 13.5
-0.9978888 0.79183125 0.40841356 13
-0.93667036 0.81664044 0.55231744 15.8
-0.97658056 -1.7345361 2.3887033 29.4
-1.095999 -1.5664369 2.3856773 30
-0.97231483 2.0849593 2.3843315 27.333334
-0.90777373 -1.7674727 2.4405143 30
-1.0456544 1.951444 2.4561574 28.4
-0.89805919 2.0337613 2.4379065 28
-0.74343055 -2.1327157 -0.048732501 3
-0.57887322 -1.3171809 -0.025551759 2.5
-0.55605346 -0.9510563 -0.039503094 2.1666667
-0.61019802 -0.76843047 -0.07530728 1
-0.68284488 0.64273214 -0.032461118 2.3333333
-0.66210723 0.89520305 -0.045576639 2.25
-0.56391555 1.546935 -0.10610688 1.3333334
-0.73505497 -1.6794076 0.042048447 4
-0.47677749 -1.3973027 0.057362437 4.1999998
-0.64633608 -1.0655338 0.068417117 5
-0.42259809 -0.70980084 0.25598261 12.5
-0.4755969 0.78071296 0.0026288459 3
-0.60585999 0.90905905 0.14205584 7.125
-0.56599009 1.5736281 0.022557411 4
-0.46913409 -0.66305774 0.59354478 22.307692
-0.47924638 0.91722 0.43070409 15
-0.63105381 -0.65626007 0.90164524 26.799999
-0.63891792 2.1927118 2.3859725 27.5
-0.5995267 -2.0688417 2.5221248 29.200001
-0.72918409 -1.9762393 2.5476973 30
-0.65931612 2.0860562 2.4329319 28.333334
-0.27334303 -1.3632085 -0.058957431 1.8
-0.33015302 -0.92237377 -0.062636986 1.5
-0.086929247 -0.5442822 -0.012073193 2.5
-0.34433851 0.66417193 -0.040978629 1.6666666
-0.31294852 0.90119261 -0.039554924 2
-0.1965535 1.5347196 -0.0860378 1.5
-0.30170745 -1.3532281 0.0501674 4.1999998
-0.29953051 -0.92534703 0.22676742 10.222222
-0.11087187 -0.59809858 0.14651838 9.8461542
-0.32294071 0.94078267 0.17685811 8.4444447
-0.16147575 1.5419101 0.042963229 3.8
-0.14811482 -3.0683749 0.62018836 9.333333
-0.24555299 -0.61924815 0.60966843 25.235294
-0.3547264 0.94070268 0.42750955 15.5
-0.22690655 3.0568354 1.0233247 13
-0.18963037 3.0521805 1.393979 16.142857
-0.33405298 3.1147134 1.6065028 18
-0.19900788 2.2379913 2.3842909 27.666666
-0.1672402 2.4481931 2.3818653 26
-0.23649141 3.0204134 2.1995399 22.4
-0.1292994 -2.1766362 2.5467625 29
0.12498817 -1.3856527 -0.062666871 1.8333334
0.35285929 1.5657462 -0.15814754 0
0.18549684 1.6919305 -0.15053891 0.66666669
0.2423766 2.628722 -0.14395593 2
0.22100013 3.0358858 -0.053836547 3
0.23579517 -1.3793107 0.17830424 7
0.044503301 -0.66228819 0.27079508 14.6
0.20654027 3.0432742 0.17978409 5.0833335
0.3207677 -2.9679055 0.68455607 10
0.3568905 -1.3679473 0.43379357 12
0.26317409 -1.0620821 0.52698493 16.5
0.21910086 3.0563531 0.61231238 9.181818
0.33772182 -2.9568205 0.82131058 11
0.23128223 3.0718105 0.97918081 12.444445
0.020239009 3.2404847 1.1675904 14
0.13419025 3.09866 1.4239513 16.1
0.25256521 3.078927 1.6156676 18
0.20500252 2.2100275 2.2896945 27.200001
0.098218262 2.5715144 2.2363787 24.799999
0.38132757 -2.4156952 2.5455465 27
0.21329342 -2.2031174 2.5472181 28.75
0.70290399 -2.0714653 -0.10943588 1.5
0.77484494 -1.9721208 -0.069859512 2.25
0.44877642 -1.4424814 -0.063317247 1.75
0.78089005 0.7797606 -0.039878994 2
0.65878379 0.95691103 -0.068672396 1.375
0.56482714 1.3883967 -0.14528181 0.40000001
0.50294602 1.6838391 -0.15079279 1
0.71440893 2.3691108 -0.14215489 2
0.54795688 2.4625461 -0.14219928 2
0.60258359 2.9398417 -0.029403908 3
0.75606275 -2.0060046 0.050396636 4
0.78483355 -1.913267 0.22407067 6.5
0.43790609 -1.3582184 0.16216367 6.5454545
0.78247076 0.77943313 0.10512671 6
0.66391128 0.93452346 0.11103611 6.0666666
0.61376488 2.9579372 0.1888371 5.1111112
0.52751374 -2.8723736 0.7206223 10.5
0.40922299 -1.3132014 0.42096207 12
0.50018007 2.9469533 0.52865589 8.333333
0.53909916 -2.867147 0.85050082 12
0.49441087 2.9161577 0.9881168 13
0.7388289 -2.7699661 1.4642438 17.666666
0.51221353 2.9310417 1.3806193 16.5
0.74172205 -2.7496612 1.7953773 20.4
0.65076554 -2.5185647 2.3567686 25.200001
0.74345505 -2.2956302 2.3682132 26.5
0.6570884 1.8516771 2.1680417 28.285715
0.60196179 2.0176082 2.1543589 27
0.56875539 2.7113972 2.1749046 23
0.56305087 2.8636158 2.0344286 21.666666
0.49884367 -2.4022915 2.5361128 27
0.61686879 -2.1625443 2.5370147 28.444445
0.762501 -1.9419205 2.5542336 30
0.92218471 -1.8374491 -0.10468985 1.75
1.0984751 -1.4353088 -0.16802034 0.33333334
1.1721309 -1.1592064 -0.16512385 0
1.0726247 0.29043546 -0.057313975 1.5
0.9467321 0.56446981 -0.058431521 1.5
0.99515772 2.3273232 -0.140102 2
1.0139898 3.411521 -0.069202863 3
0.84645784 -1.8882715 0.16523743 5.625
1.1322796 0.33106717 0.19351006 8
0.95196658 0.54561353 0.1542785 7.3333335
1.0256467 2.9335217 0.18484463 5.1666665
1.0570266 3.3882029 0.23697342 5.3333335
1.0127349 -2.5510824 0.65027118 10.333333
1.1466303 0.23479636 0.52500933 15.923077
1.1601498 0.94928336 0.78101933 18
1.1810595 2.8916936 0.51754183 8
1.0158045 3.3939528 0.58199912 8.3999996
1.0564622 -2.5252855 1.0136982 13.9
1.0753798 0.31713215 0.98783123 25
1.1287758 0.9780966 1.0390368 21.5
0.98367202 1.2431583 1.1869923 22.5
1.1788588 2.8963778 0.83487439 11
1.0349556 3.3020473 0.86381161 10.666667
0.99049795 -2.6002312 1.4048332 17.428572
1.1478647 0.21755038 1.4236314 30
1.1127993 0.96607447 1.3308499 25.5
0.92652684 1.2443378 1.4301533 25.666666
1.1166525 3.6717305 1.5977904 15
0.96995085 -2.5938618 1.7514583 20.307692
0.90231848 1.2533083 1.6139834 28
1.1861677 2.8997588 1.8655419 19.333334
1.0118366 3.5305419 1.7747849 16.75
0.97023106 -2.5755229 2.2318497 23.5
1.0034776 -2.2266455 2.3661065 26.25
0.85435629 1.6604747 2.155607 29
0.86630714 2.5115604 2.1446092 23.5
0.95669973 -2.1161675 2.4700017 27.5
0.99821991 -1.8954593 2.539582 29.166666
1.2745057 -1.6854072 -0.17076248 1
1.3171527 -1.4045498 -0.16513747 1
1.3976648 -0.96789205 -0.18120384 0
1.551057 -0.59662259 -0.096330211 1.5
1.399846 -0.1967119 -0.083405599 1.5
1.2805505 0.14585143 -0.065806247 1.625
1.2029892 2.8953304 -0.052121848 3
1.5665615 -0.56914836 0.14804833 5.9000001
1.4225205 -0.18362907 0.14778963 6.3684211
1.2531137 0.17545958 0.16870613 7.1052632
1.3145162 2.7464592 0.22865745 5.5
1.2220962 2.8780749 0.14542431 4.5
1.2324014 -2.4042609 0.70159829 11
1.2782741 -2.3472433 0.61959898 10
1.5757498 -0.53241789 0.49615771 12
1.4175975 -0.20072079 0.59283644 15.125
1.2394201 0.10661398 0.5627901 16
1.2286283 0.84287751 0.77602279 18
1.2821956 2.7229764 0.58515513 9
1.2256008 2.8738418 0.59380019 8.75
1.2341818 -2.4074478 1.1761014 15.5
1.2723808 -2.3566904 0.93185014 13.25
1.326543 -0.055891085 0.87562168 21
1.2440397 0.18071401 1.0472037 24
1.2548635 0.7809788 1.0918564 22.5
1.2387236 0.85855001 0.91213322 19.666666
1.3114026 2.7399008 1.0949072 13.666667
1.218646 2.8420885 0.85738552 11.5
1.2280704 -2.401011 1.2135937 16
1.2537904 -2.3795669 1.2835997 17
1.5657362 -0.58757538 1.3910779 24
1.446934 -0.24319784 1.3909299 26
1.2973037 0.11097446 1.3827714 27.875
1.3130481 0.71031272 1.4006882 26
1.4528426 2.6409073 1.389886 16.428572
1.5022271 2.8081808 1.5909262 17
1.4508475 -0.12783371 1.7255118 29.5
1.4385729 2.6247144 1.7952458 19.5
1.2186383 2.8278782 1.9378866 20
1.3265555 -2.4436653 2.1580174 23
1.4319185 -2.2344685 2.2675297 24.333334
1.4222339 -1.8742645 2.3747933 26.799999
1.5938271 -1.4452497 2.3723278 28
1.397934 2.3879325 2.1799479 23
1.428645 2.5397606 2.1428001 22
1.3805218 -1.8157098 2.4539301 27.833334
1.4370967 -1.4037309 2.5438769 30.166666
1.8346162 -2.6237266 -0.13049211 2.25
1.9184858 -2.1886311 -0.12870814 2.3333333
1.849907 -1.7876836 -0.058639612 2.6666667
1.7226558 -1.4361416 -0.080078706 2.2
1.6827842 -0.88642853 -0.10922171 1.75
1.6197759 -0.71899545 -0.056729872 2.5
1.8527118 -2.9515193 0.097677343 3.8571429
1.9178928 -2.5988116 0.17317793 4.6666665
1.955099 -2.1651933 0.11317188 4.1999998
1.9202667 -1.7664382 0.19187455 5.5714288
1.8253745 -1.3756802 0.13147725 5
1.6610911 -0.95800269 0.13395929 5.2857141
1.6164024 -0.64192033 0.18523146 6.375
1.9771377 -2.8899171 0.76837492 10
1.8740566 -2.6253688 0.62041152 9
1.9153966 -1.7653956 0.48272789 8.5
1.9541423 -1.3281294 0.58367717 10.5
1.7367207 -0.94372046 0.59835964 12
1.7976724 -0.77679151 0.79373342 15
1.9656497 -2.8738015 0.9390251 11
1.744627 -1.0567585 0.97610217 16.666666
1.6720992 -0.66700268 0.9287405 17.777779
1.6815935 -1.012563 1.3750123 22
1.6571059 -0.65043688 1.3066586 22.25
1.637103 2.644906 1.3819536 16
1.918705 -2.5763769 1.656667 17.5
1.6982131 -2.0389481 2.2588573 24.333334
1.8472302 -1.8314412 2.3118029 25
1.8496242 -1.3755665 2.3740809 27.125
1.8439046 -1.0212835 2.3783765 28.714285
1.7849963 -0.58339536 2.381716 30.166666
1.833354 -0.30315128 2.3512149 30.5
1.6909448 -1.4394519 2.4431186 28
1.6921326 -1.0663496 2.4201615 29.5
1.6601504 -0.72154546 2.4037647 31
2.0093296 -2.1246908 0.22748835 5.5
2.1085105 -2.1488714 0.90257168 12
2.2419202 -2.5620508 1.9943877 19
2.2150445 -2.0495682 1.9408717 20.666666
2.2349727 -1.7807633 1.9403775 21.5
2.1694689 -2.503509 2.1520553 20.5
2.0785077 -2.0354104 2.1677394 22
2.1480365 -1.7991379 2.1926239 23.272728
2.1033549 -1.4810958 2.3288732 25.25
2.0526938 -1.008943 2.245513 26.5
2.013777 -1.5296448 2.4134822 26
2.5997996 -3.1430666 1.131075 11.25
2.6254387 -3.063199 1.2819263 12
