# .PCD v0.7 - Point Cloud Data file format
VERSION 0.7
FIELDS x y z intensity
SIZE 4 4 4 4
TYPE F F F F
COUNT 1 1 1 1
WIDTH 108
HEIGHT 1
VIEWPOINT 0 0 0 1 0 0 0
POINTS 108
DATA ascii
-33.977783 12.288155 6.7206841 9
-22.854486 9.3092098 3.8509114 8
-8.3034897 4.2984962 1.6645797 9
-8.3512793 4.1935673 2.6404736 12
-8.2991543 4.1400599 3.0145378 13
-8.217082 4.1708112 3.3589454 14
-7.7667775 4.8696747 2.590729 12
-7.6260653 4.8353486 3.039254 13
-6.8496895 3.9947438 0.39604616 5
-6.8787203 4.0364189 0.27795288 4
-4.3491735 -0.25744522 0.19935703 4
-4.1063485 -0.4756715 0.26083443 5
-4.146678 -0.46743882 0.50251281 6.5
-3.8041484 -0.80386323 0.7820493 9
-3.6180389 3.354732 0.44083077 6
-3.7653992 3.3301411 0.67051685 7.5
-3.6570168 3.5936358 0.95697105 9
-3.3621554 -1.2714407 0.51688695 7
-3.3398139 -1.3217463 0.80626553 10
-3.185766 -1.4132366 0.57526308 8
-3.1648536 -1.4242128 0.62825441 9
-2.9943368 -1.6564955 0.40058482 7
-2.7480409 -1.8771529 -0.038595095 3
-2.7825022 -1.8294616 0.072118685 4
-2.4393315 -2.2220738 -0.11877136 2
-2.4575682 -2.1684647 0.0067820316 3
-2.41204 -2.2333133 0.27921861 6
-2.3925414 -2.273068 0.1345138 4
-2.3649132 -2.2638419 0.22526895 5
-2.2063882 -2.472744 0.58358222 8
-2.3001685 4.1201172 0.53902489 7
-2.394599 -2.2278323 0.61308569 9
-2.3445661 4.1479616 0.68003374 8
-2.1576326 -2.6226203 0.42486396 7
-2.125582 -2.5866005 0.60831881 9
-2.0336411 -6.1202793 2.1527424 13
-2.1140501 -3.2970541 4.1789274 28
-1.8890812 -4.9161987 4.0484939 23
-1.7577186 4.6560006 1.4264922 12
-1.7055042 -5.7742887 1.8511188 12
-1.7241104 -3.2322793 4.1549983 29
-1.4669776 -4.1006489 0.55522895 7
-1.3767991 -4.0543251 0.70420343 8
-1.3591588 -5.1067348 4.069201 23
-1.0216876 3.205462 0.22569361 5
-0.99534333 3.1697764 0.049767751 4
-0.83998424 -3.7797613 0.48592257 7
-0.75341696 -3.8586226 0.24313858 5
-0.66084093 -3.7490358 0.68191952 8.5
-0.53148937 -4.5857434 1.3561702 12
-0.50648159 -4.5201302 1.6683462 14
-0.46209908 -3.977916 4.5796871 29
-0.25483713 -4.3095889 1.3893766 13
-0.32330647 -4.2610459 3.2775147 23
-0.27116597 -4.1367488 4.5799642 28
-0.022883603 3.3286734 0.18730761 5
-0.10581909 -3.0459106 0.54022604 8.5
-0.077694304 -3.0126438 0.69268286 10
-0.045666426 3.5131743 0.77380776 10
-0.16725233 -4.0372877 4.5851884 29
0.04232765 3.3603265 0.0042705787 3
0.17616031 -3.8736496 0.54558831 7
0.075881809 -3.9736538 1.2044487 12
0.13532113 -3.8615406 1.5153575 14.5
0.34118846 -3.7067857 0.25752631 5
0.42463148 -3.5928605 0.30966601 6
0.59141886 -3.4415927 1.1747642 13
0.77098876 3.0069246 0.30512539 6
0.61169243 3.0809073 0.69966614 10
0.77307439 -3.2705588 0.90835208 11
0.69871044 3.0558119 0.95086944 12
0.66775167 -3.5207348 2.7950885 23
0.73113453 2.506964 2.8945138 28
0.78336012 -3.1378415 3.5851066 28
0.79790807 -2.9425232 3.5938947 29
0.91969091 -3.1096818 0.035216626 3
1.0006424 -3.0472043 0.93087709 12
1.1178923 2.3664343 2.7367227 27.5
1.2265772 -2.817044 0.80114824 11
1.6260637 -2.498014 1.1698115 15
1.9842222 -2.1742077 0.4811224 8
2.1599159 1.8930089 3.0826695 28
2.3984985 -1.7371701 0.55428308 9
2.3382213 -1.734504 0.69016838 10.5
2.3716383 -1.6814235 1.1443495 14.5
2.2489862 1.9679034 3.0186002 27
2.4742982 -1.6366489 0.13912746 4.5
2.4644291 -1.6376712 0.33160734 6.5
2.472353 -1.6548837 0.46759 8
2.475065 -1.6487386 0.92060816 12.5
2.5802381 2.0873544 0.80888408 10.5
2.7595 2.1819665 0.40692937 7
3.0081658 2.0961463 0.13771081 4
3.1017032 1.9322627 0.31642881 6
3.2883279 1.8114524 1.5381591 15
3.8398888 1.6083959 0.17171015 4
5.4363685 -2.5535169 0.29413688 5
5.4925413 -2.4737246 0.5553236 6
5.4005108 -2.5647728 0.83006656 7
9.3530169 -0.86594999 2.3663445 11
9.4814692 -1.0161148 2.1035783 10
14.30902 -7.9934888 12.879542 23
14.31543 -7.8278098 17.879873 28
15.18036 -7.0865631 17.67758 28
15.347442 -7.0059371 12.469959 22
15.983694 -8.0453835 7.436429 15
16.27964 -8.4076757 17.791368 26
17.448938 -6.9789157 2.8312736 8
