# .PCD v0.7 - Point Cloud Data file format
VERSION 0.7
FIELDS x y z intensity
SIZE 4 4 4 4
TYPE F F F F
COUNT 1 1 1 1
WIDTH 1385
HEIGHT 1
VIEWPOINT 0 0 0 1 0 0 0
POINTS 1385
DATA ascii
-1.1743007 -2.849817 -0.16526553 0
-0.9448843 -2.8429885 -0.157397 0
-0.80199999 -2.8510001 -0.155 0
-0.74492329 -2.808753 -0.15371808 0
0.018640989 -2.87533 -0.10864119 0
0.214 -2.8080001 -0.115 0
-2.7363987 -2.7588556 -0.17018206 0
-2.5144877 -2.770824 -0.19511941 0
-2.4563901 -2.7036591 -0.19489554 0
-2.3686049 -2.7328322 -0.19117247 0
-1.3727922 -2.7646666 -0.169 0
-1.1440406 -2.7700536 -0.16541243 0
-0.91132653 -2.7282326 -0.15859549 0
-0.73928869 -2.7328472 -0.15443285 0
-0.56471175 -2.7145886 -0.14807579 0
0.017217919 -2.7458308 -0.11514665 0
0.2101772 -2.7599945 -0.11683789 0
-2.6429477 -2.6627474 -0.15231861 0
-2.355123 -2.6505594 -0.19252551 0
-1.9875878 -2.6430056 -0.18102311 0
-1.3358338 -2.6849332 -0.169 0
-1.2988753 -2.6051998 -0.169 0
-1.1137805 -2.6902902 -0.16555932 0
-1.0835203 -2.6105268 -0.1657062 0
-0.88888431 -2.6514885 -0.15939699 0
-0.75491655 -2.6576216 -0.15556052 0
-0.68946838 -2.6585081 -0.15401661 0
-0.55294901 -2.6377847 -0.14876771 0
-0.048999999 -2.6604106 -0.10800942 0
0.015794851 -2.6163316 -0.12165211 0
0.23727047 -2.6659601 -0.12018192 0
-2.5494969 -2.5666389 -0.13445516 0
-2.4871962 -2.5025668 -0.12254619 0
-2.3401949 -2.5693295 -0.19444777 0
-2.2687001 -2.5492907 -0.19190505 0
-2.1986511 -2.528208 -0.18879311 0
-1.929579 -2.5602953 -0.18118247 0
-1.2619169 -2.5254664 -0.169 0
-1.0532601 -2.5307634 -0.1658531 0
-0.86644214 -2.5747442 -0.16019849 0
-0.72722912 -2.5439055 -0.15589014 0
-0.64041668 -2.5613494 -0.15343107 0
-0.54209232 -2.541759 -0.15009502 0
-0.45843485 -2.569926 -0.14683443 0
-0.048999999 -2.5749404 -0.11700628 0
0.014846139 -2.5299985 -0.12598908 0
0.19297105 -2.543925 -0.12511007 0
0.24443053 -2.5444281 -0.12449915 0
0.3753559 -2.5622845 -0.11779322 0
0.42876858 -2.5136833 -0.1180665 0
0.64095312 -2.5479877 -0.10112385 0
-2.4248955 -2.4384944 -0.11063723 0
-2.224 -2.4349999 -0.19400001 0
-2.142 -2.46 -0.18799999 0
-2.024508 -2.4381719 -0.18121132 0
-1.8551843 -2.4542215 -0.18138686 0
-1.2249584 -2.4457333 -0.169 0
-1.023 -2.451 -0.16599999 0
-0.84399998 -2.4979999 -0.161 0
-0.5647049 -2.4371262 -0.15310697 0
-0.42865953 -2.446151 -0.14850138 0
-0.25964656 -2.4497736 -0.14110723 0
-0.11043914 -2.4252138 -0.13730481 0
-0.048999999 -2.4324901 -0.13200104 0
0.028948713 -2.434833 -0.13066302 0
0.18264738 -2.4142833 -0.13007338 0
0.23734441 -2.4595425 -0.12759931 0
0.36025986 -2.4611411 -0.12232204 0
0.41411433 -2.4303057 -0.12227749 0
0.62099999 -2.461 -0.114 0
0.81300002 -2.487 -0.107 0
0.98114908 -2.4235153 -0.10232657 0
-1.9538469 -2.3471198 -0.18201889 0
-1.7807895 -2.3481476 -0.18159123 0
-1.188 -2.3659999 -0.169 0
-0.53250158 -2.3320036 -0.15405285 0
-0.45505661 -2.3723333 -0.15136872 0
-0.39059138 -2.3221929 -0.14995594 0
-0.25369543 -2.3571982 -0.14380965 0
-0.11764175 -2.3441255 -0.14149229 0
-0.063363798 -2.3633101 -0.13716811 0
0.042684983 -2.3499739 -0.13479838 0
0.14785215 -2.347497 -0.13155159 0
0.25797927 -2.376498 -0.12830628 0
0.34922206 -2.3550577 -0.12600069 0
0.456 -2.3155 -0.122 0
0.53908169 -2.3363075 -0.11913206 0
0.94624364 -2.3407912 -0.10706806 0
1.0529978 -2.3416722 -0.10216175 0
-1.9016776 -2.2798958 -0.18261512 0
-1.8495082 -2.2126718 -0.18321133 0
-1.7311929 -2.2774317 -0.18172748 0
-1.6815965 -2.2067158 -0.18186374 0
-0.54031086 -2.2378807 -0.15607199 0
-0.45247149 -2.2542636 -0.15345573 0
-0.37879568 -2.2420964 -0.15147798 0
-0.24679884 -2.2494245 -0.14695241 0
-0.118 -2.28 -0.14399999 0
-0.066 -2.2969999 -0.141 0
0.045902882 -2.259692 -0.13823621 0
0.14866604 -2.2597134 -0.13534604 0
0.2421519 -2.2546756 -0.13368092 0
0.3352446 -2.2499921 -0.13103002 0
0.45208567 -2.2551491 -0.12580425 0
0.57145464 -2.2451763 -0.12147675 0
0.63050002 -2.2435 -0.121 0
0.81776106 -2.279938 -0.10328802 0
0.91437614 -2.2425933 -0.1092094 0
1.0164425 -2.2590418 -0.10692155 0
1.1393522 -2.2511532 -0.10062231 0
-2.2274141 -2.1915388 -0.12812135 0
-2.1613572 -2.1267314 -0.13936892 0
-1.7973387 -2.145448 -0.18380755 0
-1.632 -2.1359999 -0.182 0
-0.5221554 -2.1559403 -0.15703601 0
-0.44308949 -2.1543643 -0.15499961 0
-0.36700001 -2.1619999 -0.153 0
0.138 -2.1725001 -0.13949999 0
0.23333493 -2.1346045 -0.13840242 0
0.34590685 -2.1378706 -0.13694364 0
0.45137626 -2.1471343 -0.13110246 0
0.55934 -2.1505895 -0.12788641 0
0.66312242 -2.1368902 -0.12477458 0
0.7412402 -2.1425619 -0.12183191 0
0.8801443 -2.1551144 -0.11485034 0
0.97777748 -2.1292825 -0.11273627 0
1.099313 -2.1705806 -0.10566428 0
1.1193401 -2.1178706 -0.10475487 0
-2.3441811 -2.046988 -0.13525325 0
-2.2532418 -2.0158613 -0.14306664 0
-2.1018858 -2.0683851 -0.14949514 0
-2.0424142 -2.0100389 -0.15962136 0
-1.7451694 -2.0782239 -0.18440378 0
-1.693 -2.0109999 -0.185 0
-0.50400001 -2.0739999 -0.15800001 0
-0.458 -2.099 -0.156 0
0.2755 -2.059 -0.14050001 0
0.36823666 -2.0409393 -0.14077166 0
0.44063997 -2.0215638 -0.13840626 0
0.53156936 -2.0631669 -0.13357918 0
0.64908528 -2.0482922 -0.13005219 0
0.75490451 -2.0407896 -0.12563476 0
0.84324592 -2.0471716 -0.12180669 0
0.94587034 -2.0520256 -0.11766233 0
1.0488515 -2.048996 -0.11280856 0
1.1414467 -2.0337472 -0.10819404 0
1.2287157 -2.0567477 -0.10475142 0
1.3256086 -2.000387 -0.10392974 0
-2.4849496 -1.9212039 -0.14210966 0
-2.2911949 -1.9537657 -0.14877753 0
-2.1601691 -1.9331028 -0.15804665 0
-1.9829428 -1.9516926 -0.16974756 0
0.384 -1.985 -0.14300001 0
0.45807514 -1.9546275 -0.14263313 0
0.55658489 -1.9564075 -0.13870794 0
0.65909082 -1.9588882 -0.13359928 0
0.75298589 -1.9377425 -0.1300056 0
0.83350945 -1.9403276 -0.12703897 0
0.95764232 -1.9394163 -0.12031451 0
1.0669558 -1.9527801 -0.11588744 0
1.1551081 -1.9563576 -0.11197569 0
1.2519045 -1.9397898 -0.10817924 0
1.3403515 -1.9395751 -0.10319611 0
1.4675525 -1.9408084 -0.10066779 0
-2.5414166 -1.8689116 -0.14869651 0
-2.4336708 -1.8365276 -0.15290529 0
-2.3476422 -1.8171484 -0.15644237 0
-2.2269559 -1.8996125 -0.15762202 0
-2.1627169 -1.8454595 -0.16646652 0
-2.0670967 -1.8503445 -0.17302665 0
-1.9234715 -1.8933463 -0.17987378 0
-1.864 -1.835 -0.19 0
0.55355412 -1.8522415 -0.14423652 0
0.66471887 -1.8370088 -0.13954632 0
0.77079469 -1.8644971 -0.13301992 0
0.85852545 -1.8415431 -0.1283834 0
0.96016896 -1.8424013 -0.1242892 0
1.0407772 -1.8727831 -0.11908235 0
1.1533337 -1.8547074 -0.11537367 0
1.2410471 -1.8583307 -0.11267508 0
1.3365469 -1.8499326 -0.10843869 0
1.4338487 -1.8435684 -0.10406698 0
1.5489652 -1.8256016 -0.10109648 0
-2.3461783 -1.7284578 -0.16560981 0
-2.2454495 -1.7397039 -0.16710967 0
-2.045922 -1.7745438 -0.18082662 0
-1.943 -1.74 -0.193 0
-1.0600833 -1.7248532 -0.1714205 0
0.62300003 -1.745 -0.146 0
0.74614733 -1.7580068 -0.13882042 0
0.89305872 -1.7668589 -0.12993705 0
0.95172894 -1.7536811 -0.1276857 0
1.0708842 -1.737397 -0.12259147 0
1.1541573 -1.7543452 -0.11893106 0
1.2451545 -1.7545395 -0.1150794 0
1.3386371 -1.7494479 -0.11276982 0
1.4463913 -1.7449653 -0.10923624 0
1.5380929 -1.7439969 -0.10520487 0
1.6095167 -1.7495009 -0.10204753 0
-2.2407856 -1.6526386 -0.17473987 0
-2.1568904 -1.6321759 -0.17930177 0
-2.0751283 -1.6106297 -0.18488848 0
-1.97 -1.683 -0.193 0
-1.1359999 -1.651 -0.1735 0
-1.0464766 -1.6423268 -0.17208417 0
-0.97000003 -1.604 -0.17200001 0
0.6825 -1.6605 -0.1455 0
0.76055527 -1.6806303 -0.14024019 0
0.8509261 -1.641378 -0.1377043 0
0.96606743 -1.6621026 -0.1293973 0
1.0586183 -1.6452461 -0.12565316 0
1.1673235 -1.639205 -0.12100039 0
1.2519569 -1.6696599 -0.11768646 0
1.3488696 -1.6542525 -0.11437193 0
1.4600325 -1.6389521 -0.11248711 0
1.5677453 -1.6608063 -0.10793794 0
1.6567543 -1.6366332 -0.10411754 0
-2.1002619 -1.5515462 -0.1869133 0
-2.0184999 -1.53 -0.1925 0
-1.1586674 -1.5619041 -0.17377514 0
-1.0524133 -1.5410854 -0.17234969 0
-0.995 -1.5599999 -0.17200001 0
0.75150001 -1.562 -0.1455 0
0.83633029 -1.5532082 -0.14061938 0
0.9667207 -1.5557326 -0.13298365 0
1.0630087 -1.5429533 -0.12853181 0
1.1477816 -1.5462112 -0.12479137 0
1.2428502 -1.5496509 -0.12127755 0
1.3522389 -1.5521399 -0.11797941 0
1.4418209 -1.5430244 -0.11634795 0
1.5518296 -1.545964 -0.11385377 0
1.6614836 -1.5541152 -0.10797743 0
1.7433333 -1.5423332 -0.107 0
-2.0262985 -1.4276505 -0.19178495 0
-1.221 -1.492 -0.175 0
-1.1497114 -1.4606324 -0.17391273 0
-1.0555 -1.4579999 -0.1725 0
0.79799998 -1.476 -0.145 0
0.88837832 -1.4737351 -0.14026487 0
0.93709427 -1.4442278 -0.13655658 0
1.0396861 -1.4737278 -0.13152994 0
1.133809 -1.4412327 -0.12856604 0
1.2459438 -1.4356371 -0.12429629 0
1.3495131 -1.4469784 -0.12076323 0
1.4457871 -1.4425813 -0.11821732 0
1.5377052 -1.4633267 -0.11582223 0
1.627671 -1.4423673 -0.11494438 0
1.7431699 -1.467188 -0.107526 0
1.8180001 -1.4345 -0.108 0
-2.0774026 -1.3211765 -0.1929535 0
-1.9356415 -1.3660454 -0.19061771 0
-1.8616863 -1.3157897 -0.1896655 0
-1.115 -1.3609999 -0.17399999 0
-1.0880001 -1.396 -0.17299999 0
0.85666662 -1.3476667 -0.14366667 0
0.94648671 -1.3654985 -0.13845256 0
1.0442336 -1.340765 -0.13496259 0
1.163 -1.3543334 -0.12933333 0
1.2548549 -1.3485847 -0.12655252 0
1.343217 -1.362306 -0.12346966 0
1.4520409 -1.3450575 -0.12111271 0
1.5582373 -1.3438877 -0.11830304 0
1.6718588 -1.3550962 -0.11596386 0
1.7326975 -1.3638384 -0.11248545 0
1.8340766 -1.3226686 -0.10951576 0
1.93186 -1.3748466 -0.1087876 0
-1.9590044 -1.2484608 -0.19175583 0
-1.7507536 -1.2404063 -0.18823718 0
0.89600003 -1.272 -0.14300001 0
0.97449338 -1.252106 -0.13978504 0
1.0541801 -1.2287813 -0.13595815 0
1.1566327 -1.2540848 -0.13212378 0
1.2596699 -1.2451016 -0.12876961 0
1.3532491 -1.2598108 -0.12619032 0
1.4469413 -1.2471406 -0.12338612 0
1.5478187 -1.2454892 -0.12068807 0
1.6259874 -1.252896 -0.11890629 0
1.7372011 -1.2582176 -0.1168281 0
1.8412012 -1.2537204 -0.11100039 0
1.9365965 -1.2474251 -0.11052185 0
2.0039999 -1.26 -0.109 0
-1.8452035 -1.1785686 -0.19060466 0
-1.7693362 -1.1319739 -0.18983722 0
-1.6398208 -1.1650227 -0.18680885 0
-1.5658655 -1.1147671 -0.18585664 0
0.94199997 -1.1545 -0.14250001 0
1.0457834 -1.1445192 -0.138179 0
1.1732823 -1.1295654 -0.13428314 0
1.2433794 -1.1687546 -0.13117296 0
1.3486323 -1.1555935 -0.12803674 0
1.4449967 -1.1461314 -0.12534112 0
1.5552912 -1.1411264 -0.12325783 0
1.6570024 -1.1451077 -0.12001073 0
1.753111 -1.1726725 -0.11697953 0
1.8361306 -1.142913 -0.11532596 0
-1.6555355 -1.0620817 -0.18868606 0
-1.4549327 -1.0393834 -0.18442832 0
0.98900002 -1.05 -0.142 0
1.0657607 -1.0271884 -0.13942772 0
1.1344757 -1.0426664 -0.13674739 0
1.2461289 -1.0597868 -0.1325918 0
1.3502207 -1.0627756 -0.12929595 0
1.4582403 -1.0531483 -0.12758058 0
1.542955 -1.0541563 -0.1243725 0
1.6489917 -1.0581945 -0.1210368 0
1.7609096 -1.0674437 -0.11844435 0
1.8451879 -1.0509531 -0.11464044 0
-2.2361012 -0.94988954 -0.19889593 0
-2.1438463 -0.9115814 -0.1979261 0
-1.5417345 -0.99218953 -0.18753488 0
-1.4658673 -0.94559479 -0.18676744 0
-1.344 -0.96399999 -0.183 0
1.0484051 -0.94865936 -0.14110656 0
1.294 -0.93000001 -0.133 0
1.3690741 -0.94947863 -0.13164149 0
1.4482915 -0.94804531 -0.12788206 0
1.5593324 -0.95115608 -0.12485394 0
1.636907 -0.96417397 -0.12233827 0
1.7317517 -0.96023595 -0.11982487 0
1.8359287 -0.9367342 -0.11676899 0
1.9035889 -0.97429132 -0.11204704 0
-2.23909 -0.82985795 -0.19988388 0
-2.1003194 -0.83610845 -0.19963022 0
-2.0394535 -0.84059548 -0.19801456 0
-1.9791348 -0.84318602 -0.19619459 0
-1.8967789 -0.80898833 -0.19532882 0
-1.39 -0.89899999 -0.186 0
1.343134 -0.85495073 -0.13251552 0
1.4566464 -0.83365631 -0.12892401 0
1.5511413 -0.84968805 -0.1258073 0
1.6453733 -0.85089302 -0.12247461 0
1.748803 -0.8532896 -0.11978409 0
1.8472372 -0.85199416 -0.11768687 0
-2.2436352 -0.77265239 -0.19981916 0
-2.1271973 -0.76113403 -0.19930266 0
-2.043669 -0.73175776 -0.19890228 0
-1.9481256 -0.75028926 -0.19851857 0
-1.8330171 -0.75699776 -0.19605444 0
-1.7503878 -0.72374833 -0.19529083 0
-1.6497116 -0.70639539 -0.19273153 0
1.3433334 -0.74033332 -0.13366666 0
1.4309568 -0.75588828 -0.1296711 0
1.530751 -0.75745147 -0.12784736 0
1.6542438 -0.74714726 -0.12484006 0
1.7668892 -0.735672 -0.12045884 0
1.863227 -0.75162029 -0.11757419 0
1.9235001 -0.74800003 -0.1155 0
2.2068408 -0.70603836 -0.10911049 0
-2.2059488 -0.64467609 -0.19998252 0
-2.1205804 -0.61984158 -0.19898471 0
-1.9585441 -0.67569047 -0.19827396 0
-1.8766127 -0.67300516 -0.19810152 0
-1.7661546 -0.64189559 -0.19769807 0
-1.6392854 -0.64170605 -0.19644344 0
-1.5436779 -0.64109886 -0.19343287 0
-1.485 -0.63800001 -0.191 0
1.365 -0.64849997 -0.13500001 0
1.4401706 -0.66390389 -0.13168284 0
1.5596972 -0.64265013 -0.12800317 0
1.6438897 -0.64239192 -0.12604474 0
1.7285849 -0.64893913 -0.12221631 0
1.8490787 -0.64371091 -0.11872403 0
1.9462272 -0.64919221 -0.11607366 0
2.0335302 -0.65328181 -0.11517188 0
2.1186059 -0.67917925 -0.11219643 0
-2.0498188 -0.57288599 -0.19871636 0
-1.964349 -0.549155 -0.19793029 0
-1.8788792 -0.525424 -0.19714424 0
-1.7429618 -0.55528986 -0.19595152 0
-1.6229088 -0.5615381 -0.19645479 0
-1.5425 -0.55550003 -0.1965 0
1.3716666 -0.55433333 -0.134 0
1.4432281 -0.53964496 -0.1328757 0
1.5255657 -0.54323858 -0.12838669 0
1.6543964 -0.54992652 -0.12671417 0
1.7662477 -0.54645908 -0.12251979 0
1.8457813 -0.52050817 -0.11930575 0
1.9399054 -0.545627 -0.11596581 0
2.0449228 -0.50264323 -0.11647485 0
2.1307433 -0.52375042 -0.11438733 0
2.2558546 -0.53595251 -0.11143327 0
-2.274354 -0.4931145 -0.19920385 0
-1.8077129 -0.48288247 -0.1977229 0
-1.722142 -0.46025497 -0.19714861 0
-1.6462256 -0.46804368 -0.19452257 0
-1.5369999 -0.4305 -0.19400001 0
1.3855 -0.465 -0.1345 0
1.4362153 -0.436057 -0.13566217 0
1.5326284 -0.45631042 -0.12951002 0
1.6612803 -0.4504863 -0.12693216 0
1.7572969 -0.4327341 -0.12393373 0
1.8523736 -0.44120073 -0.12100325 0
1.9413712 -0.44674659 -0.11769974 0
2.0541134 -0.42828485 -0.11663888 0
2.1514614 -0.45790792 -0.11415311 0
2.2664471 -0.46546984 -0.11221278 0
2.312 -0.403 -0.113 0
1.4436551 -0.35165569 -0.13518369 0
1.5467956 -0.3464871 -0.13058122 0
1.6443371 -0.36555666 -0.12830696 0
1.7422476 -0.33454567 -0.12613404 0
1.8478428 -0.3545281 -0.12226652 0
1.9536293 -0.34804806 -0.11830191 0
2.0545769 -0.33447775 -0.11766592 0
2.1533124 -0.35916638 -0.11563716 0
2.257931 -0.36668375 -0.11394708 0
2.303 -0.34599999 -0.113 0
1.4605845 -0.25047272 -0.13607799 0
1.5553281 -0.24572381 -0.13204511 0
1.647403 -0.24415311 -0.13005432 0
1.7480116 -0.24272272 -0.12680995 0
1.8443128 -0.24498789 -0.1238713 0
1.9595913 -0.25294185 -0.12040099 0
2.0532818 -0.23880792 -0.11852064 0
2.1300638 -0.24711584 -0.11704128 0
2.2452366 -0.25957769 -0.11482225 0
2.3140001 -0.26699999 -0.1135 0
1.44575 -0.15075001 -0.13875 0
1.5432673 -0.14858274 -0.13369408 0
1.6496178 -0.14943554 -0.13067023 0
1.7556188 -0.15461241 -0.12704435 0
1.8413892 -0.16296959 -0.12440546 0
1.9630218 -0.15178916 -0.1210056 0
2.0767546 -0.14276016 -0.11950692 0
2.1591036 -0.1489796 -0.11776358 0
2.2599487 -0.14762951 -0.11583111 0
2.3175001 -0.1605 -0.1145 0
1.447 -0.055 -0.14 0
1.5360657 -0.052889049 -0.13493749 0
1.6462693 -0.041363459 -0.13262263 0
1.772131 -0.046381526 -0.12819621 0
1.8560387 -0.049726911 -0.12524524 0
1.9584732 -0.033536147 -0.12214715 0
2.0720561 -0.022435019 -0.12056498 0
2.1481121 -0.023870038 -0.11912996 0
2.2241678 -0.025305057 -0.11769494 0
2.3071117 -0.026870038 -0.11612996 0
1.4343333 0.030333333 -0.13966666 0
1.5373235 0.040863309 -0.13596667 0
1.6601089 0.044822261 -0.1319703 0
1.7692242 0.054619711 -0.12805194 0
1.8527801 0.057149637 -0.12518993 0
1.9491345 0.052871831 -0.12213115 0
2.057349 0.024763625 -0.12058175 0
2.133698 0.024527252 -0.11916351 0
2.2482214 0.02417269 -0.11703613 0
2.3039999 0.024 -0.116 0
1.439243 0.13437423 -0.13736482 0
1.5727143 0.12687114 -0.13282412 0
1.6563215 0.13230672 -0.13023618 0
1.7399287 0.1377423 -0.12764823 0
1.8235359 0.14317787 -0.1250603 0
1.9332143 0.14637114 -0.12215745 0
2.0446105 0.1443584 -0.12063396 0
2.142802 0.15717991 -0.11866534 0
2.255491 0.14094242 -0.11711708 0
1.378 0.2665 -0.13850001 0
1.4697725 0.2577796 -0.13629724 0
1.5573275 0.2545765 -0.13386798 0
1.6534002 0.22934002 -0.13127333 0
1.7355336 0.24012002 -0.12836444 0
1.8523335 0.25545001 -0.12422778 0
1.944 0.25400001 -0.122 0
2.052762 0.26418373 -0.11955591 0
2.1615241 0.27436745 -0.11711182 0
2.211 0.27900001 -0.116 0
1.358 0.34850001 -0.13850001 0
1.4388841 0.3690719 -0.1360254 0
1.5268387 0.36227074 -0.13338304 0
1.624276 0.31533816 -0.13070093 0
1.7474141 0.33975723 -0.1268014 0
1.8654696 0.36328685 -0.12307127 0
1.9322486 0.39225087 -0.12140894 0
-1.4450001 0.47799999 -0.18700001 0
1.3343523 0.4584218 -0.13728543 0
1.4441242 0.45908576 -0.13446432 0
1.5621097 0.46052718 -0.13131744 0
1.6568698 0.42134479 -0.12939659 0
1.7624204 0.45135951 -0.12612702 0
1.8595184 0.47322956 -0.12349325 0
1.974107 0.49760261 -0.12100621 0
2.0484917 0.40850517 -0.1184536 0
2.1316187 0.42012888 -0.1163402 0
-2.1174998 0.53250003 -0.19949999 0
-2.0699999 0.59899998 -0.198 0
-1.7808535 0.59883845 -0.19388048 0
-1.6549084 0.55352402 -0.1913003 0
-1.5289634 0.50820959 -0.18872012 0
1.2785001 0.5715 -0.138 0
1.3808893 0.54688478 -0.13547894 0
1.4699703 0.54114914 -0.13331603 0
1.5541315 0.55624938 -0.13096081 0
1.6432155 0.54706883 -0.12857907 0
1.7488921 0.55709863 -0.12537444 0
1.8302943 0.57115132 -0.12354904 0
2.0622139 0.51820523 -0.1190124 0
2.150321 0.53880781 -0.1170186 0
2.2384281 0.55941045 -0.1150248 0
2.326535 0.58001304 -0.113031 0
-2.1085186 0.66504472 -0.19963059 0
-2.0319145 0.67482239 -0.19768028 0
-1.9487803 0.65925765 -0.19732071 0
-1.8648169 0.62904805 -0.1956006 0
-1.2690001 0.67500001 -0.178 0
1.262 0.63133335 -0.139 0
1.3392287 0.65607029 -0.13668427 0
1.4437385 0.66549319 -0.13339804 0
1.5611244 0.6825912 -0.12986256 0
1.6608849 0.61965942 -0.12770291 0
1.7449402 0.64662564 -0.12552834 0
1.838625 0.64851296 -0.12284629 0
1.9378351 0.6376102 -0.11922448 0
2.0335453 0.66276246 -0.11615044 0
2.4146419 0.60061562 -0.11103719 0
2.5468025 0.63151956 -0.1080465 0
2.6789627 0.66242343 -0.10505579 0
2.7670698 0.68302608 -0.103062 0
2.8139999 0.69400001 -0.102 0
-2.1056755 0.74724865 -0.19922611 0
-2.0269561 0.77336788 -0.19629583 0
-1.961 0.74849999 -0.19350001 0
-1.4255041 0.76140553 -0.18223557 0
-1.3306713 0.7513603 -0.18008423 0
-1.238 0.73799998 -0.178 0
1.179 0.76300001 -0.139 0
1.2452544 0.74069422 -0.13817982 0
1.367847 0.75964069 -0.13501894 0
1.4656781 0.73315305 -0.13277648 0
1.5568111 0.75359935 -0.12985265 0
1.668314 0.76838022 -0.12663475 0
1.7665595 0.75056118 -0.12400139 0
1.8699718 0.75945866 -0.11955018 0
1.9571701 0.7499007 -0.11954631 0
2.1470847 0.72755527 -0.10600041 0
-2.1145105 0.89346623 -0.19967505 0
-2.0599899 0.84201407 -0.19785677 0
-1.9472984 0.8420462 -0.19338317 0
-1.8715 0.87150002 -0.191 0
-1.6602602 0.89101374 -0.18858892 0
-1.5428822 0.8262096 -0.18541224 0
-1.4662718 0.8775534 -0.18415201 0
-1.3901812 0.83103561 -0.18210134 0
-1.2382201 0.83564943 -0.17869525 0
-1.178 0.866 -0.177 0
1.1796443 0.86197191 -0.1400176 0
1.2499968 0.84843272 -0.13852835 0
1.33858 0.84053409 -0.13581017 0
1.4530549 0.85197932 -0.13233754 0
1.5408285 0.83636087 -0.13055624 0
1.654653 0.8538782 -0.12730779 0
1.7414266 0.84381998 -0.12404653 0
1.8361807 0.85163862 -0.12068671 0
1.9322402 0.83995372 -0.11655569 0
2.0463076 0.85587656 -0.10881517 0
2.1291344 0.89084566 -0.10451896 0
-2.0590525 0.95147401 -0.19819482 0
-1.9534403 0.95631456 -0.19474496 0
-1.8485041 0.95898074 -0.19240119 0
-1.7385123 0.9342165 -0.1907067 0
-1.618453 0.97058904 -0.18825334 0
-1.5423625 0.92407119 -0.18620268 0
-1.42998 0.95084488 -0.18325725 0
-1.3480614 0.94346619 -0.18202664 0
-1.2693094 0.93450022 -0.18124236 0
-1.1553334 0.96966672 -0.17966668 0
1.15723 0.93668443 -0.14015801 0
1.2364163 0.95570141 -0.13823614 0
1.3549068 0.93132401 -0.13538504 0
1.454546 0.9510687 -0.1325855 0
1.5590498 0.97132343 -0.12953387 0
1.6399927 0.95481443 -0.12727711 0
1.7498063 0.93075341 -0.12438148 0
1.8558943 0.91602051 -0.12008206 0
1.9530021 0.95454293 -0.11417449 0
2.0498199 0.97918183 -0.11001045 0
2.2119613 0.92581475 -0.10022275 0
-2.0244148 1.0505228 -0.19837908 0
-1.9732683 1.0638247 -0.19706003 0
-1.8762056 1.0497453 -0.1938415 0
-1.7525448 1.0545415 -0.19011824 0
-1.6945436 1.0171068 -0.19030401 0
-1.5309089 1.0370561 -0.18670981 0
-1.4350066 1.0578648 -0.18576533 0
-1.3623493 1.0288885 -0.18394506 0
-1.2228621 1.0433444 -0.18178459 0
-1.1483833 1.0535195 -0.17998593 0
-1.079 1.064 -0.178 0
1.0813333 1.0443333 -0.14166667 0
1.1427379 1.0514609 -0.13902663 0
1.2586184 1.0418433 -0.13752803 0
1.3462087 1.0550823 -0.13523228 0
1.4652474 1.0445523 -0.13231924 0
1.5537994 1.0636719 -0.12952724 0
1.6444768 1.0495044 -0.12712669 0
1.7538319 1.0476876 -0.12367127 0
1.8512263 1.0500375 -0.12064912 0
1.9386615 1.0719625 -0.11769904 0
2.0563107 1.0417311 -0.1120715 0
2.1478708 1.0551802 -0.10635158 0
2.2577901 1.0889766 -0.10561092 0
3.2820001 1.034 -0.101 0
-1.9476039 1.1403186 -0.19675957 0
-1.8548641 1.1562884 -0.19458091 0
-1.7470968 1.1369913 -0.19113386 0
-1.6375173 1.1490654 -0.19007991 0
-1.5532136 1.1458344 -0.18887843 0
-1.4719846 1.1409982 -0.18809144 0
-1.3349431 1.1670752 -0.18463463 0
-1.246402 1.1438534 -0.18287307 0
-1.1538399 1.1387839 -0.18159799 0
-1.0716954 1.1456403 -0.17910071 0
-1 1.196 -0.178 0
1.0434495 1.1509149 -0.14355001 0
1.1681656 1.1505771 -0.13800848 0
1.2670854 1.1349345 -0.13568209 0
1.3600109 1.1548269 -0.13433342 0
1.4635926 1.1536227 -0.13188127 0
1.5313659 1.1399074 -0.13026087 0
1.6442814 1.1396836 -0.12668914 0
1.7563366 1.1449977 -0.12391704 0
1.8839955 1.1575627 -0.12051384 0
1.9721851 1.1817166 -0.11777803 0
2.0582271 1.1502923 -0.11394715 0
2.1846271 1.1470737 -0.10876753 0
2.2363923 1.1306498 -0.10323519 0
-1.911 1.212 -0.197 0
-1.8508376 1.256934 -0.19549567 0
-1.7581797 1.2348121 -0.19349341 0
-1.6438124 1.243573 -0.19172038 0
-1.567 1.278 -0.18700001 0
-1.4528641 1.260765 -0.18797345 0
-1.3528647 1.2517377 -0.18640222 0
-1.23478 1.2470727 -0.18443471 0
-1.1581724 1.2568414 -0.18160431 0
-1.0568179 1.2631483 -0.18016221 0
-0.96100003 1.268 -0.17900001 0
0.59899998 1.266 -0.15099999 0
0.66387594 1.244283 -0.15044138 0
0.95778275 1.2632675 -0.14423573 0
1.0615004 1.2376306 -0.14255019 0
1.152573 1.2650659 -0.1393234 0
1.2326467 1.2412844 -0.13561647 0
1.3371708 1.2506583 -0.13288006 0
1.4356562 1.2476639 -0.13216315 0
1.5481634 1.2364017 -0.12896679 0
1.6126539 1.2704682 -0.12682697 0
1.7508444 1.2220508 -0.1230674 0
1.8319206 1.2481189 -0.12111715 0
1.9290156 1.2497847 -0.11942689 0
2.0312433 1.2505941 -0.11652076 0
2.1332026 1.2476574 -0.11268483 0
2.21 1.2376667 -0.10933334 0
-1.8345 1.3215001 -0.19599999 0
-1.7659847 1.3704982 -0.19559145 0
-1.6510868 1.3452177 -0.19192912 0
-1.533886 1.3416504 -0.19026923 0
-1.4360917 1.3504695 -0.18951383 0
-1.3496636 1.3521261 -0.18766658 0
-1.2532123 1.3385102 -0.18550926 0
-1.1420445 1.3638709 -0.1834055 0
-1.0144577 1.3374703 -0.18109396 0
-0.95388645 1.3463482 -0.18060422 0
-0.89899999 1.3839999 -0.18099999 0
0.498 1.377 -0.153 0
0.56908184 1.3631123 -0.15252869 0
0.6330049 1.3349352 -0.15053734 0
0.71750373 1.3381315 -0.1487655 0
0.95778382 1.3603423 -0.14481238 0
1.0452117 1.3433995 -0.14194728 0
1.1377417 1.3423793 -0.14011148 0
1.2348658 1.3605727 -0.13613777 0
1.355286 1.3346471 -0.13184349 0
1.4476826 1.3572938 -0.1296782 0
1.5468341 1.3581731 -0.12804583 0
1.6787307 1.3229523 -0.12449045 0
1.7448077 1.3754364 -0.12215394 0
1.8900739 1.3214179 -0.11844568 0
1.9731308 1.3464283 -0.11692573 0
2.081811 1.3688493 -0.11529883 0
2.168 1.3253332 -0.11266667 0
2.2691667 1.3293797 -0.10613167 0
2.3579614 1.3465159 -0.10048315 0
-1.7362796 1.4372377 -0.19527145 0
-1.6665145 1.4580338 -0.19402564 0
-1.5402255 1.4480749 -0.19228691 0
-1.4519045 1.4661739 -0.19117367 0
-1.3620769 1.442373 -0.18926601 0
-1.2272714 1.4645934 -0.1866488 0
-1.1213729 1.476411 -0.18528189 0
-1.0453733 1.4487585 -0.1834913 0
-0.9568848 1.4331812 -0.18191549 0
-0.84600002 1.449 -0.18099999 0
0.44600001 1.444 -0.155 0
0.5251137 1.4550388 -0.15213096 0
0.64066857 1.4361598 -0.15059474 0
0.74275678 1.4368343 -0.14808677 0
1.0500401 1.4513021 -0.13980345 0
1.1361079 1.4365139 -0.13775611 0
1.2365693 1.4513718 -0.13452722 0
1.3430734 1.4552071 -0.13148478 0
1.4666939 1.4442904 -0.12877354 0
1.5402104 1.4482765 -0.12538421 0
1.6433129 1.4518224 -0.12404054 0
1.7968946 1.4504848 -0.12007703 0
1.8583622 1.4312918 -0.1184136 0
1.929 1.4859999 -0.116 0
2.0478489 1.4338418 -0.11248383 0
2.1624336 1.4411514 -0.10994935 0
2.2348673 1.4903028 -0.10489871 0
2.332705 1.4040027 -0.10204351 0
-1.6471868 1.5485878 -0.19555552 0
-1.5455338 1.5597174 -0.19416276 0
-1.4586031 1.5814449 -0.19311506 0
-1.3697121 1.5577072 -0.19089305 0
-1.2805446 1.5653709 -0.1884055 0
-1.163234 1.5690293 -0.18731314 0
-1.0677624 1.5544066 -0.18497689 0
-0.95845687 1.5499469 -0.18284863 0
-0.85828769 1.5512587 -0.1817686 0
-0.77849996 1.5375 -0.18149999 0
0.35800001 1.539 -0.15700001 0
0.45671546 1.5482243 -0.15414533 0
0.55222744 1.5330776 -0.15126194 0
0.64449096 1.5386744 -0.15017216 0
0.74050981 1.5528703 -0.1490747 0
0.89200002 1.508 -0.146 0
0.93321091 1.5829026 -0.14310801 0
1.0659713 1.5312855 -0.14057143 0
1.1442116 1.5569056 -0.13694258 0
1.2571992 1.5500768 -0.13352966 0
1.3731922 1.5583726 -0.1298423 0
1.443028 1.5376464 -0.12786494 0
1.5473772 1.538779 -0.12463389 0
1.6304767 1.5518438 -0.12188837 0
1.751696 1.5600227 -0.11925092 0
1.8746911 1.5138607 -0.11723081 0
1.9494505 1.5719473 -0.10951118 0
2.1670938 1.5180508 -0.10490297 0
2.2386408 1.5685762 -0.10035446 0
-1.5593615 1.6503985 -0.1959628 0
-1.3599173 1.6604308 -0.19169545 0
-1.2377769 1.6541319 -0.1900322 0
-1.1197717 1.6294918 -0.18732148 0
-1.0783067 1.6489577 -0.18500239 0
-0.96939051 1.6506226 -0.18354413 0
-0.83437949 1.6554905 -0.18261127 0
-0.73239261 1.6830808 -0.18151012 0
-0.66733336 1.647 -0.18066667 0
0.25999999 1.6443334 -0.15966667 0
0.32684225 1.6738008 -0.15758005 0
0.4426941 1.6731396 -0.15423568 0
0.53769034 1.6289686 -0.15149583 0
0.66127735 1.6375136 -0.14918835 0
0.82562935 1.6593429 -0.14469734 0
0.9744218 1.6578052 -0.14021602 0
1.0345 1.6615 -0.13749999 0
1.1719561 1.6432624 -0.13481799 0
1.264106 1.672906 -0.13201717 0
1.348797 1.6549309 -0.13007635 0
1.4492023 1.6163881 -0.12692961 0
1.5514046 1.6656345 -0.12336057 0
1.65281 1.6416811 -0.12042508 0
1.737147 1.6435007 -0.11607055 0
1.8531419 1.6330931 -0.11223084 0
1.919631 1.6909119 -0.10643503 0
2.0179009 1.6248946 -0.10202236 0
-1.4442179 1.7629142 -0.19551601 0
-1.3512113 1.7324692 -0.19308434 0
-1.2373068 1.752002 -0.19092894 0
-1.1463573 1.7078073 -0.18757594 0
-1.0252603 1.7419151 -0.18469609 0
-0.92305863 1.754584 -0.18341212 0
-0.87124789 1.7568521 -0.18345545 0
-0.73265755 1.7410821 -0.18170847 0
-0.64451915 1.7655888 -0.18000001 0
-0.56399995 1.7376667 -0.17966668 0
-0.49000001 1.795 -0.17900001 0
0.16431959 1.7604432 -0.1623366 0
0.265681 1.7614752 -0.15896098 0
0.34268451 1.7536016 -0.15666012 0
0.66078424 1.776597 -0.14832743 0
0.75024712 1.7495903 -0.14375621 0
0.84275866 1.7671857 -0.14139467 0
0.95189452 1.7461348 -0.1387435 0
1.0365633 1.7366934 -0.13629672 0
1.1229714 1.7520937 -0.13345128 0
1.2264608 1.7398219 -0.13246869 0
1.3541422 1.7577207 -0.12876232 0
1.4637913 1.7488922 -0.12527649 0
1.5514077 1.7312268 -0.12312943 0
1.6579399 1.7451761 -0.11373644 0
1.7626358 1.7597498 -0.11096203 0
1.8306984 1.7523009 -0.10730622 0
2.0007851 1.7524601 -0.10809327 0
-1.3472553 1.8400147 -0.19448799 0
-1.2696006 1.8428605 -0.19281259 0
-0.92422128 1.822601 -0.18398021 0
-0.82700002 1.8789999 -0.183 0
-0.74967736 1.8350625 -0.18144125 0
-0.67253828 1.8396775 -0.18000001 0
-0.55644202 1.8546994 -0.17908914 0
-0.44173947 1.8386399 -0.17666666 0
-0.34450001 1.8575001 -0.17399999 0
-0.28334105 1.8962969 -0.17345473 0
0.14461942 1.8696507 -0.16275202 0
0.25511506 1.8420986 -0.15916429 0
0.35677797 1.8598596 -0.15594749 0
0.56050003 1.8399999 -0.15000001 0
0.65399998 1.826 -0.148 0
0.74948716 1.8736486 -0.13994074 0
0.83266753 1.8534794 -0.13938071 0
0.91377592 1.8460573 -0.13818404 0
1.055492 1.846221 -0.13364869 0
1.1454707 1.8461939 -0.13074993 0
1.2763269 1.8077509 -0.13011374 0
1.3254967 1.8567151 -0.1285044 0
1.424533 1.834295 -0.12325057 0
1.5723473 1.8469801 -0.10922663 0
1.6511275 1.8403112 -0.11329359 0
1.8511426 1.8645142 -0.10805257 0
1.9156568 1.8576841 -0.10762669 0
2.0686114 1.8120973 -0.10510659 0
2.1364379 1.8717344 -0.10211992 0
-0.76490331 1.9280065 -0.18159233 0
-0.64727879 1.9513813 -0.17977272 0
-0.55751359 1.9609352 -0.17824647 0
-0.45068297 1.940979 -0.17568517 0
-0.3595961 1.9638228 -0.17339358 0
-0.28600001 1.9220001 -0.177 0
-0.045000002 1.988 -0.168 0
0.093000002 1.92 -0.164 0
0.16486478 1.9664809 -0.16075081 0
0.25786436 1.9547297 -0.15456536 0
0.33123371 1.9578105 -0.15599197 0
0.44300571 1.957209 -0.15256402 0
0.56629825 1.9204991 -0.14875132 0
0.65488416 1.9208968 -0.14340863 0
0.73095608 1.9722791 -0.13869213 0
0.84980875 1.941779 -0.13513243 0
0.94986743 1.9669628 -0.13561897 0
1.0712616 1.9509437 -0.13120453 0
1.1636205 1.9505656 -0.1278629 0
1.2589145 1.9562809 -0.12635386 0
1.3772883 1.9563488 -0.11528173 0
1.4982145 1.9273586 -0.1122034 0
1.548 1.978 -0.117 0
1.74032 1.9338452 -0.11321478 0
1.9457909 1.9594791 -0.10298778 0
-0.83064997 2.0680139 -0.18298353 0
-0.71009386 2.03879 -0.18000001 0
-0.66801274 2.0730412 -0.17945449 0
-0.55236858 2.0363612 -0.17747882 0
-0.43225408 2.0666513 -0.17380071 0
-0.34074408 2.0700428 -0.17201422 0
-0.061828934 2.0487983 -0.16762409 0
0.058815736 2.0129764 -0.16476892 0
0.15247557 2.0662737 -0.16006741 0
0.24682891 2.0594254 -0.15359257 0
0.3441191 2.0574417 -0.15474488 0
0.45136446 2.0396481 -0.14920805 0
0.55838889 2.0557554 -0.14139436 0
0.64729267 2.0535896 -0.13959645 0
0.76093411 2.0554185 -0.13403818 0
0.86860466 2.0403318 -0.12860008 0
0.9526996 2.0586224 -0.13707297 0
1.011 2.052 -0.131 0
1.1403333 2.0340002 -0.12733334 0
1.2342348 2.0156972 -0.1241736 0
1.304 2.0239999 -0.124 0
1.43274 2.0116453 -0.12101318 0
-1.1359999 2.1925001 -0.18849999 0
-0.86317998 2.1520166 -0.18338025 0
-0.73786736 2.1219876 -0.18000001 0
-0.69351596 2.1555517 -0.1793181 0
-0.58355284 2.157042 -0.17671822 0
-0.4454022 2.1566806 -0.17309371 0
-0.064297177 2.1393943 -0.16692261 0
0.040661246 2.1489446 -0.16441275 0
0.14849277 2.1730649 -0.15592432 0
0.24217494 2.1446924 -0.15335166 0
0.34460106 2.1542804 -0.14829619 0
0.46872896 2.1257963 -0.14441611 0
0.52426624 2.1762559 -0.13869433 0
0.63789511 2.1749828 -0.13450238 0
0.74153674 2.1710873 -0.12963453 0
0.84491533 2.1242595 -0.12673467 0
0.95921016 2.1489398 -0.12676787 0
1.033389 2.1576068 -0.12947209 0
1.1625075 2.1161454 -0.11508615 0
1.2030151 2.1942909 -0.10217229 0
-1.2113974 2.2691507 -0.18877038 0
-1.1455741 2.2721078 -0.18778734 0
-0.89570999 2.2360194 -0.18377694 0
-0.75935811 2.2438765 -0.17972724 0
-0.61299998 2.2709999 -0.176 0
-0.44181764 2.2458661 -0.17347777 0
-0.074788906 2.2502553 -0.166163 0
0.042322483 2.2833893 -0.16332549 0
0.15488896 2.2624054 -0.15284835 0
0.25201875 2.2332458 -0.15028721 0
0.34600911 2.240087 -0.14513451 0
0.43532604 2.2392106 -0.14165559 0
0.54502159 2.2618413 -0.13392578 0
0.66176075 2.2598107 -0.12975273 0
0.77042091 2.2544842 -0.12504315 0
0.85817528 2.2422938 -0.12244255 0
0.95028424 2.2646196 -0.11703917 0
1.0945559 2.2124271 -0.11688834 0
1.1363337 2.2926407 -0.10983253 0
-1.2547947 2.3463018 -0.18854077 0
-1.1871482 2.3512156 -0.18757468 0
-0.92824 2.3200221 -0.18417366 0
-0.82309389 2.37729 -0.18000001 0
-0.74876118 2.3342862 -0.17902267 0
-0.4586353 2.3347318 -0.17395554 0
-0.071372971 2.3658838 -0.16519412 0
0.043429978 2.3730192 -0.16260067 0
0.16128519 2.3517458 -0.14977239 0
0.26621386 2.335434 -0.14192718 0
0.35840991 2.340095 -0.14446786 0
0.45091146 2.3250003 -0.13691135 0
0.565777 2.3474264 -0.12915723 0
0.65857857 2.3469884 -0.12501591 0
0.7415967 2.3460755 -0.12293008 0
0.82809079 2.3258991 -0.12003361 0
0.9403435 2.3748708 -0.11352861 0
1.0316408 2.3622122 -0.11097266 0
1.1781117 2.3728542 -0.1027767 0
-1.8461201 2.4914241 -0.19097263 0
-1.794 2.418 -0.18799999 0
-1.2634573 2.426888 -0.18783659 0
-0.98651749 2.4705131 -0.18488435 0
-0.47545293 2.4235978 -0.17443332 0
-0.073841222 2.4564795 -0.16449267 0
0.044537473 2.4626489 -0.16187583 0
0.1580447 2.4477484 -0.14727995 0
0.25078192 2.4332047 -0.13941413 0
0.34836823 2.4374788 -0.13923541 0
0.44264147 2.4326725 -0.14309694 0
0.53818679 2.4703887 -0.12524831 0
0.64486408 2.424407 -0.12226401 0
0.76854074 2.4296429 -0.11816826 0
0.8716135 2.4508741 -0.113042 0
0.93552756 2.4497004 -0.11082553 0
1.0452291 2.4742258 -0.10598281 0
-1.8982403 2.5648479 -0.19394526 0
-1.346149 2.5556324 -0.1876234 0
-1.2601483 2.5517159 -0.18757468 0
-1.054496 2.5569077 -0.18130448 0
-0.49227056 2.5124638 -0.1749111 0
-0.10367177 2.562572 -0.16409342 0
-0.048947152 2.531579 -0.16348897 0
0.045644969 2.5522788 -0.16115099 0
0.1642132 2.537334 -0.14447486 0
0.24944389 2.5502579 -0.14325668 0
0.34438863 2.542906 -0.1345477 0
0.44203877 2.5661883 -0.13335052 0
0.55555129 2.5565369 -0.12045638 0
0.64319146 2.5435343 -0.11701182 0
0.75157183 2.5405295 -0.11366918 0
0.84000856 2.5516055 -0.1099422 0
0.93200004 2.5295 -0.1075 0
-1.9503604 2.638272 -0.19691789 0
-1.4283843 2.6549056 -0.18762231 0
-1.3534448 2.6676469 -0.18672407 0
-1.2849978 2.6689954 -0.18782759 0
-1.130116 2.6575642 -0.18652754 0
-1.0619842 2.6626301 -0.16821791 0
-0.51749706 2.6457624 -0.17562777 0
-0.1079504 2.6531672 -0.16344233 0
-0.049605012 2.6221757 -0.16273713 0
0.046752464 2.6419084 -0.16042615 0
0.17038168 2.6269195 -0.14166977 0
0.26253051 2.6828442 -0.13863967 0
0.3566758 2.6603043 -0.14046457 0
0.45029804 2.6573875 -0.1315206 0
0.54674137 2.6750541 -0.11565252 0
0.63106978 2.6416526 -0.11300477 0
0.7276839 2.6099916 -0.11126193 0
-2.0024805 2.7116959 -0.19989052 0
-1.4717817 2.7320564 -0.1873927 0
-1.3575072 2.7453728 -0.1870833 0
-1.1802318 2.7801285 -0.18705507 0
-1.0949762 2.7464454 -0.15982686 0
-0.54272348 2.7790616 -0.17634441 0
-0.11222903 2.7437625 -0.16279124 0
-0.050262868 2.7127721 -0.16198529 0
0.047859959 2.7315383 -0.15970132 0
0.16690318 2.720412 -0.132945 0
0.23123693 2.7509146 -0.14883709 0
0.31870651 2.7445941 -0.13958794 0
0.46000001 2.733 -0.1175 0
0.65726483 2.724555 -0.10097702 0
-1.5305896 2.8366036 -0.18708155 0
-1.4365931 2.8258626 -0.18629876 0
-1.3724923 2.8564835 -0.18739659 0
-1.2136425 2.8618379 -0.18740676 0
-1.1279683 2.8302605 -0.15143581 0
-0.55954111 2.8679276 -0.17682219 0
-0.11650766 2.8343577 -0.16214013 0
-0.051249657 2.8486667 -0.16085753 0
0.060311634 2.8341119 -0.15865099 0
0.1705745 2.8378303 -0.1328811 0
0.242 2.8469999 -0.124 0
0.30700001 2.819 -0.122 0
-1.4660521 2.9369824 -0.18640803 0
-1.247053 2.9435472 -0.18775845 0
-1.1774564 2.9559832 -0.13884924 0
-0.5763588 2.9567933 -0.17729996 0
-0.12239315 2.9589767 -0.16124451 0
-0.052000001 2.9519999 -0.16 0
0.016000001 2.901 -0.15899999 0
0.18009441 2.9687533 -0.11133923 0
0.25210574 2.9296105 -0.11293179 0
0.31546089 2.9052029 -0.10802115 0
-1.4529999 3.029 -0.18700001 0
-1.2537041 3.0534813 -0.1571864 0
-0.60100001 3.0869999 -0.178 0
-0.59317642 3.0456593 -0.17777774 0
-0.273 3.099 -0.164 0
-0.14 3.0510001 -0.118 0
0.2622115 3.0122209 -0.10186359 0
-1.3305795 3.1478209 -0.18863767 0
-1.2599366 3.1655211 -0.11787162 0
-0.477 3.1659999 -0.17900001 0
-0.27933493 3.1867225 -0.14875323 0
-0.14597113 3.1366789 -0.11175114 0
-1.365 3.2320001 -0.189 0
-1.2929287 3.2493362 -0.10948057 0
-0.48811901 3.2555172 -0.17080209 0
-0.375 3.2130001 -0.13500001 0
-0.28566986 3.2744453 -0.13350646 0
-0.15194227 3.2223577 -0.10550228 0
-1.3259208 3.3331513 -0.10108952 0
-0.49923801 3.3450348 -0.16260418 0
-0.39311922 3.3445759 -0.12687176 0
-0.29200476 3.3621678 -0.11825968 0
-0.51035702 3.4345522 -0.15440626 0
-0.41123843 3.4761519 -0.11874352 0
-0.29833969 3.4498904 -0.1030129 0
-0.52147603 3.5240698 -0.14620836 0
-0.42331788 3.5638692 -0.11332469 0
-0.53259504 3.6135871 -0.13801044 0
-0.43539736 3.6515865 -0.10790586 0
-0.54927355 3.7478633 -0.12571359 0
-0.44747683 3.7393038 -0.10248703 0
-0.56595206 3.8821394 -0.11341671 0
-0.57707107 3.971657 -0.1052188 0
-0.75999999 -5.0219998 -0.037999995 0
-0.74954885 -4.9528775 -0.046692044 0
-0.73661327 -4.8673234 -0.057450324 0
-0.72367775 -4.7817698 -0.068208605 0
-0.71074218 -4.6962156 -0.078966886 0
-0.69780666 -4.610662 -0.089725167 0
-0.45100001 -4.0110002 -0.046999998 0
-0.43676636 -3.9299016 -0.033428393 0
-0.42253274 -3.8488028 -0.019856786 0
-0.40829909 -3.7677042 -0.0062851794 0
-0.204 -3.549 -0.016000001 0
-0.19903842 -3.4673114 -0.0074944468 0
0.78062493 -3.1569018 -0.010990806 0
-0.048999999 -3.0071456 -0.071510985 0
0.76067185 -3.0699141 -0.023866951 0
0.98605108 -3.0658867 -0.0086156055 0
-0.048999999 -2.9168212 -0.081018835 0
0.74071872 -2.9829264 -0.036743104 0
0.94896877 -2.9418397 -0.029697973 0
1.0638494 -2.951441 -0.0015921742 0
1.227 -2.9449999 -0.042000003 0
-0.048999999 -2.831351 -0.090015694 0
0.71078902 -2.8524446 -0.056057326 0
0.91188633 -2.8177924 -0.050780348 0
1.0330884 -2.8675032 -0.014304161 0
1.1653122 -2.8019557 -0.054873988 0
1.2007262 -2.8840752 -0.047483236 0
-0.048999999 -2.7458808 -0.099012554 0
0.68085933 -2.7219632 -0.075371549 0
0.88716477 -2.7350943 -0.064835265 0
1.0023273 -2.7835653 -0.027016141 0
1.1298982 -2.7198362 -0.06226474 0
1.2174854 -2.7717633 -0.00099541247 0
1.439 -2.72 -0.041000001 0
0.66090626 -2.6349754 -0.088247702 0
0.86244321 -2.6523962 -0.078890175 0
0.9561857 -2.6576586 -0.046084113 0
1.0944841 -2.6377168 -0.069655493 0
1.1560255 -2.6581588 -0.018642226 0
1.2634492 -2.6541786 -0.0066565326 0
1.4530271 -2.6480086 -0.044888586 0
1.536 -2.608 -0.041000001 0
0.83772159 -2.5696981 -0.092945084 0
0.91004419 -2.5317516 -0.065152079 0
1.0632212 -2.5326061 -0.058623426 0
1.1495728 -2.5456607 -0.033062093 0
1.245152 -2.5684586 -0.021225676 0
1.3521086 -2.5520337 -0.028845733 0
1.4173154 -2.5371783 -0.054798421 0
1.5104785 -2.5645733 -0.045743532 0
1.638 -2.51 -0.041000001 0
0.87928313 -2.4478137 -0.077864058 0
1.0463856 -2.4545681 -0.078234091 0
1.1268178 -2.4421861 -0.066278614 0
1.2598135 -2.4444118 -0.047549009 0
1.3495541 -2.4512806 -0.039650608 0
1.4508905 -2.4370599 -0.045358766 0
1.5432085 -2.4411683 -0.019213649 0
1.6560363 -2.4556732 -0.043652967 0
1.7359999 -2.4130001 -0.042000003 0
-2.3314445 -2.3423862 -0.092773773 0
0.84852207 -2.3638759 -0.090576038 0
0.97855061 -2.3487802 -0.086504437 0
1.0617414 -2.3564751 -0.069486931 0
1.160372 -2.3454578 -0.075347707 0
1.2608079 -2.33706 -0.064707056 0
1.3540123 -2.3602607 -0.070865721 0
1.4519629 -2.3456721 -0.03129065 0
1.5205522 -2.3520272 -0.040727969 0
1.6498617 -2.3426914 -0.037509639 0
1.7533571 -2.3595707 -0.044082567 0
1.829 -2.3110001 -0.042000003 0
-2.2329969 -2.2411389 -0.073955163 0
0.96293592 -2.2348263 -0.090799868 0
1.0430326 -2.2763233 -0.08330559 0
1.1504174 -2.2393095 -0.075516097 0
1.2282389 -2.2523181 -0.080490656 0
1.3653742 -2.2442276 -0.061447289 0
1.4529309 -2.2667987 -0.049070932 0
1.5514669 -2.2369382 -0.055532098 0
1.61833 -2.2661333 -0.04105423 0
1.7345495 -2.2425678 -0.053315505 0
1.8562042 -2.2488763 -0.04849916 0
1.921 -2.2119999 -0.043000005 0
0.92179072 -2.1818714 -0.09673354 0
1.0390643 -2.1785967 -0.097522356 0
1.1572356 -2.1665099 -0.090930343 0
1.264294 -2.1463447 -0.091028556 0
1.3476429 -2.154115 -0.076616108 0
1.4457772 -2.1595051 -0.078739725 0
1.5444677 -2.1596687 -0.059986889 0
1.6336787 -2.1612167 -0.066045552 0
1.7399981 -2.1505628 -0.052466176 0
1.8343943 -2.1476769 -0.065315761 0
1.9481916 -2.1520875 -0.04209765 0
1.1578538 -2.0992315 -0.095907435 0
1.2773222 -2.0358429 -0.090740018 0
1.3555195 -2.0685759 -0.093475834 0
1.4387721 -2.0408082 -0.083215788 0
1.5471293 -2.0571079 -0.085588843 0
1.6625379 -2.0616491 -0.067120664 0
1.7601271 -2.0531237 -0.077252455 0
1.8561442 -2.0546458 -0.0526991 0
1.9513788 -2.0473373 -0.055083551 0
2.0325811 -2.0601323 -0.052144326 0
1.2403219 -1.9935994 -0.097993687 0
1.3741022 -1.9645159 -0.094294362 0
1.4454225 -1.9311427 -0.097353972 0
1.5423448 -1.9424019 -0.086687922 0
1.6521755 -1.9530897 -0.083432995 0
1.7524704 -1.9545139 -0.071082264 0
1.8696133 -1.9634972 -0.050568178 0
1.9431266 -1.9604568 -0.044940043 0
2.0685296 -1.9378704 -0.041789889 0
2.1541827 -1.9400408 -0.031379443 0
2.207 -1.902 -0.037999995 0
1.4945679 -1.8657225 -0.098656304 0
1.5568459 -1.8738835 -0.093002059 0
1.6395563 -1.8479354 -0.09120588 0
1.7465893 -1.8487608 -0.078804538 0
1.8458177 -1.8666072 -0.07770586 0
1.9454856 -1.8493991 -0.06172359 0
2.0502887 -1.8393087 -0.047731698 0
2.1596892 -1.8632269 -0.035287865 0
2.2441828 -1.8378664 -0.028652443 0
1.5663655 -1.7952286 -0.096801385 0
1.6367116 -1.7469453 -0.094761133 0
1.7476435 -1.7566831 -0.085201465 0
1.8677931 -1.7441477 -0.073437437 0
1.9447629 -1.7472045 -0.066655077 0
2.0495074 -1.7423828 -0.057057537 0
2.1475146 -1.7552376 -0.043042805 0
2.2408812 -1.7804315 -0.02716507 0
2.3805001 -1.71 -0.026999999 0
1.6711297 -1.6698902 -0.08589828 0
1.7536932 -1.6450046 -0.093268938 0
1.8499961 -1.6480293 -0.08363983 0
1.9414933 -1.6408417 -0.074648507 0
2.0263164 -1.6364055 -0.06474214 0
2.1056609 -1.6690736 -0.049623802 0
2.2584004 -1.6237658 -0.046486586 0
2.3344173 -1.6504077 -0.036253974 0
2.4200742 -1.6566476 -0.028261662 0
1.7708559 -1.5727624 -0.095309429 0
1.8507425 -1.552971 -0.093070269 0
1.9366355 -1.5298762 -0.077697217 0
2.1529107 -1.5493608 -0.06341058 0
2.2372737 -1.5282687 -0.053100184 0
1.8233266 -1.4693623 -0.096096858 0
1.9770945 -1.4253522 -0.091617234 0
2.0504138 -1.4503845 -0.07944873 0
2.1287491 -1.4520528 -0.067846298 0
1.8945363 -1.3524976 -0.096799798 0
1.9840494 -1.3504317 -0.087507777 0
1.9116997 -1.2996211 -0.09733852 0
3.5703912 -0.61065936 -0.086565092 0
3.6475866 -0.62348908 -0.086347647 0
3.7478909 -0.64015937 -0.086065099 0
3.4545977 -0.59141481 -0.086891271 0
3.434 -0.34900001 -0.090999998 0
3.5447764 -0.35291436 -0.089434251 0
3.6571677 -0.33189756 -0.087137468 0
3.7328553 -0.33681095 -0.085104287 0
3.8386381 -0.3222774 -0.080010712 0
3.9285657 -0.32993287 -0.076812856 0
4.0184932 -0.33758834 -0.073615 0
4.1533847 -0.34907156 -0.068818212 0
4.2882762 -0.36055475 -0.064021431 0
4.3169999 -0.36300001 -0.063000001 0
3.3889999 -0.28400001 -0.096000001 0
3.4789276 -0.29165548 -0.092802145 0
3.5688553 -0.29931095 -0.089604288 0
3.3870001 -0.112 -0.094999999 0
3.4723375 -0.10995074 -0.094707251 0
3.5576746 -0.10790147 -0.094414495 0
3.643012 -0.1058522 -0.094121747 0
3.7283492 -0.10380293 -0.093828991 0
3.8136866 -0.10175367 -0.093536243 0
3.4475989 -0.060197461 -0.093019105 0
3.5186975 -0.084894925 -0.084038213 0
3.8990238 -0.0997044 -0.093243487 0
3.97 -0.097999997 -0.093000002 0
3.49 0.085000001 -0.085000001 0
3.5694015 0.086028516 -0.086851329 0
3.6488028 0.087057032 -0.088702656 0
3.7282043 0.088085555 -0.090553984 0
3.8418028 0.089557037 -0.093202651 0
3.3659999 0.18000001 -0.094999999 0
3.4540813 0.18295179 -0.091693997 0
3.5421627 0.18590358 -0.088387989 0
3.6302443 0.18885538 -0.085081987 0
3.7183256 0.19180717 -0.081775986 0
3.8504477 0.19623485 -0.076816976 0
3.4649999 0.25099999 -0.085000001 0
3.550391 0.25717112 -0.082560256 0
3.6357822 0.26334223 -0.080120511 0
3.7211733 0.26951337 -0.077680767 0
3.8492599 0.27877003 -0.074021146 0
3.9799581 0.24434462 -0.071109749 0
4.0653257 0.24880716 -0.068275988 0
4.112 0.205 -0.067000002 0
3.28 0.40099999 -0.093999997 0
3.3670673 0.40924454 -0.09100198 0
3.4541347 0.41748908 -0.088003963 0
3.5412023 0.42573363 -0.085005946 0
3.6282697 0.4339782 -0.08200793 0
3.715337 0.44222274 -0.079009913 0
3.8459382 0.45458955 -0.074512884 0
3.9767697 0.46697819 -0.070007935 0
3.2490001 0.62699997 -0.094999999 0
3.3385651 0.64160395 -0.093705975 0
3.4281299 0.65620798 -0.09241195 0
3.517695 0.67081195 -0.091117926 0
3.6072598 0.68541592 -0.089823902 0
2.2747796 0.77174032 -0.099667221 0
3.6968248 0.7000199 -0.088529877 0
3.7863896 0.71462393 -0.087235853 0
3.8759546 0.7292279 -0.085941829 0
3.9655194 0.74383187 -0.084647804 0
4.0550842 0.7584359 -0.083353788 0
4.1446495 0.77303988 -0.082059756 0
4.2179999 0.78500003 -0.081 0
2.3599095 0.80119705 -0.095445089 0
2.4450395 0.83065379 -0.091222957 0
2.5301695 0.86011046 -0.087000832 0
2.6231496 0.89228356 -0.082389355 0
3.27 0.86699998 -0.097999997 0
3.3558309 0.88569582 -0.096300378 0
2.2947881 0.9607839 -0.095926546 0
2.377615 0.99575305 -0.09163034 0
3.4416616 0.90439165 -0.094600759 0
3.5274925 0.92308748 -0.09290114 0
3.6562386 0.95113122 -0.090351701 0
3.7849851 0.97917497 -0.087802276 0
3.8708158 0.9978708 -0.086102657 0
2.2403703 1.0631754 -0.097345032 0
2.4604418 1.0307221 -0.087334126 0
2.5436344 1.0658456 -0.083018959 0
3.3765244 1.0341122 -0.087455623 0
3.4596007 1.0606819 -0.081638813 0
3.5452063 1.0648293 -0.086910263 0
3.6253095 1.0927441 -0.087365396 0
3.9668231 1.0187833 -0.084201515 0
2.3366044 1.1508403 -0.094142459 0
2.4440739 1.1596665 -0.087111115 0
2.506 1.189 -0.083999999 0
3.5401473 1.1096737 -0.064733729 0
3.6261964 1.1348983 -0.052644968 0
3.7503672 1.1536757 -0.06127996 0
3.8656187 1.1764883 -0.08873079 0
3.9130001 1.193 -0.089000002 0
2.463177 1.2374494 -0.088705555 0
2.5411761 1.2523924 -0.082587905 0
2.6690576 1.2613542 -0.067527436 0
2.7505863 1.2975312 -0.059291154 0
3.8843436 1.210572 -0.016378693 0
3.9703927 1.2357967 -0.0042899325 0
2.4349422 1.3917738 -0.095724717 0
2.5978887 1.3023354 -0.085388295 0
2.6777775 1.3386707 -0.084776588 0
2.7576663 1.375006 -0.084164888 0
2.8321152 1.3337084 -0.051054869 0
2.9136438 1.3698854 -0.042818591 0
2.445734 1.4737548 -0.094576135 0
2.5504136 1.4596608 -0.088587075 0
2.8375552 1.4113413 -0.08355318 0
2.9699831 1.4459171 -0.066617846 0
3.0767014 1.4422396 -0.026346024 0
3.1582303 1.4784167 -0.018109739 0
2.3435178 1.5640301 -0.097322732 0
2.5587628 1.5435067 -0.087108769 0
2.6500001 1.5587778 -0.081789985 0
2.7428653 1.5728055 -0.076691017 0
3.0772214 1.5203472 -0.081718057 0
3.1640551 1.5598413 -0.081053175 0
3.2638795 1.5252969 -0.00743673 0
2.0863514 1.6778419 -0.094533533 0
2.3459611 1.6443644 -0.093531683 0
2.4521685 1.6377572 -0.089746751 0
2.5246022 1.6869087 -0.084696099 0
2.7471442 1.6597602 -0.074663147 0
2.8583364 1.6406924 -0.069553375 0
2.9319999 1.684 -0.064999998 0
1.9402568 1.7593998 -0.095919035 0
2.1548018 1.7307892 -0.087044716 0
2.2232523 1.7837365 -0.079555899 0
2.4532814 1.7201524 -0.086708903 0
2.5609322 1.753369 -0.080902919 0
2.6737347 1.7881057 -0.074297398 0
2.848 1.722 -0.068000004 0
1.7324178 1.8496619 -0.093923509 0
1.8373039 1.8316188 -0.097569063 0
1.9489689 1.8535868 -0.091058642 0
2.0358522 1.8453326 -0.084834188 0
2.1017585 1.857002 -0.075975306 0
2.2917027 1.8366838 -0.072067074 0
2.3601532 1.889631 -0.06457825 0
2.483 1.891 -0.063000001 0
2.5963755 1.8212032 -0.077611879 0
2.6059999 1.8279999 -0.077 0
1.6516945 1.9439601 -0.09445326 0
1.7376595 1.9494855 -0.090860024 0
1.8437095 1.9248666 -0.083340846 0
1.9575064 1.9516978 -0.082281783 0
2.0729532 1.9708802 -0.076837957 0
2.1669102 1.9130024 -0.06737037 0
2.2298315 1.9603436 -0.07797467 0
2.4184999 1.9295001 -0.035999998 0
2.5292892 1.9666371 -0.028441984 0
2.6252916 1.9941558 -0.03902081 0
1.4416317 2.0659709 -0.092323236 0
1.5710807 2.0395021 -0.087119699 0
1.7310419 2.04094 -0.079679891 0
1.8478174 2.0238657 -0.071252108 0
1.960314 2.04705 -0.064261273 0
2.0266299 2.0502632 -0.088537075 0
2.131784 2.0263824 -0.070130847 0
2.6964374 2.0457337 -0.027031217 0
2.7675831 2.0973115 -0.01504162 0
1.4865088 2.1349614 -0.079764314 0
1.644401 2.1395743 -0.070028141 0
1.8507897 2.1343219 -0.07141903 0
1.967 2.1010001 -0.048 0
2.1628816 2.1090112 -0.056574292 0
2.2257631 2.1730225 -0.044148587 0
2.8387289 2.1488893 -0.0030520298 0
1.2435226 2.2724361 -0.08925844 0
1.5531931 2.2374759 -0.061102699 0
1.6864271 2.2147629 -0.072211258 0
1.7243592 2.2977779 -0.092797123 0
1.9384215 2.2399757 -0.087606311 0
2.2886448 2.2370336 -0.031722877 0
1.2840302 2.3505816 -0.076344579 0
1.7787185 2.3675556 -0.085594244 0
2.0268428 2.3399513 -0.07621263 0
2.3515263 2.3010449 -0.019297171 0
2.414408 2.365056 -0.0068714619 0
