# .PCD v0.7 - Point Cloud Data file format
VERSION 0.7
FIELDS x y z intensity
SIZE 4 4 4 4
TYPE F F F F
COUNT 1 1 1 1
WIDTH 429
HEIGHT 1
VIEWPOINT 0 0 0 1 0 0 0
POINTS 429
DATA ascii
-40.157211 10.621478 11.869159 12
-40.115112 10.768786 13.486912 13
-39.927319 10.192911 12.619038 12
-39.849663 11.03714 12.700433 12
-39.888126 11.092702 13.936293 13
-34.917198 11.553009 11.184097 12
-35.049492 11.129695 11.848819 13
-34.90712 11.467166 12.371685 13
-33.823185 12.399047 6.8030877 9
-33.802021 12.481142 10.260544 12
-33.66058 12.622827 12.058885 13
-33.592987 12.603616 6.2014236 8
-33.502838 12.784854 7.6497693 9
-33.459522 12.826241 10.846374 12
-33.587719 12.779356 12.105432 13
-33.564034 12.834613 13.13197 14
-33.147755 13.141616 10.147557 12
-32.823704 13.462986 10.718704 12
-33.045296 13.232582 11.879459 13
-32.956474 13.449779 13.015588 14
-32.514648 13.799517 10.043825 12
-32.623528 13.72402 11.23894 12
-32.488892 13.852336 11.725404 13
-32.206039 14.097107 10.596272 12
-32.373894 14.069749 11.896389 13
-32.391834 14.074697 12.922491 14
-31.915716 14.447122 9.9574699 12
-31.623508 14.723937 10.492198 12
-31.889965 14.448631 11.559382 13
-31.727762 14.669702 11.78413 13
-31.443081 14.945214 10.975878 12
-23.229656 8.8323078 3.8920949 8
-23.045523 9.0969696 3.9193406 8
-13.811003 -16.031334 -0.22456755 3
-13.04997 -16.877743 -0.1615939 3
-12.512519 11.199001 0.35635713 4
-12.559058 11.104416 0.60899639 4.5
-12.594068 11.063659 0.87284273 5
-12.678436 10.996829 1.5140157 6
-9.9598217 13.410288 -0.070182659 3
-9.6197262 -13.823568 0.29240134 3
-9.0909281 3.3107572 -0.25416824 2
-8.8584881 4.0380836 0.58997279 5
-8.7129202 4.1565623 0.27223703 4
-8.7826977 4.1166105 0.52209359 5
-8.3050365 4.2633305 1.4307873 8
-8.2512245 4.295156 1.7203358 9
-8.1693611 13.470397 2.2634573 7.6666665
-8.0776911 4.2729096 2.7206233 12
-8.0737896 4.5452166 2.6170285 12
-8.1328897 4.2965255 2.99827 12.75
-8.0262146 4.4625854 2.9532731 13
-8.0830517 4.3316684 3.3443229 14
-8.0144653 13.674023 3.4223762 10
-7.8756218 13.558157 2.255404 8
-7.8134499 4.7039533 2.6651137 12
-7.8235054 4.6431007 2.9807622 13
-7.8825612 13.618153 3.0082262 9
-7.7960033 4.6342664 3.3121917 14
-7.3844223 6.6790738 -0.19298998 3
-7.2320576 -11.431983 0.24098903 3
-6.954215 3.8769598 -0.10729326 2.5
-6.9756994 3.767575 0.19669928 3.75
-7.0428967 3.5999577 0.4772647 5
-6.912961 3.8157713 0.44020256 5
-6.8057895 4.1065345 0.47921857 5
-6.9806776 4.1131568 0.97504216 7
-6.7142024 5.5260406 -0.14343445 3
-6.4624491 5.1900697 0.16709608 4
-6.411799 5.2118955 0.24777703 4
-6.3507519 5.3068991 -0.015935121 3
-6.0024123 6.6325631 -0.030060066 3
-6.3463826 5.266892 0.29824087 4.5
-6.399199 5.1897335 0.44583273 5
-5.7242069 6.9477439 -0.034263711 3
-5.5440273 -1.3594724 -0.12766896 2
-4.9384007 -0.9359991 -0.201159 2
-4.6563292 -2.9763207 -0.2076164 2
-4.5180116 -0.65101767 -0.20021392 2
-4.7971039 1.4114708 -0.24188122 2
-4.5268388 -8.6517944 0.71362948 5
-4.5226722 -8.6288595 1.0373859 6
-4.4594007 -8.5489588 1.265203 7
-4.4333081 -8.5174332 1.6977532 8
-4.118475 -2.2472198 -0.18960644 2
-4.1042504 -1.8825843 -0.19586997 2
-4.307662 -0.42782366 -0.19442935 2
-4.2178488 -0.27379531 -0.09941192 2.5
-4.283412 6.3847785 -0.30258682 2
-4.0142093 -0.98731685 0.018935176 3
-4.0544786 -0.54372364 0.242116 5
-4.2572379 -0.34744543 0.14234173 4
-4.0332103 -0.56511045 0.5107134 6.5
-4.3408337 -8.4181366 1.9212003 9
-3.9356902 -0.98310715 -0.20457505 1
-3.7503209 2.5953681 -0.25111541 2
-3.6683385 3.4600821 -0.17710015 2.3333333
-3.6509342 -0.94471246 0.22920547 5
-3.8925905 -0.70500094 0.24029095 5
-3.6794283 3.4033835 0.2359819 4.5
-3.7552717 -0.85076165 0.41417533 6
-3.8791809 -0.72286808 0.51306635 6.6666665
-3.6980917 3.3847268 0.67637396 7.2857141
-3.656543 3.6448665 0.72750205 7.5
-3.6466675 3.488081 0.87037808 8.5
-3.6489367 3.6478872 0.80171233 8
-3.3024445 -7.2934976 -0.095669493 3
-3.5111845 -0.70993239 -0.18658172 1
-3.5905285 2.8736579 -0.26014608 2
-3.2721505 3.541853 -0.24921352 2
-3.3174851 -3.7759562 0.21241949 4
-3.3025112 -1.3183736 0.19928819 4.8333335
-3.5045719 -1.1023928 0.23071225 5
-3.575722 3.4314735 0.23533902 5
-3.3091917 -1.3122637 0.59198552 8.333333
-3.4958909 -1.1167527 0.5891757 7.75
-3.5991144 3.4957144 0.44815892 6
-2.8863177 -4.416575 -0.12324255 2
-3.0001137 -2.9970853 -0.15355293 2
-2.9763145 -1.3846468 -0.20027044 1
-2.9720843 3.5315773 -0.23916852 2
-3.1244328 -2.0090981 0.013879268 3
-2.9462242 -1.6853122 0.23029239 5.1999998
-3.1374373 -1.5039608 0.20470461 5
-2.928853 -1.7030993 0.64811724 8.833333
-3.1222398 -1.5139638 0.6133737 8.5
-2.7125454 -6.8302617 -0.047952596 3
-2.7292638 -3.787672 -0.10073784 2
-2.583626 -3.0697064 -0.14660271 2
-2.4137492 -2.4818051 -0.1612099 1
-2.5160706 -2.1386991 -0.041616958 2.8
-2.6600268 -1.9786155 -0.092384331 2
-2.793793 -1.4590499 -0.18757702 1
-2.4541922 -0.31593612 -0.19279793 1
-2.707114 4.416038 -0.21500441 2
-2.5271509 -2.1511374 0.19240518 4.6999998
-2.7147994 -1.9212878 0.20246455 4.8333335
-2.3399329 -2.1943595 -0.15561928 1
-2.219722 -1.4618484 -0.17207764 1
-2.051805 1.0936919 -0.19773161 1
-2.155432 1.8861527 -0.19847739 1
-2.0611916 2.0893362 -0.19863044 1
-2.3631666 3.1358337 -0.22556207 2
-2.3775718 -2.2765357 0.23497261 5.5
-2.1870329 -2.5153282 0.55181599 8.1999998
-2.3529174 -2.2719138 0.58450925 8.5
-2.2532949 4.1746254 0.6379236 7.6666665
-2.3080535 5.0026517 2.0463421 14
-1.8340238 -3.5012102 -0.1228443 2
-1.7936362 1.3037492 -0.19535953 0.66666669
-1.9372572 2.2733166 -0.19672446 1
-1.8014572 2.4587903 -0.1942576 1
-1.628486 3.3497736 -0.21292883 2
-1.7640616 4.7379565 1.0972666 10
-1.7400316 4.7091217 1.3283187 11
-1.62398 -5.7027674 1.9343768 12.5
-1.7875937 -5.8488011 2.0584121 13
-1.7338746 -4.9844766 4.059463 23
-1.8204665 -3.2708123 4.1522121 28.5
-1.3434887 -4.463645 -0.00082301063 3
-1.4667507 -4.048317 -0.036355 3
-1.3562384 -3.0274098 -0.13011314 2
-1.2862163 -2.4942343 -0.14005753 1
-1.3159351 -1.7185581 -0.15440071 1
-1.2991713 -1.5746751 -0.15648164 0.5
-1.2760402 2.1491477 -0.19596876 1
-1.5879184 2.836544 -0.1954589 2
-1.4745613 3.4474604 -0.20845668 2
-1.4078441 3.802819 -0.21855132 2
-1.3893031 5.3991199 -0.042948246 3
-1.3458552 -5.4386587 0.0082579898 3
-1.3908507 -4.0744786 0.73358315 8.166667
-1.2339424 4.5842309 0.68513674 8
-1.4826541 -4.0666685 0.81799167 9
-1.2254776 4.5172281 1.0193115 10
-1.4163059 -5.0932531 4.0727515 23
-0.92156827 -4.4400897 -0.07778766 2
-1.0998385 -4.3054194 -0.087011583 2
-1.0550605 -3.0523255 -0.12421784 2
-1.1548353 -1.677247 -0.15478165 0
-0.91627491 1.8212873 -0.18961895 1
-0.99688852 3.3591404 -0.13606988 2.3333333
-1.0917227 5.2400079 -0.042711552 3
-1.0358759 -5.1049395 0.013812675 3
-0.8198998 -3.8167703 0.29465592 5
-0.96540892 3.1813924 0.090212621 4.5
-0.84678358 -3.7383592 0.55254674 7.5
-1.1662521 4.5388484 0.85520917 9
-0.45826352 -2.5681081 -0.11815163 2
-0.48750067 -2.2948663 -0.12974784 1
-0.60935616 1.8339767 -0.18592924 0.5
-0.46336192 2.1275229 -0.18074085 1
-0.57043135 3.0982726 -0.18874462 2
-0.61928737 4.088974 -0.10482998 3
-0.7708286 3.764514 0.11605642 4
-0.74385011 -3.7499936 0.64681995 8.333333
-0.46770552 -4.5313478 1.4441723 12.5
-0.42226961 -4.432838 1.7108624 14
-0.51556623 -4.0865111 4.5783396 28.5
-0.064914927 -4.128716 -0.02298779 3
-0.23216493 -2.4917743 -0.11558475 2
-0.2283823 -2.3393934 -0.12367837 1
-0.28925085 1.8869451 -0.17992179 0.66666669
-0.26186693 3.0893109 -0.14268363 2
-0.20792651 3.6407466 -0.084606931 3
-0.10955097 -2.7769341 0.10145243 4
-0.025068277 3.3195333 0.13499692 4.3333335
-0.08812052 -3.0438762 0.6097433 9
-0.044449028 3.4950299 0.90785664 11
-0.39784658 -4.4329324 1.5231777 13
-0.13048914 -4.1657953 1.405372 13
-0.39973962 -4.4052939 1.6264142 14
-0.3204146 -4.2626595 3.2740099 23
-0.26406273 -4.0226164 4.5817385 29
0.19364439 -3.8427386 -0.01292154 3
0.015288111 -2.8070605 -0.098218128 2
0.24821457 -2.6123233 -0.099469185 2
0.023875836 -2.1950581 -0.12611373 1
0.34900644 1.0770869 -0.18854176 0
0.16209348 1.9138469 -0.16739537 1
0.30609009 2.6742852 -0.16262427 2
0.048050191 2.8755882 -0.14243829 2
0.01514881 3.3662462 -0.0047648139 3
0.35594195 -3.6673613 0.22611943 5
0.01487852 -2.8199635 0.094934084 4
0.30086783 -3.7340825 0.63687509 8
0.17427318 -3.8583086 1.0547311 11.333333
0.18685208 -3.8216887 1.3995734 14
0.59483618 -2.2044597 -0.11036857 1.6666666
0.58880121 -1.7758576 -0.13217615 1
0.63830966 -1.4456278 -0.14243229 0
0.7551018 1.0268342 -0.1884174 0
0.74008036 1.4830117 -0.15224928 1
0.59816515 1.7679342 -0.15483618 1
0.70596474 2.5908368 -0.11877378 2
0.72796035 2.9920042 -0.070901334 3
0.4133068 -3.6400971 0.25224575 5
0.63047355 -3.4043052 0.20771468 4.909091
0.77906919 2.9582145 0.37427953 7
0.59177285 -3.436233 0.59703332 8.272727
0.65402901 3.0718153 0.72942132 10
0.56174648 -3.4527237 0.93128604 11
0.65125901 -3.3264997 1.3102964 14.5
0.66552687 -3.523721 2.7754695 23
0.76548147 -3.0100927 3.5784075 29
1.0687751 -2.978385 -0.028139938 3
0.82980585 -2.1820831 -0.10605755 2
1.0305243 -1.4098394 -0.13602163 1
1.1868092 -0.46302816 -0.15593007 0
1.1912007 -0.23512293 -0.1631511 0
1.1047499 0.17782813 -0.16700712 0
0.94900674 1.23074 -0.14530788 1
0.94174927 2.4972374 -0.11404938 2
1.121004 2.9228401 -0.057497106 3
0.80635887 -3.2097733 0.32635254 6
1.0220708 -3.0121696 0.2318369 5.2777777
0.83441448 3.008481 0.26855993 6
0.83057028 -3.2198975 0.58889306 8.5
1.0180877 -3.0065765 0.63825238 9.25
0.81236702 -3.2291386 1.0489072 12.5
1.0785856 -2.9517639 1.0224372 12.6
1.1854137 -2.7912629 1.1833137 14
0.89877611 -3.0815394 1.246099 14.428572
1.0711591 2.3713186 2.7250519 27.333334
1.0938115 2.3270667 2.8027961 28
0.81915349 -3.0995572 3.4463637 28
1.4216727 -2.084311 -0.098288491 2
1.5785334 -1.7026435 -0.10547266 2
1.220824 -1.3010483 -0.12865549 1
1.4279689 -0.98481005 -0.12502567 1
1.5763 -0.28009486 -0.127013 1
1.554478 1.0276352 -0.1295477 1
1.3757993 1.4580889 -0.13356638 1
1.3882052 1.7928656 -0.13073668 2
1.419104 -2.7015269 0.11193813 4.5
1.3117896 -2.7611308 0.59902328 9
1.2205991 -2.8262203 0.93499124 12
1.3489542 -2.7465408 1.0284028 13
1.7794327 -2.1247399 -0.046805535 2.5
1.7410152 -1.3548942 -0.11196017 2
1.9332085 -1.0989233 -0.1083996 2
1.9881725 -0.080117486 -0.11722496 1
1.8350341 0.58674335 -0.12223092 1
1.6220511 0.91504711 -0.12798835 1
1.734802 1.9277097 -0.11640068 2
1.9383744 2.1296353 -0.023643792 3
1.8470929 2.9380379 -0.048560828 3
1.6967199 -2.4734082 0.17489558 5
1.8846242 -2.2607191 0.17000704 5
1.7112178 -2.4659066 0.60079002 9.125
1.8881154 -2.256211 0.65092129 9.7777777
1.6958936 -2.467998 0.9897939 12.875
1.8690486 -2.2499621 1.0467075 13.5
2.0210872 -2.1160898 -0.0045946166 3
2.2424817 -1.8443025 -0.024813946 3
2.1206598 -1.0747741 -0.10409962 2
2.314388 -0.47765678 -0.10725299 2
2.3317988 -0.32070974 -0.10886538 2
2.2616611 0.24656129 -0.11390849 2
2.1576405 0.43392548 -0.11351808 2
2.1784914 1.2757016 -0.11089908 2
2.030529 2.0430148 -0.10113806 2
2.2190709 2.8339121 -0.025419656 3
2.0407989 -2.0978017 0.20442936 5.4000001
2.2993164 -1.810884 0.18418685 5
2.3175409 3.1372049 0.029785225 4
2.1710374 3.4229448 0.033549078 4
2.0430455 -2.1141071 0.64347547 10
2.2890708 -1.806807 0.64967519 9.8888893
2.3695641 2.2662737 0.75457966 10
2.2802055 -1.808713 1.0585136 13.777778
2.3414609 2.1776953 0.98407334 12
2.3391449 -1.724136 1.2051971 15
2.2041709 1.8437365 2.9958115 27.75
2.5283926 1.1312121 -0.08252079 2
2.6756003 1.7880368 -0.07490997 3
2.4461069 -1.6582885 0.20704423 5.25
2.7593348 2.1179869 0.28589502 5.5
2.7849531 3.0931361 0.151917 4
2.464427 -1.6589686 0.63356721 9.666667
2.685621 2.151382 0.65938139 8.75
2.4446766 -1.6738052 0.98883533 13
2.5712132 2.096807 1.0188338 12
2.8243699 0.70510197 -0.099303417 2
2.8470619 1.7208278 -0.06835711 3
3.114476 1.8675892 0.17853492 4.5
2.9834824 2.0717576 0.27899358 5.5
2.9742293 -1.8882315 0.72456264 9.5
2.9942954 1.9495127 0.5486685 7.6666665
2.9019239 2.062885 0.41694584 7
2.9591796 -1.8554119 0.85984623 10.5
3.0897803 2.2637455 3.9615648 27.5
3.4607024 -0.32192287 -0.085648589 2
3.3847384 0.200102 -0.09046445 2
3.3931739 1.0188175 -0.08331982 2
3.3979182 1.4919176 -0.0026679586 3
3.3500364 1.8147384 1.5077586 14.5
3.6412058 -2.081902 -0.071105041 3
3.6770821 -1.7852907 -0.072622932 3
3.7749901 -0.88555205 -0.075984903 3
3.8101816 -0.61321402 -0.08004652 3
3.7222085 -0.24189375 -0.081451625 3
3.7864013 1.2519903 -0.08637356 3
3.8330719 1.5776285 0.32178849 5.5
3.7613339 1.6461153 0.22572272 4.75
4.1018224 -1.6549687 -0.05786097 3
4.0751867 0.31335375 -0.062357217 3
4.293467 1.1037673 0.0077375453 3
4.8557792 -3.1389062 0.055132519 3
4.8003454 1.7484195 0.11480244 4
5.1643686 -2.8205876 0.64329654 6
5.186995 -2.7855971 0.55139232 6
5.110899 2.170743 6.1096096 28
5.3758903 -2.6156356 0.21119967 4.5
5.5981102 1.4057401 0.21779002 4
5.3392873 -2.644346 0.66338772 6.4000001
5.2109222 -2.7564416 0.80447996 7
5.2658491 2.2612655 5.8191009 27
5.2228236 2.239208 6.0160952 28
6.4907241 0.65271288 0.2084167 4
7.5479484 0.41889039 0.25301221 4
8.3113327 -0.39321688 0.29681838 4
9.1799545 -1.4008982 2.6283946 12
9.0743179 -1.1846739 2.6001954 12
9.4698095 -0.8794387 0.33348835 4
9.3509865 -1.3930969 2.2605867 10.333333
9.4252052 -1.0479286 2.2561936 10
9.4237614 -0.7859332 2.0833726 10
9.2644091 -1.4001697 2.5108199 11
9.3239622 -1.0575261 2.5200849 11
10.796936 -1.4955758 0.37729707 4
11.049038 2.4827948 11.412529 27
10.89754 2.5581393 11.97018 28
11.555557 2.4303119 10.843279 26
11.260151 2.485954 11.248794 26
12.248949 -2.3375931 0.13115673 4
13.871716 -8.3976088 17.80093 28
14.179362 -8.0390511 12.992216 23
14.271825 -8.4284887 17.608643 28
14.086049 -8.1096945 17.826916 28
14.467081 -8.1136723 17.599625 28
14.660394 -7.7979255 17.596554 28
14.797174 -7.6608758 17.603027 28
14.929754 -7.4321918 17.629139 28
15.102175 -7.1895041 17.679302 28
15.249041 -7.0599632 12.442721 22
15.395282 -8.7619867 17.875122 27
15.333072 -6.9481664 17.748526 28
15.521 -6.6970286 17.81566 28
15.953382 -8.2478561 4.7540298 11
15.976855 -8.0837469 5.2213488 12
15.900321 -8.8448019 17.848906 27
15.691398 -8.4630318 17.958223 27
15.866525 -8.0964384 17.911169 27
15.610102 -6.592196 17.864933 28
16.167212 -7.9918876 4.2903252 10
16.144156 -7.9931355 4.5737839 11
16.241127 -7.9546471 4.8120108 11
16.277653 -7.9181066 5.7881322 13
16.130102 -7.9718461 6.8437986 14
16.257524 -7.8229275 7.3577476 15
16.144571 -8.5198822 17.825933 26.5
16.352541 -8.17449 17.920877 27
17.083313 -7.2181978 0.94542092 5
17.080179 -7.2677188 1.7203542 6
17.092619 -7.228271 2.3119242 7
17.079077 -7.2811708 2.8113375 8
17.049168 -7.2964087 3.3482714 9
17.005436 -7.4199743 4.2515421 10
16.927937 -7.4620728 4.7248631 11
17.164867 -7.1105113 4.6201849 10.5
17.193718 -7.0730414 5.0217752 11
17.153706 -7.0303226 5.879766 12
17.284992 -7.0590382 0.2569266 4
17.495205 -6.9398484 0.97838479 5
17.405045 -6.9576201 1.7122294 6
17.372936 -6.9986153 2.219131 6.5
17.309307 -6.9590011 2.6640835 7
17.414156 -7.0080748 3.3731863 9
17.211426 -7.0770373 4.1707969 10
17.430676 -6.9578981 5.4142718 12
17.635441 -6.8720183 1.4816715 6
17.61652 -6.7779202 2.0767455 7
19.025396 -4.5986009 0.23514877 4
20.246778 -5.9100003 0.93614644 5
20.270702 -5.9251862 1.5971687 5
20.213461 -5.8911462 1.9046122 6
20.276367 -5.9687996 2.5311511 7
20.449284 -6.1297002 3.1522849 8
