# .PCD v0.7 - Point Cloud Data file format
VERSION 0.7
FIELDS x y z intensity
SIZE 4 4 4 4
TYPE F F F F
COUNT 1 1 1 1
WIDTH 84
HEIGHT 1
VIEWPOINT 0 0 0 1 0 0 0
POINTS 84
DATA ascii
-38.544212 4.8109288 16.731318 15
-11.477406 1.9537662 3.5270877 12
-6.0255933 -2.843015 0.20650768 4
-6.0319395 -2.8194833 0.4113293 5
-6.0773888 -2.8135715 0.6235373 6
-5.8047471 1.5786264 0.34872609 5
-5.9657521 -8.1267738 0.99162191 6
-5.5618529 -8.3005934 -0.0048745926 3
-5.1678228 -3.1100602 0.58138281 6
-5.1214843 -3.1619544 0.75664586 7
-4.4936833 -3.3356764 0.20889714 4
-4.5874057 -3.3377025 0.4944433 6
-4.3516092 -3.3743765 0.37651843 5
-4.022635 -3.4645391 0.03360888 3
-4.1434517 -3.4342217 0.20997286 4
-3.8021505 2.652822 0.6156683 7
-3.6701007 -3.6271119 0.52234793 6
-3.773088 2.6396096 0.4215979 6
-3.7464433 -3.5975475 0.64547396 7
-3.6873531 -10.428982 4.0320783 13
-3.5405025 -10.455467 4.1204977 14
-2.3715224 -5.1922669 4.365993 23
-2.1713161 -3.4666777 4.5168333 28
-1.6089646 -2.9628515 0.26044407 5
-1.6888871 2.7045205 0.34412554 7
-1.7705953 2.4914012 1.2552047 15
-1.5524814 -2.9948027 0.31944019 6
-1.5443612 2.6079316 0.74758565 10.5
-1.4827466 -5.4556203 4.3183966 23
-1.3794713 2.3299961 2.667686 27
-1.1493794 2.7629168 0.046572194 4
-0.61858171 2.8004363 0.68956816 10
-0.71624011 3.301326 3.2490611 26
-0.44604254 -1.2152354 0.079124935 5
-0.4535341 -1.2232171 0.21759328 8
-0.39429456 -1.2340062 0.18930471 7
-0.37148643 -1.2234577 0.27005571 9.5
-0.16736436 -0.83813608 0.085550651 5.8333335
0.12073919 -0.86154693 -0.02356144 2
0.0835253 -0.84872264 0.300363 13.5
0.28040156 -0.71247041 0.16477573 9.5
0.39638084 3.0523474 3.2361856 28
0.5720427 -0.97929853 -0.0017914925 3
0.55701482 -0.9817636 0.079925492 5.5
0.45858714 3.1347041 3.1239121 27
0.57439113 3.2501733 3.1335337 26
0.64583224 -0.86994463 0.37153259 13
0.83247644 -1.0877652 -0.024086507 2.5
0.80193126 -1.0493802 0.25843802 9
0.90958858 3.142637 3.1749897 26
0.84235215 2.9383252 3.3526733 28
0.89271194 3.1708851 3.2338848 27
1.0193642 -1.1383146 -0.12442192 1
1.3332009 -1.2171857 0.018312084 3.5
1.4723634 -1.2579168 -0.059104573 2
1.6180209 2.7706351 3.181747 27
1.6380163 2.8935013 3.1213067 26
1.7758327 2.494117 3.259907 28
2.7056913 -1.4121158 -0.11646238 2
2.6380982 -1.5542873 0.23747717 6
2.6741009 -1.6005051 0.50247943 8
2.6502368 -1.5924222 0.40946975 7
2.6632318 -1.4648169 0.62601256 9.5
2.7300673 -1.3668839 1.1125479 13.5
2.9710896 -0.44916084 0.3718558 7
2.8636014 -0.80566508 0.59930384 9
2.958926 -0.64584345 0.46013141 8
2.9838989 -0.43926933 0.67184013 10
3.0365252 -0.27789018 -0.077434435 2.5
3.0503623 -0.2649537 0.11554152 4.5
3.0264182 -0.27247456 0.30955574 6
3.05463 -0.30144763 0.45660767 8
3.0597374 -0.31745192 0.61263567 9
3.9077909 3.2108123 3.9747262 23
4.7342005 2.9724064 0.25204808 5
5.0501032 3.0357084 0.70897585 7
14.548784 -2.1932168 7.3534741 17
14.77225 -3.6574955 7.6189804 17
14.85722 0.45595223 0.20612395 4
14.870432 0.34124315 0.75935501 5
14.90222 0.49693251 1.2630404 6
14.878442 -3.9120314 16.735182 28
15.145108 -0.076846875 2.7121644 9
15.908872 -0.54893184 17.174021 28
