# .PCD v0.7 - Point Cloud Data file format
VERSION 0.7
FIELDS x y z intensity
SIZE 4 4 4 4
TYPE F F F F
COUNT 1 1 1 1
WIDTH 1386
HEIGHT 1
VIEWPOINT 0 0 0 1 0 0 0
POINTS 1386
DATA ascii
-1.3607333 -1.8348154 -0.19344874 0
-1.2410624 -1.8429878 -0.18637389 0
-1.1495087 -1.8504739 -0.18317771 0
-1.0522662 -1.8524941 -0.17969795 0
-0.45205376 -1.8537066 -0.1337256 0
-1.5551066 -1.7531788 -0.19732524 0
-1.4306898 -1.7483062 -0.19687018 0
-1.3434062 -1.7231647 -0.19312549 0
-1.2476007 -1.7488161 -0.18775533 0
-1.1448953 -1.7489164 -0.18402511 0
-1.062915 -1.7564771 -0.17996019 0
-0.97032654 -1.7380344 -0.17733026 0
-0.43133065 -1.76781 -0.1203384 0
-1.46408 -1.652384 -0.19449395 0
-1.3476374 -1.6448585 -0.19318414 0
-1.2481859 -1.6391487 -0.18934685 0
-1.1529024 -1.6410385 -0.18402074 0
-1.036491 -1.6670145 -0.17952341 0
-0.9425 -1.642 -0.176 0
-0.42823619 -1.6686463 -0.10714661 0
-0.39297885 -1.6951804 -0.1067558 0
2.562 -1.604 -0.104 0
-1.4662861 -1.5507095 -0.19833744 0
-1.3670048 -1.5498341 -0.193102 0
-1.2637759 -1.5420225 -0.18944807 0
-1.1529467 -1.5505631 -0.18508974 0
-1.0415001 -1.5480001 -0.1805 0
-0.98900002 -1.589 -0.178 0
2.4476511 -1.5317891 -0.11552492 0
2.5414059 -1.5297022 -0.11643288 0
2.6321912 -1.5521746 -0.11394577 0
-1.4319333 -1.4427562 -0.19776303 0
-1.3347183 -1.4427007 -0.19187085 0
-1.2365658 -1.435173 -0.18770581 0
-1.1502763 -1.4601244 -0.184808 0
-1.086 -1.4960001 -0.182 0
2.1753201 -1.4333229 -0.1178482 0
2.2713971 -1.4585016 -0.11803903 0
2.37922 -1.4505556 -0.12659371 0
2.4648981 -1.4355088 -0.12761882 0
2.5751343 -1.4462106 -0.11387399 0
2.6570001 -1.4505 -0.109 0
-1.454236 -1.3420507 -0.19817096 0
-1.381538 -1.3579412 -0.19556075 0
-1.2621311 -1.3426183 -0.18913956 0
-1.178 -1.3675001 -0.1855 0
1.7215221 -1.3249905 -0.14794903 0
1.984 -1.313 -0.16500001 0
2.0381601 -1.3416615 -0.14242409 0
2.128438 -1.365701 -0.1378234 0
2.2387974 -1.3492746 -0.14307757 0
2.3295128 -1.3536423 -0.13763422 0
2.4211009 -1.359158 -0.12740549 0
2.5572264 -1.35618 -0.11948271 0
2.6620209 -1.3310691 -0.11414623 0
-1.5061491 -1.2830304 -0.19968975 0
-1.4305145 -1.2478375 -0.19567904 0
-1.3377433 -1.2534329 -0.19179864 0
-1.2449999 -1.252 -0.18799999 0
1.286 -1.219 -0.153 0
1.354516 -1.2242463 -0.16209543 0
1.4201192 -1.2245073 -0.16609702 0
1.568363 -1.2109873 -0.15626536 0
1.6362035 -1.2614841 -0.15258171 0
1.7661537 -1.2245096 -0.16721153 0
1.8578733 -1.2671722 -0.16625629 0
1.9327471 -1.2572806 -0.16381527 0
2.0535233 -1.2617893 -0.15744796 0
2.1581595 -1.2597394 -0.15219192 0
2.2751274 -1.241534 -0.14153056 0
2.3614843 -1.2524532 -0.13565513 0
2.4446371 -1.2595967 -0.12981756 0
2.5401888 -1.2331644 -0.1250339 0
2.6318223 -1.2390431 -0.11981221 0
2.724 -1.2425001 -0.1145 0
-1.532931 -1.1848398 -0.19948302 0
-1.4626206 -1.1298932 -0.19532202 0
-1.3368582 -1.1371717 -0.18994829 0
-1.2820001 -1.1719999 -0.18799999 0
1.2542725 -1.1573322 -0.16624177 0
1.3533001 -1.1456343 -0.16785683 0
1.4320582 -1.1546088 -0.16523246 0
1.5005221 -1.1604905 -0.15994902 0
1.6576153 -1.1528821 -0.16840865 0
1.7476555 -1.1602006 -0.16756499 0
1.9516878 -1.1594416 -0.16719437 0
2.0195403 -1.1818547 -0.16397849 0
2.1198137 -1.156517 -0.15476528 0
2.2355995 -1.1407543 -0.14665006 0
2.3804207 -1.1561174 -0.13702421 0
2.4711168 -1.1640323 -0.13160916 0
2.5511038 -1.1274617 -0.12974925 0
2.6478233 -1.1326965 -0.12338838 0
2.7397988 -1.1586992 -0.11731732 0
-1.3571552 -1.0474733 -0.18908051 0
1.2796668 -1.0456667 -0.17033334 0
1.3468359 -1.0737205 -0.16800228 0
1.4767179 -1.0335032 -0.17040385 0
1.55549 -1.0606821 -0.16959333 0
1.6616105 -1.0481162 -0.16969834 0
1.7630212 -1.0521083 -0.16952769 0
1.8390254 -1.0961299 -0.16843323 0
1.9566745 -1.0528443 -0.1680907 0
2.0479109 -1.0484468 -0.16179167 0
2.13989 -1.0597976 -0.15814304 0
2.2300584 -1.0515162 -0.14930457 0
2.3369553 -1.055909 -0.14492674 0
2.4623806 -1.0434295 -0.13672601 0
2.5888603 -1.0379546 -0.12820473 0
2.67906 -1.03878 -0.12177961 0
2.7837307 -1.0519592 -0.11700069 0
1.332 -0.93800002 -0.17200001 0
1.4350873 -0.97395372 -0.17092763 0
1.5350084 -0.92004335 -0.17281108 0
1.6534914 -0.93449736 -0.17103338 0
1.7732127 -0.94441223 -0.1696877 0
1.8454946 -0.94918948 -0.16727066 0
1.975006 -0.97283983 -0.16610627 0
2.0691764 -0.9462527 -0.16455075 0
2.1595745 -0.92658281 -0.15886277 0
2.2409492 -0.96093506 -0.15295038 0
2.3405631 -0.93961692 -0.14504556 0
2.4296625 -0.94248748 -0.13911226 0
2.5199685 -0.94143599 -0.13538048 0
2.6531773 -0.95235878 -0.1297828 0
2.7843499 -0.96028006 -0.12278517 0
2.8139999 -0.93199998 -0.122 0
1.3610001 -0.86400002 -0.1735 0
1.4590043 -0.87602168 -0.17390554 0
1.5414851 -0.82596487 -0.17167509 0
1.6308677 -0.84890646 -0.17043178 0
1.7230103 -0.87215412 -0.16846791 0
1.8535974 -0.82765734 -0.16873765 0
1.9802839 -0.87939811 -0.16716975 0
2.0631771 -0.83918619 -0.16359092 0
2.1871731 -0.82349914 -0.16001618 0
2.2571561 -0.83781201 -0.15546016 0
2.3590946 -0.84952468 -0.14761749 0
2.4466388 -0.84704447 -0.14288065 0
2.5349913 -0.8424198 -0.13828731 0
2.6393654 -0.83339095 -0.13151532 0
2.72437 -0.85997057 -0.12635086 0
2.8309095 -0.87138027 -0.11928204 0
-3.4855897 -0.71331537 -0.19202153 0
-2.1461318 -0.74559659 -0.19905603 0
-2.0299704 -0.72344112 -0.19789706 0
-1.8053707 -0.79258454 -0.19922946 0
-1.7234966 -0.7576676 -0.19638357 0
-1.6416224 -0.72275072 -0.19353768 0
1.387 -0.74699998 -0.17299999 0
1.4500817 -0.75075698 -0.17298484 0
1.5765026 -0.75628853 -0.17161697 0
1.6653136 -0.75075924 -0.17106791 0
1.7406272 -0.78151852 -0.17013581 0
1.8318231 -0.71655786 -0.17021088 0
1.9451746 -0.74151415 -0.16834141 0
2.0192657 -0.75887841 -0.16753089 0
2.1429276 -0.75240237 -0.16134246 0
2.2851412 -0.73531181 -0.15191975 0
2.356045 -0.74503046 -0.14859985 0
2.4568627 -0.75398976 -0.14340013 0
2.5584023 -0.76424617 -0.1377338 0
2.6336341 -0.73767841 -0.13719088 0
2.7369454 -0.7243681 -0.13003348 0
2.8507607 -0.75416535 -0.12385216 0
-3.3513162 -0.68635893 -0.19286922 0
-3.2204528 -0.66008711 -0.19369537 0
-3.1332107 -0.64257258 -0.19424614 0
-3.0459685 -0.62505805 -0.19479692 0
-2.9587264 -0.60754359 -0.19534768 0
-2.1470001 -0.65200001 -0.197 0
-2.0761521 -0.63065118 -0.19558305 0
-1.9689021 -0.64958107 -0.19525561 0
-1.8631217 -0.66474366 -0.19535504 0
-1.7796974 -0.63539493 -0.19408403 0
-1.6962731 -0.6060462 -0.19281302 0
-1.5597483 -0.68783379 -0.19069178 0
-1.4778742 -0.65291691 -0.1878459 0
-1.396 -0.61799997 -0.185 0
1.6568781 -0.63748455 -0.1720887 0
1.7646258 -0.66830885 -0.17053416 0
1.8473443 -0.64906704 -0.16922516 0
1.9534651 -0.65636504 -0.16868591 0
2.0349507 -0.64595491 -0.16786243 0
2.1426353 -0.6375677 -0.16335538 0
2.237992 -0.65695494 -0.15792504 0
2.3744738 -0.64349586 -0.1475676 0
2.448385 -0.64918339 -0.14544468 0
2.5512416 -0.65301818 -0.14108993 0
2.6519623 -0.64596885 -0.13522151 0
2.7549901 -0.64176601 -0.1308378 0
2.8411012 -0.66109395 -0.12576735 0
2.9143014 -0.6445092 -0.12965643 0
-2.8714843 -0.59002906 -0.19589846 0
-2.7842422 -0.57251453 -0.19644922 0
-2.6700733 -0.54938644 -0.19699998 0
-2.5281959 -0.51980829 -0.197 0
-2.4401712 -0.50145721 -0.197 0
-2.0409665 -0.54249346 -0.18792751 0
-1.9329492 -0.56325251 -0.19027199 0
-1.8386682 -0.52964115 -0.18861538 0
-1.7365761 -0.52832556 -0.18879151 0
-1.6322653 -0.53972083 -0.18931782 0
-1.5294243 -0.54734874 -0.19027101 0
-1.446 -0.51800001 -0.189 0
1.438 -0.52499998 -0.175 0
1.522009 -0.55564475 -0.17373194 0
1.6442646 -0.55722642 -0.17180772 0
1.7659672 -0.55161142 -0.17029496 0
1.8526611 -0.55411851 -0.16918448 0
1.9367517 -0.55339164 -0.16814752 0
2.0339766 -0.54365712 -0.16704822 0
2.1461034 -0.55450362 -0.16297796 0
2.2543867 -0.5514273 -0.1582102 0
2.3577261 -0.56724036 -0.15460901 0
2.4596748 -0.55524164 -0.15027089 0
2.5407629 -0.55866003 -0.14674005 0
2.6522887 -0.54391021 -0.14454174 0
2.7524922 -0.55114025 -0.13584767 0
2.8511014 -0.55489236 -0.13310045 0
2.9329925 -0.55566943 -0.12396281 0
-3.414 -0.456 -0.189 0
-3.3829408 -0.45182467 -0.18934084 0
-3.2520769 -0.43423253 -0.19077693 0
-3.121213 -0.41664043 -0.19221303 0
-3.0339704 -0.40491235 -0.19317041 0
-2.3521469 -0.4831062 -0.197 0
-2.2641225 -0.46475518 -0.197 0
-2.1760979 -0.44640413 -0.197 0
-2.0459099 -0.43333122 -0.19065912 0
-1.9515067 -0.46974027 -0.18669832 0
-1.8564099 -0.440099 -0.18737501 0
-1.7500452 -0.4455781 -0.18736212 0
-1.6813514 -0.42555079 -0.18581475 0
-1.5821778 -0.44076496 -0.18546948 0
-1.481894 -0.45158139 -0.18369788 0
-1.397 -0.426 -0.182 0
1.4400001 -0.449 -0.17399999 0
1.5223863 -0.47410426 -0.17316781 0
1.6376388 -0.46051082 -0.17164621 0
1.7697047 -0.43963706 -0.16950645 0
1.8537445 -0.46046156 -0.16850446 0
1.9365989 -0.43254769 -0.16743666 0
2.036536 -0.4419997 -0.16700234 0
2.1296234 -0.46977466 -0.1641205 0
2.253763 -0.44020501 -0.15834059 0
2.3662133 -0.45964864 -0.15418708 0
2.4524827 -0.44876164 -0.15005507 0
2.5500288 -0.44088984 -0.14579725 0
2.6331766 -0.44521603 -0.14269061 0
2.7427318 -0.45183906 -0.14131869 0
2.8520916 -0.46000892 -0.1314625 0
2.9534447 -0.45609251 -0.12707539 0
-2.9467278 -0.39318424 -0.19412781 0
-2.8594851 -0.38145617 -0.19508521 0
-2.7722425 -0.36972809 -0.1960426 0
-2.6849999 -0.35800001 -0.197 0
-2.0020001 -0.39500001 -0.193 0
-1.9120245 -0.39135104 -0.197 0
-1.824 -0.373 -0.197 0
-1.5137838 -0.3831836 -0.18527159 0
-1.4299999 -0.36199999 -0.185 0
1.4400001 -0.37400001 -0.17399999 0
1.545396 -0.36374334 -0.17205518 0
1.6603709 -0.34953377 -0.17050508 0
1.7618394 -0.34824815 -0.16956928 0
1.8439776 -0.36425126 -0.16877636 0
1.9497195 -0.34512591 -0.16769619 0
2.0432782 -0.34528562 -0.16743578 0
2.1449664 -0.36312041 -0.16407727 0
2.2570002 -0.3450501 -0.15934519 0
2.367954 -0.35398036 -0.15572169 0
2.4550231 -0.35818556 -0.15179326 0
2.546392 -0.343357 -0.14731774 0
2.6420069 -0.34097734 -0.14123905 0
2.7473722 -0.35470775 -0.13825986 0
2.8488722 -0.36880359 -0.130758 0
2.95329 -0.35487872 -0.1346035 0
3.0104122 -0.34313092 -0.12344935 0
-3.3562164 -0.26057103 -0.18845448 0
-3.2325773 -0.24251539 -0.18915449 0
-3.1445389 -0.23531921 -0.18971208 0
-3.0429244 -0.26221603 -0.19353932 0
-2.9556932 -0.25416201 -0.19465448 0
-2.8684621 -0.24610801 -0.19576965 0
-2.7812312 -0.23805401 -0.19688483 0
-2.694 -0.23 -0.198 0
1.4305 -0.26300001 -0.1725 0
1.5715301 -0.25274995 -0.17071971 0
1.6715314 -0.24849373 -0.16966471 0
1.7543561 -0.26098758 -0.16903648 0
1.8423847 -0.25183889 -0.16841878 0
1.9414788 -0.25051808 -0.16759445 0
2.0330181 -0.25162926 -0.16716929 0
2.1328223 -0.2692585 -0.16389152 0
2.2547405 -0.2628406 -0.16118322 0
2.3658874 -0.26969972 -0.16093518 0
2.4814093 -0.27945536 -0.15400414 0
2.552834 -0.23918973 -0.154158 0
2.6431508 -0.24665141 -0.15163617 0
2.7334676 -0.25411311 -0.14911434 0
2.8485835 -0.25153247 -0.14632796 0
2.9883139 -0.23860864 -0.1432209 0
3.0309999 -0.242 -0.142 0
3.4935489 -0.24864411 -0.10828408 0
3.5831242 -0.2538701 -0.1224034 0
3.6726995 -0.25909609 -0.13652273 0
3.7622745 -0.26432204 -0.15064204 0
3.8518498 -0.26954803 -0.16476136 0
3.9414248 -0.27477401 -0.17888068 0
4.0310001 -0.28 -0.193 0
-3.3329999 -0.13600001 -0.18700001 0
-3.2739484 -0.13290136 -0.18788533 0
-3.1436739 -0.12606534 -0.18983847 0
-3.0417376 -0.15662968 -0.18939582 0
-2.9538898 -0.15118185 -0.19004686 0
-2.8452072 -0.15549435 -0.18946528 0
-2.7337708 -0.137117 -0.19134896 0
-2.6543107 -0.11625845 -0.19447824 0
-2.5369999 -0.156 -0.18700001 0
-2.4818068 -0.15209147 -0.18735532 0
-2.3585649 -0.14336404 -0.18814872 0
-2.2353227 -0.1346366 -0.18894213 0
-2.1531615 -0.1288183 -0.18947107 0
-2.0710001 -0.123 -0.19 0
1.427 -0.15800001 -0.17200001 0
1.5547376 -0.17316617 -0.17093197 0
1.6637224 -0.14710638 -0.16934288 0
1.7506651 -0.13719185 -0.16926517 0
1.8481053 -0.11545917 -0.16891755 0
1.9522409 -0.11922976 -0.16905451 0
2.0544348 -0.13222507 -0.16925 0
2.1771314 -0.17416087 -0.16642208 0
2.2672627 -0.18132173 -0.16384418 0
2.3573942 -0.18848258 -0.16126627 0
2.4475255 -0.19564345 -0.15868835 0
-2.573626 -0.096738942 -0.19578256 0
-2.4436464 -0.072202802 -0.18939127 0
-2.3415055 -0.058894888 -0.18704642 0
-2.2416382 -0.046687782 -0.18671261 0
-2.1362228 -0.051593281 -0.1886529 0
-2.0535002 -0.048500001 -0.189 0
1.398 -0.017999999 -0.169 0
1.463439 -0.064486422 -0.16966666 0
1.5654087 -0.058729634 -0.169 0
1.6517525 -0.046891298 -0.16899998 0
1.7481251 -0.025315301 -0.16833334 0
1.8531404 -0.024633095 -0.16850001 0
1.9378991 -0.025589325 -0.16850001 0
2.0324936 -0.0224382 -0.16866668 0
-3.2569208 0.090998769 -0.18599904 0
-3.1668575 0.089597784 -0.18489826 0
-3.0768733 0.088198029 -0.18379846 0
-2.9868894 0.086798273 -0.18269865 0
-2.851913 0.084698647 -0.18104893 0
-2.7169368 0.082599014 -0.17939922 0
-2.6269526 0.081199259 -0.17829941 0
-2.5369685 0.079799503 -0.17719962 0
-2.4344921 0.049699876 -0.17804991 0
-2.3573833 0.04916859 -0.17825866 0
-2.2785747 0.021752888 -0.18338799 0
-2.1597874 0.022376444 -0.186194 0
-2.0409999 0.023 -0.189 0
1.386 0.048 -0.169 0
1.472995 0.05251085 -0.169 0
1.546995 0.053010851 -0.16850001 0
1.6531706 0.05428648 -0.16796367 0
1.7562532 0.059185147 -0.16794552 0
1.8405054 0.061995059 -0.16776069 0
1.9548699 0.066046469 -0.16753793 0
2.0610001 0.082999997 -0.169 0
-4.1069999 0.192 -0.17299999 0
-4.0488672 0.19015554 -0.17369962 0
-3.9137306 0.18586783 -0.17532599 0
-3.8236394 0.18300936 -0.17641024 0
-3.7335482 0.18015087 -0.1774945 0
-3.6434567 0.17729239 -0.17857875 0
-3.5533655 0.17443392 -0.179663 0
-3.463274 0.17157544 -0.18074724 0
-3.3731828 0.16871695 -0.18183149 0
-3.2830913 0.16585848 -0.18291575 0
-3.1930001 0.163 -0.184 0
-2.3408036 0.13166806 -0.17633194 0
-2.2633951 0.16406904 -0.1763729 0
-2.1484251 0.14085181 -0.18299837 0
-2.0426366 0.15188389 -0.18704121 0
1.5586171 0.12432896 -0.16781369 0
1.6804681 0.13131583 -0.16725473 0
1.7617022 0.13597375 -0.1668821 0
1.8429363 0.14063166 -0.16650946 0
1.9390851 0.14614479 -0.1660684 0
-2.2443311 0.25990146 -0.17316978 0
-2.1449413 0.25020194 -0.17939302 0
-2.0429289 0.24913867 -0.18552719 0
-1.9695001 0.271 -0.189 0
-3.2603619 0.39313564 -0.18044876 0
-3.170681 0.38256782 -0.18122438 0
-3.0810001 0.37200001 -0.182 0
-2.5019033 0.39483663 -0.18554495 0
-2.4134195 0.3796972 -0.18595412 0
-2.3249354 0.36455774 -0.18636329 0
-2.2308171 0.35980609 -0.17592417 0
-2.1519876 0.35439587 -0.17676064 0
-2.0616448 0.33040032 -0.18117066 0
-1.9573323 0.34545377 -0.17945762 0
-1.8731364 0.35129583 -0.17690703 0
-1.789 0.34900001 -0.175 0
-4.006 0.48100001 -0.17399999 0
-3.9778094 0.47767809 -0.17424381 0
-3.8881285 0.46711028 -0.17501943 0
-3.7536073 0.45125857 -0.17618287 0
-3.6190858 0.43540686 -0.17734629 0
-3.5294046 0.42483905 -0.17812189 0
-3.4397237 0.41427124 -0.17889751 0
-3.3500428 0.40370342 -0.17967314 0
-2.836 0.45199999 -0.184 0
-2.767355 0.44025493 -0.18431744 0
-2.6788712 0.4251155 -0.18472661 0
-2.5903871 0.40997607 -0.18513578 0
-2.1559811 0.453087 -0.16887856 0
-2.0471888 0.43453163 -0.16994764 0
-1.9576675 0.45960131 -0.168557 0
-1.8360122 0.46093816 -0.16943385 0
-1.733 0.4465 -0.17025001 0
-2.1246281 0.53191137 -0.16600381 0
-2.0545805 0.55637246 -0.16637406 0
-1.9474235 0.5561263 -0.16700001 0
-1.8567979 0.54945159 -0.16750316 0
-1.7694969 0.53722209 -0.16766293 0
-1.6700001 0.55066663 -0.16766666 0
-1.4537742 0.58274001 -0.16585627 0
-1.375 0.54900002 -0.167 0
1.3364999 0.55499995 -0.162 0
1.4361951 0.55833787 -0.16187467 0
1.5153902 0.59167576 -0.16074935 0
-3.1461225 0.68379146 -0.17527559 0
-3.0580816 0.6631943 -0.17585039 0
-2.9700408 0.64259714 -0.1764252 0
-2.882 0.62199998 -0.177 0
-2.4489999 0.69400001 -0.16599999 0
-2.3475504 0.66403258 -0.16641238 0
-2.2202404 0.62642604 -0.16692992 0
-2.1353669 0.60135508 -0.16727492 0
-2.0444999 0.64199996 -0.164 0
-1.9714397 0.64550036 -0.16402675 0
-1.8847029 0.64296049 -0.16466384 0
-1.7613907 0.64134449 -0.16471545 0
-1.6553686 0.65762246 -0.16398516 0
-1.5641828 0.65282661 -0.16457085 0
-1.4553776 0.66683489 -0.16425516 0
-1.34 0.611 -0.16599999 0
-1.2920001 0.667 -0.163 0
1.3914155 0.62149137 -0.16051345 0
1.466831 0.65798271 -0.16002689 0
1.5684159 0.65974391 -0.15958217 0
1.6737803 0.6583516 -0.15849867 0
1.7529755 0.69168949 -0.15737335 0
-3.5863268 0.7867772 -0.17240158 0
-3.4542654 0.75588143 -0.17326377 0
-3.3222041 0.72498572 -0.17412598 0
-3.2341633 0.70438862 -0.17470078 0
-2.73 0.79000002 -0.175 0
-1.9449387 0.75254595 -0.16154549 0
-1.8399717 0.73674566 -0.16231109 0
-1.7488129 0.75312841 -0.16170903 0
-1.6438904 0.73908693 -0.16212893 0
-1.5464234 0.76163447 -0.16126521 0
-1.442024 0.74791843 -0.16093275 0
-1.3338264 0.75233698 -0.16087218 0
-1.229 0.75199997 -0.161 0
1.6469132 0.74747413 -0.15887368 0
1.7111381 0.78318381 -0.1586042 0
1.8321705 0.72502744 -0.15624802 0
1.9156828 0.76018268 -0.15506135 0
-3.8010001 0.83700001 -0.171 0
-3.7624085 0.82797152 -0.17125197 0
-3.6743677 0.80737436 -0.17182676 0
-2.9448595 0.85969073 -0.17331198 0
-2.815944 0.81787628 -0.1743248 0
-2.1592205 0.89697599 -0.16334146 0
-2.0781889 0.86226517 -0.16357839 0
-1.9971575 0.82755429 -0.16381533 0
-1.8564851 0.83436573 -0.15891592 0
-1.7586602 0.86821657 -0.15727988 0
-1.6406622 0.85872579 -0.15829475 0
-1.5628042 0.84064353 -0.15912016 0
-1.4492792 0.85961455 -0.15884337 0
-1.3722818 0.8424294 -0.15855595 0
-1.2600818 0.85891157 -0.15856743 0
-1.1566666 0.85733336 -0.15899999 0
1.1415 0.84099996 -0.155 0
1.22724 0.860264 -0.15424903 0
1.7805897 0.81210536 -0.15809636 0
1.8734145 0.8615514 -0.15781261 0
-3.3316069 0.98513401 -0.17027357 0
-3.2456632 0.95725769 -0.17094877 0
-3.1597192 0.92938143 -0.17162398 0
-3.0737753 0.90150511 -0.17229918 0
-2.258126 0.93934345 -0.16305226 0
-1.825 0.89999998 -0.156 0
-1.7588284 0.94638896 -0.15532438 0
-1.6669992 0.95878392 -0.15543489 0
-1.555547 0.94898945 -0.15628326 0
-1.4608648 0.94501013 -0.15879567 0
-1.3650775 0.94609767 -0.15765789 0
-1.2530404 0.96134871 -0.15624484 0
-1.15132 0.95927435 -0.1563089 0
-1.069 0.95749998 -0.156 0
1.0673333 0.958 -0.15466666 0
1.157728 0.94301128 -0.15563861 0
1.2773614 0.94242263 -0.15347973 0
1.38186 0.97489607 -0.15337354 0
1.4695001 0.91649997 -0.155 0
1.5458913 0.9655599 -0.15449364 0
1.6369828 0.99735391 -0.15408234 0
1.9545527 0.9007352 -0.15741682 0
2.0356908 0.93991899 -0.15702102 0
2.1168289 0.97910279 -0.15662523 0
-3.6210001 1.079 -0.168 0
-3.5464664 1.0548246 -0.16858555 0
-3.4175508 1.0130103 -0.16959837 0
-1.732 1.013 -0.154 0
-1.6578983 1.0487691 -0.15407032 0
-1.5364091 1.050558 -0.15283713 0
-1.4335744 1.0362059 -0.15634596 0
-1.342036 1.0569856 -0.15587147 0
-1.2457812 1.042978 -0.15609841 0
-1.1325839 1.0594827 -0.15616195 0
-1.0471979 1.0428594 -0.15579949 0
-0.98400003 1.069 -0.15450001 0
0.84100002 1.063 -0.153 0
0.99699998 1.084 -0.156 0
1.0590003 1.0564497 -0.15470092 0
1.1623051 1.0465877 -0.15410514 0
1.2554628 1.0448273 -0.15404838 0
1.33887 1.063822 -0.15272298 0
1.4530532 1.0261614 -0.1527127 0
1.5242465 1.0774268 -0.15205185 0
1.645478 1.0568571 -0.15361527 0
1.7524698 1.0696194 -0.1533941 0
2.1979673 1.0182866 -0.15622942 0
2.2791054 1.0574703 -0.15583363 0
2.3602436 1.0966542 -0.15543784 0
-2.2487025 1.1945974 -0.15404256 0
-2.1688514 1.1527987 -0.15552127 0
-2.089 1.1109999 -0.15700001 0
-1.8454186 1.153504 -0.15409642 0
-1.7726822 1.10692 -0.15491368 0
-1.625 1.112 -0.15099999 0
-1.5591735 1.1783248 -0.15010469 0
-1.4699597 1.1382713 -0.15122777 0
-1.3624241 1.132478 -0.15498848 0
-1.253476 1.1561308 -0.15478384 0
-1.1365037 1.150122 -0.15385033 0
-1.0411729 1.1575134 -0.15122145 0
-0.94278461 1.1564431 -0.15306948 0
-0.88200003 1.1950001 -0.153 0
0.75 1.16 -0.152 0
0.89154959 1.1521177 -0.15276305 0
0.96088207 1.1528168 -0.15367442 0
1.0473022 1.1582648 -0.15374978 0
1.1379607 1.1619833 -0.15296693 0
1.2383602 1.1507185 -0.15283255 0
1.3847315 1.1378845 -0.152189 0
1.4536207 1.1501474 -0.15161303 0
1.5580562 1.1571786 -0.15095945 0
1.6397402 1.1354165 -0.15242213 0
1.7591649 1.1317713 -0.15278442 0
1.8514565 1.1617994 -0.1524682 0
1.9449482 1.1900617 -0.15224704 0
2.3859999 1.177 -0.154 0
2.4456909 1.1379189 -0.15502101 0
-2.4084051 1.2781948 -0.15108509 0
-2.3285539 1.2363961 -0.15256383 0
-2.0193205 1.2627568 -0.15153229 0
-1.9347183 1.2106961 -0.15309305 0
-1.7079793 1.2920909 -0.14662988 0
-1.619734 1.255175 -0.14777771 0
-1.5295277 1.2142256 -0.14907755 0
-1.4630823 1.2784518 -0.14806031 0
-1.3469813 1.2580093 -0.15456372 0
-1.2510072 1.2672441 -0.15203398 0
-1.1487057 1.2483838 -0.14898404 0
-1.0431921 1.245491 -0.14669529 0
-0.94485557 1.2482481 -0.14939354 0
-0.84400004 1.2666665 -0.15466666 0
-0.778 1.298 -0.15099999 0
-0.57099998 1.28 -0.152 0
0.59500003 1.293 -0.149 0
0.64700001 1.248 -0.15000001 0
0.75620639 1.2476261 -0.15086347 0
0.85061622 1.2436416 -0.15197374 0
0.94871753 1.253485 -0.15143971 0
1.0616394 1.2629954 -0.15143119 0
1.1383919 1.2405845 -0.15170184 0
1.257296 1.2653252 -0.15061031 0
1.3621891 1.2329097 -0.15122062 0
1.5457025 1.228227 -0.15049587 0
1.6544021 1.2383667 -0.15110026 0
1.7495269 1.2481308 -0.15155338 0
1.8425637 1.2505975 -0.15220195 0
1.9486431 1.2566285 -0.15139969 0
2.0604353 1.2623272 -0.15155879 0
2.2249999 1.2970001 -0.154 0
2.3299999 1.217 -0.154 0
2.4427063 1.2506868 -0.15660439 0
2.5638862 1.2619842 -0.15927853 0
-2.5681076 1.3617921 -0.14812765 0
-2.4882565 1.3199935 -0.14960636 0
-2.1719618 1.3562704 -0.14859688 0
-2.0956411 1.3095136 -0.15006459 0
-1.7622023 1.3665251 -0.14433312 0
-1.6739571 1.3296093 -0.14548096 0
-1.5340821 1.3406547 -0.14657965 0
-1.42501 1.3518525 -0.15149143 0
-1.3475449 1.3793211 -0.14922358 0
-1.251677 1.3635465 -0.14674735 0
-1.1593746 1.3487345 -0.14090854 0
-1.0423182 1.3426802 -0.14197375 0
-0.95094651 1.3534409 -0.14838369 0
-0.85221213 1.3489403 -0.1484524 0
-0.74443817 1.3672354 -0.15042183 0
-0.63615406 1.3793741 -0.14981279 0
-0.51700002 1.326 -0.15099999 0
-0.46200001 1.372 -0.15099999 0
0.479 1.3710001 -0.147 0
0.66110474 1.34633 -0.14861076 0
0.74172926 1.3431848 -0.14952868 0
0.85021669 1.3510535 -0.14898476 0
0.93915898 1.3612235 -0.1499261 0
1.0403105 1.3340967 -0.15023236 0
1.147614 1.3435957 -0.14912879 0
1.2562895 1.3724954 -0.14850825 0
1.3671105 1.3527071 -0.14852741 0
1.452189 1.3534098 -0.14972064 0
1.5452805 1.3394867 -0.14974561 0
1.6785895 1.3515674 -0.14923966 0
1.7760166 1.3645227 -0.14945486 0
1.8452448 1.3511271 -0.15000024 0
1.9375725 1.3382198 -0.15087028 0
2.06233 1.3315427 -0.15056884 0
2.1570218 1.3580391 -0.15044275 0
2.2659996 1.3552027 -0.15144941 0
2.3505855 1.3681359 -0.15048712 0
2.5409648 1.3240663 -0.15970175 0
2.6483014 1.35291 -0.16234933 0
2.723 1.3380001 -0.164 0
-2.8076615 1.4871883 -0.14369145 0
-2.7278104 1.4453895 -0.14517018 0
-2.647959 1.4035909 -0.14664891 0
-2.4009235 1.496541 -0.14419378 0
-2.3246028 1.4497842 -0.14566147 0
-2.2482822 1.4030273 -0.14712918 0
-1.9239483 1.457227 -0.14157468 0
-1.8507552 1.447641 -0.14180803 0
-1.6362051 1.4301367 -0.14444913 0
-1.5492607 1.4691491 -0.148228 0
-1.4480073 1.4352535 -0.14932406 0
-1.3370699 1.4665848 -0.14356753 0
-1.247007 1.4576006 -0.14102034 0
-1.1402372 1.4452699 -0.13616866 0
-1.0432628 1.4585284 -0.13587925 0
-0.95426619 1.4607193 -0.14258872 0
-0.87009448 1.4308089 -0.14750612 0
-0.7527774 1.4622658 -0.14699902 0
-0.64792538 1.4508224 -0.14823683 0
-0.55754477 1.4620644 -0.14792852 0
-0.43621197 1.4450341 -0.14845407 0
-0.34099999 1.457 -0.149 0
-0.27599999 1.4960001 -0.148 0
0.29300001 1.493 -0.14399999 0
0.359 1.459 -0.146 0
0.43195033 1.4552923 -0.14517182 0
0.52915162 1.4578559 -0.14603768 0
0.66035914 1.4642713 -0.14542195 0
0.74834323 1.4468317 -0.14696617 0
0.84644967 1.4327571 -0.14765795 0
0.94989079 1.4637864 -0.14643219 0
1.0575784 1.4416369 -0.14730197 0
1.1516613 1.4500208 -0.14672728 0
1.2725612 1.4751915 -0.14592429 0
1.3612189 1.4519907 -0.14751756 0
1.4407248 1.4529508 -0.14645189 0
1.5457914 1.4707345 -0.14697653 0
1.6608961 1.4429575 -0.14842859 0
1.7627547 1.4562492 -0.14772856 0
1.83813 1.4463973 -0.14814802 0
1.9662002 1.4528106 -0.14878413 0
2.0582235 1.4352977 -0.14963374 0
2.1326487 1.4500608 -0.14980456 0
2.2320273 1.4681183 -0.14922209 0
2.322 1.426 -0.15000001 0
-2.8932564 1.5319934 -0.14210637 0
-2.5535648 1.5900548 -0.14125837 0
-2.4772441 1.5432979 -0.14272608 0
-2.0679276 1.5673178 -0.13820456 0
-1.9759045 1.53355 -0.13916627 0
-1.8064103 1.5792733 -0.14089826 0
-1.7383282 1.5196186 -0.14231861 0
-1.6394391 1.5485671 -0.143352 0
-1.5617036 1.5625445 -0.14490287 0
-1.4660157 1.5407348 -0.1423469 0
-1.3616358 1.5526342 -0.13936773 0
-1.2454442 1.5528758 -0.13383481 0
-1.1637064 1.5473858 -0.13068928 0
-1.0466173 1.562216 -0.1320641 0
-0.94528335 1.5453885 -0.13778208 0
-0.84238148 1.559826 -0.14073397 0
-0.75152904 1.5392736 -0.14788119 0
-0.64984053 1.5469322 -0.14770514 0
-0.53851843 1.5472779 -0.14706528 0
-0.44354081 1.5565578 -0.14441618 0
-0.36992708 1.5641276 -0.14645697 0
-0.23941989 1.5612365 -0.14632864 0
-0.13933332 1.5816666 -0.14600001 0
0.15766667 1.5773335 -0.14366667 0
0.23253223 1.5690475 -0.14399999 0
0.36998966 1.5598608 -0.14493831 0
0.46211243 1.5536278 -0.14412886 0
0.54247224 1.530565 -0.14408764 0
0.65433282 1.5594956 -0.14331074 0
0.74799287 1.556493 -0.1434513 0
0.85350001 1.5408175 -0.14449039 0
0.95474118 1.5564739 -0.14342244 0
1.0584526 1.5610688 -0.14466494 0
1.1503162 1.5561495 -0.14411515 0
1.2437605 1.5538052 -0.14439014 0
1.3458709 1.5582107 -0.14426513 0
1.4320703 1.5519321 -0.14472179 0
1.544384 1.5576451 -0.14454451 0
1.6415218 1.5305631 -0.14573617 0
1.7398245 1.5465889 -0.14579101 0
1.843822 1.5629956 -0.14618462 0
1.9435865 1.530911 -0.1471083 0
2.0618174 1.5496445 -0.14749335 0
2.1371553 1.5548891 -0.14776428 0
2.23 1.517 -0.149 0
-2.9549999 1.677 -0.14399999 0
-2.657295 1.6536039 -0.13926356 0
-2.2119069 1.6774086 -0.13483442 0
-2.1399171 1.6223632 -0.13651949 0
-2.061589 1.6392847 -0.13580361 0
-1.9425744 1.6985826 -0.13805756 0
-1.8744923 1.6389279 -0.13947791 0
-1.7448313 1.6531843 -0.1407634 0
-1.647259 1.6363182 -0.13964534 0
-1.530059 1.6698166 -0.14094701 0
-1.4556202 1.6475097 -0.13850774 0
-1.345386 1.6626104 -0.13309278 0
-1.2538898 1.6433653 -0.1280527 0
-1.159055 1.6756766 -0.12631039 0
-1.0547839 1.654611 -0.12893866 0
-0.96248192 1.6571175 -0.13311654 0
-0.86071223 1.6629153 -0.1404185 0
-0.75196606 1.6420563 -0.14721112 0
-0.64672554 1.6527109 -0.14464144 0
-0.54963809 1.6429594 -0.14488147 0
-0.43602332 1.6690944 -0.14040262 0
-0.33845258 1.6203238 -0.14487414 0
-0.25726795 1.6631588 -0.14357568 0
-0.16483757 1.6604561 -0.14350116 0
-0.038800001 1.6642001 -0.14399999 0
0.044750001 1.6572499 -0.14375 0
0.14361803 1.6737074 -0.14303204 0
0.24674222 1.6493568 -0.14371967 0
0.34755728 1.6369795 -0.14369267 0
0.45320672 1.655288 -0.1418028 0
0.55172473 1.6407311 -0.14119396 0
0.65156543 1.6664522 -0.14041443 0
0.7582674 1.6686766 -0.13982515 0
0.86142844 1.647028 -0.14123876 0
0.9508552 1.663886 -0.14111015 0
1.0368031 1.6393496 -0.14130375 0
1.1480155 1.6661226 -0.14120211 0
1.2382281 1.6547734 -0.14209856 0
1.3440909 1.6494677 -0.1413364 0
1.4513521 1.6504402 -0.14214367 0
1.5526845 1.6487932 -0.14255914 0
1.658131 1.6251143 -0.14309092 0
1.74998 1.6621256 -0.14242615 0
1.8696424 1.6631783 -0.1435762 0
1.9555278 1.6453203 -0.14490037 0
2.0525215 1.6182123 -0.1460343 0
-3.1102231 1.7676789 -0.13152671 0
-3.0326116 1.7223394 -0.13776335 0
-2.9360969 1.7586672 -0.13769361 0
-2.8402553 1.7370672 -0.13626614 0
-2.7457552 1.7120672 -0.13376614 0
-2.658 1.763 -0.142 0
-2.4260001 1.7539999 -0.134 0
-2.3329999 1.77 -0.132 0
-2.2585604 1.7685 -0.13185139 0
-2.1673069 1.7237417 -0.13316432 0
-2.0106564 1.7582374 -0.13663721 0
-1.9304305 1.7916865 -0.13676712 0
-1.8436182 1.7610514 -0.13456744 0
-1.7514987 1.7502203 -0.13709977 0
-1.6394029 1.7427897 -0.13802624 0
-1.5591142 1.7363482 -0.13734217 0
-1.4614668 1.741374 -0.1346094 0
-1.3419415 1.7638646 -0.12288594 0
-1.2470798 1.7510023 -0.12277423 0
-1.1439838 1.7515614 -0.12332352 0
-1.0567385 1.7635695 -0.12666571 0
-0.93935096 1.7426028 -0.13221416 0
-0.8466 1.7472839 -0.14609891 0
-0.75585282 1.7331775 -0.14621219 0
-0.64751381 1.735242 -0.14426896 0
-0.5541268 1.7556995 -0.13903625 0
-0.44977567 1.7575827 -0.13967717 0
-0.34591126 1.7310432 -0.14042412 0
-0.24410224 1.7316213 -0.14108722 0
-0.15156519 1.7434616 -0.14076747 0
-0.053123217 1.752153 -0.14131454 0
0.04750254 1.7448381 -0.14118491 0
0.14894712 1.7550226 -0.14044315 0
0.25986654 1.7386175 -0.14070041 0
0.34889236 1.7488861 -0.13880098 0
0.45003936 1.7490114 -0.13976742 0
0.5505808 1.7414206 -0.13912497 0
0.63714808 1.7648338 -0.1379931 0
0.76586807 1.7447189 -0.13822377 0
0.85275698 1.7675949 -0.13830748 0
0.9438566 1.7495244 -0.13829777 0
1.063647 1.7399018 -0.1380029 0
1.1711276 1.7527049 -0.13888367 0
1.2532266 1.7573128 -0.13863012 0
1.3433897 1.7426701 -0.13956676 0
1.4483722 1.7547483 -0.13798375 0
1.546026 1.7570362 -0.13877812 0
1.6587965 1.7438991 -0.14052372 0
1.747581 1.7667516 -0.13958083 0
1.8318583 1.7223247 -0.14139323 0
-3.2654462 1.8583577 -0.11905342 0
-3.1761112 1.8558435 -0.12203227 0
-3.0502424 1.8286679 -0.12823404 0
-2.9700212 1.862269 -0.11806457 0
-2.8494258 1.8364519 -0.12611963 0
-2.7307928 1.811851 -0.13547042 0
-2.6558809 1.8526298 -0.13513631 0
-2.5765851 1.8306818 -0.12860501 0
-2.4970851 1.8061818 -0.12460501 0
-2.3533168 1.8934771 -0.1254998 0
-2.2717829 1.8633422 -0.12812921 0
-2.1699104 1.8537734 -0.13189825 0
-2.0453691 1.842446 -0.13460843 0
-1.9458355 1.8598385 -0.1292856 0
-1.8614355 1.8770092 -0.12703787 0
-1.7631326 1.8361554 -0.13705583 0
-1.6624485 1.853093 -0.1354239 0
-1.5633548 1.8514293 -0.13389687 0
-1.4581108 1.8475424 -0.12650146 0
-1.372407 1.8458513 -0.11930422 0
-1.2474066 1.8629434 -0.11811207 0
-1.143759 1.836894 -0.1185784 0
-1.0478472 1.861938 -0.12423725 0
-0.95932621 1.8463833 -0.13281263 0
-0.84567684 1.8427383 -0.1433848 0
-0.74543375 1.8538309 -0.14244333 0
-0.66130275 1.8346167 -0.14096558 0
-0.54834586 1.8387331 -0.13607684 0
-0.45311219 1.8504565 -0.13381751 0
-0.34395042 1.8521674 -0.13589305 0
-0.24206725 1.8414046 -0.13689384 0
-0.13025096 1.8556086 -0.13768524 0
-0.043693114 1.8571243 -0.13738742 0
0.059222601 1.8449501 -0.13807938 0
0.15317732 1.8544706 -0.13615502 0
0.24976444 1.8422644 -0.13814813 0
0.34669104 1.8546772 -0.13632201 0
0.44738561 1.847591 -0.1377724 0
0.53983492 1.8432356 -0.13670354 0
0.64746237 1.869121 -0.13535675 0
0.74245298 1.8389149 -0.13594174 0
0.84684628 1.864887 -0.13506794 0
0.95078117 1.8362981 -0.13552761 0
1.055564 1.838797 -0.13531084 0
1.1557174 1.857775 -0.13534692 0
1.2463723 1.8599977 -0.13612911 0
1.3505251 1.8412004 -0.13734104 0
1.4718623 1.8633536 -0.13586977 0
1.5614706 1.8387552 -0.13667682 0
1.6320444 1.8469411 -0.1364219 0
1.7474246 1.8462498 -0.13896123 0
1.8430336 1.8154643 -0.13836625 0
1.9073241 1.8786736 -0.13699001 0
-3.459475 1.9717062 -0.10346182 0
-3.3298197 1.9478501 -0.10948925 0
-3.2404847 1.945336 -0.11246811 0
-3.1195316 1.9624035 -0.10759686 0
-3.0447764 1.9123363 -0.11283071 0
-2.9491713 1.9584039 -0.11588165 0
-2.8763785 1.9095531 -0.12241124 0
-2.7622023 1.9270747 -0.12484074 0
-2.639255 1.9105453 -0.10581504 0
-2.4557915 1.9706926 -0.10824952 0
-2.324131 1.9393687 -0.10851686 0
-2.2466483 1.964793 -0.11950909 0
-2.1849999 1.911 -0.133 0
-2.0403891 1.9575305 -0.10903582 0
-1.9506578 1.9280907 -0.12357081 0
-1.855 1.9325 -0.1345 0
-1.7567396 1.9379114 -0.13241675 0
-1.6419734 1.9572991 -0.13308753 0
-1.5349762 1.948465 -0.11594729 0
-1.4540842 1.9038656 -0.10685584 0
-1.3191566 1.931986 -0.10672376 0
-1.2564223 1.9617038 -0.11389649 0
-1.164269 1.9232801 -0.11870934 0
-1.042866 1.9474453 -0.12297921 0
-0.9393096 1.9557235 -0.13413556 0
-0.86037564 1.9624443 -0.14046843 0
-0.75377357 1.9578892 -0.13810575 0
-0.64089233 1.9356213 -0.134725 0
-0.54900008 1.9426836 -0.13187118 0
-0.45131016 1.9466157 -0.13015804 0
-0.35188469 1.972401 -0.1314602 0
-0.23662488 1.9513947 -0.13263224 0
-0.14514205 1.9538996 -0.13602886 0
-0.04513824 1.953631 -0.1336447 0
0.055598848 1.9517658 -0.1352572 0
0.15154891 1.9455407 -0.13185854 0
0.2513161 1.95153 -0.13665064 0
0.3415269 1.9589008 -0.13040306 0
0.44790974 1.9495096 -0.13116665 0
0.55786568 1.9486997 -0.13378347 0
0.65600985 1.9492071 -0.13363016 0
0.75057244 1.937115 -0.13406561 0
0.84134734 1.9496369 -0.13313195 0
0.95112884 1.9450803 -0.13308136 0
1.0528693 1.9486742 -0.13280728 0
1.1573986 1.9648105 -0.13226216 0
1.2515148 1.9566816 -0.13296001 0
1.3410701 1.9439139 -0.13424182 0
1.4382994 1.9478337 -0.13519153 0
1.5641959 1.9445417 -0.1289701 0
1.6555777 1.9415451 -0.12927236 0
1.7366405 1.9859487 -0.12509042 0
1.8387806 1.9440622 -0.13670152 0
1.9716146 1.9418826 -0.13561375 0
-3.1942871 2.012471 -0.102363 0
-3.0583606 2.0316806 -0.10608727 0
-2.9394047 2.0511491 -0.10768148 0
-2.8685238 2.0015194 -0.11454519 0
-2.3082967 2.0185859 -0.10601816 0
-2.0026317 2.0113628 -0.10228327 0
-1.8438015 2.0351129 -0.11113793 0
-1.5879524 2.0129299 -0.10589457 0
-1.2275 2.0550001 -0.118 0
-1.1504074 2.0369127 -0.11339324 0
-1.0422419 2.0570655 -0.12957078 0
-0.93113279 2.0496416 -0.12873685 0
-0.83458143 2.0625 -0.13271926 0
-0.77458578 2.0388596 -0.13646656 0
-0.65706891 2.0636814 -0.12496466 0
-0.54876149 2.0501056 -0.11892144 0
-0.45248386 2.054493 -0.12484308 0
-0.35450923 2.0558271 -0.12633462 0
-0.2524997 2.0586426 -0.12667739 0
-0.14521717 2.0576611 -0.13229758 0
-0.048719306 2.050169 -0.13047908 0
0.036541279 2.0574908 -0.13297139 0
0.14890842 2.0396388 -0.12858881 0
0.24642129 2.0609171 -0.13423333 0
0.34741142 2.0587325 -0.12780058 0
0.45822218 2.0361359 -0.12877192 0
0.55316001 2.0533233 -0.13134126 0
0.65247685 2.0397384 -0.13115118 0
0.75745028 2.0431616 -0.13089275 0
0.86488158 2.0536158 -0.13121091 0
0.95314491 2.0648434 -0.13073233 0
1.0364512 2.037704 -0.13054989 0
1.1402351 2.0387447 -0.12799181 0
1.268 2.0150001 -0.132 0
1.356347 2.0330257 -0.12887394 0
1.4494718 2.0523212 -0.12228938 0
1.5605968 2.0412149 -0.12769066 0
1.639771 2.0569527 -0.12139932 0
1.7489908 2.0351422 -0.12487984 0
1.8543353 2.052088 -0.12562674 0
1.9390643 2.062479 -0.13135794 0
2.0433016 2.0123641 -0.13407917 0
2.1436744 2.0629508 -0.13238165 0
2.3440001 2.0109999 -0.141 0
2.4121261 2.0695627 -0.13360573 0
-3.0102856 2.1007791 -0.10081778 0
-1.1479802 2.1675274 -0.11845579 0
-1.0332959 2.1596067 -0.12859592 0
-0.96145773 2.1325812 -0.12319569 0
-0.85916793 2.1533513 -0.12628466 0
-0.72631234 2.1398435 -0.12528603 0
-0.63974047 2.1525567 -0.12151024 0
-0.54169023 2.1415653 -0.11358005 0
-0.44673246 2.1467619 -0.12114507 0
-0.35675263 2.1423247 -0.12576304 0
-0.26716572 2.1577511 -0.12336417 0
-0.15167587 2.1444409 -0.12979431 0
-0.050923884 2.1378472 -0.12739058 0
0.046110835 2.1607428 -0.12958372 0
0.1339242 2.1478765 -0.13048699 0
0.24006367 2.1503427 -0.13164237 0
0.33839348 2.149699 -0.1318548 0
0.45776111 2.139677 -0.13055956 0
0.54138702 2.1613233 -0.12887576 0
0.64523607 2.158335 -0.12803631 0
0.74673611 2.1449513 -0.12869982 0
0.84958994 2.1555912 -0.12936428 0
0.96772724 2.161267 -0.13047323 0
1.0654086 2.1439288 -0.12429036 0
1.1422708 2.1669862 -0.11985022 0
1.2248968 2.160382 -0.12783873 0
1.364139 2.1136277 -0.11353976 0
1.4278132 2.1588802 -0.11551266 0
1.5578151 2.1418653 -0.11914189 0
1.6597394 2.1307678 -0.11909002 0
1.7535501 2.1520538 -0.1079969 0
1.8527082 2.1425703 -0.12250785 0
1.9902407 2.1500826 -0.11597984 0
2.0389147 2.1545336 -0.11903465 0
2.1736979 2.1398034 -0.11952659 0
2.2404282 2.1096063 -0.13219239 0
2.3038564 2.1712124 -0.12638478 0
2.4802518 2.1281252 -0.12621146 0
2.5483778 2.1866879 -0.11881719 0
-1.1550496 2.2790456 -0.10923393 0
-1.0646667 2.2053335 -0.12533332 0
-0.94968319 2.2282734 -0.11346596 0
-0.84737551 2.2521076 -0.12002011 0
-0.75348425 2.2182539 -0.12046689 0
-0.65061629 2.2436781 -0.12784019 0
-0.53090769 2.2186861 -0.1206041 0
-0.45037809 2.2365572 -0.11333235 0
-0.35610986 2.2419448 -0.12128262 0
-0.2665697 2.2480314 -0.12281195 0
-0.1368939 2.2372775 -0.12343121 0
-0.040614516 2.2313037 -0.12546036 0
0.048770588 2.2479665 -0.12706165 0
0.15054777 2.2543132 -0.12779449 0
0.2515873 2.2610006 -0.12903804 0
0.361146 2.2570834 -0.12992419 0
0.43714419 2.2435117 -0.12807047 0
0.5255 2.2185001 -0.12800001 0
0.72049999 2.2055001 -0.1275 0
0.83672476 2.2486823 -0.12725145 0
0.93517137 2.2418213 -0.1287024 0
1.0335593 2.235559 -0.12901765 0
1.1569605 2.2306869 -0.12360398 0
1.2734625 2.2344708 -0.12419062 0
1.6616856 2.243186 -0.13394275 0
1.7239121 2.2438567 -0.10729938 0
1.802918 2.2393403 -0.10691211 0
1.9356904 2.2393682 -0.11374978 0
2.0325215 2.245914 -0.10499187 0
2.1201553 2.2631159 -0.10301448 0
2.237047 2.201705 -0.1122899 0
2.3338404 2.2482126 -0.11281519 0
2.4307127 2.2944248 -0.11476957 0
2.6165037 2.2452505 -0.11142292 0
3.451 2.247 -0.13699999 0
3.5255475 2.2946243 -0.13066517 0
-0.81599998 2.303 -0.126 0
-0.75800002 2.3069999 -0.126 0
-0.67299998 2.3214998 -0.12549999 0
-0.54635197 2.31724 -0.12586312 0
-0.44364738 2.3266017 -0.12136205 0
-0.33688331 2.3433936 -0.11518327 0
-0.26429528 2.3544579 -0.11509881 0
-0.15210961 2.3464143 -0.12021863 0
-0.040984839 2.3342655 -0.12292625 0
0.05228655 2.3379881 -0.12319284 0
0.14411548 2.3198609 -0.12587507 0
0.22465831 2.3798041 -0.12590703 0
1.3385782 2.3510885 -0.12123828 0
1.7594323 2.3465321 -0.12147009 0
2.0020597 2.3505762 -0.10248888 0
2.4941409 2.3560309 -0.10896196 0
2.6846294 2.303813 -0.10402864 0
3.6373687 2.3660607 -0.12116292 0
-0.14 2.408 -0.109 0
-0.056000002 2.418 -0.113 0
0.0285 2.4200001 -0.116 0
0.14175455 2.4269137 -0.11772556 0
0.228 2.4200001 -0.125 0
1.4068469 2.4733531 -0.11814296 0
2.557569 2.4176371 -0.10315435 0
3.7491896 2.4374974 -0.11166067 0
3.8237371 2.4851217 -0.10532583 0
0.11789301 2.5087359 -0.1072597 0
-0.37322354 -1.6089754 -0.09344475 0
-0.40654525 -1.5830579 -0.093683265 0
-0.35346827 -1.5227706 -0.080133699 0
2.3132401 -1.5254922 -0.093136147 0
-0.36057687 -1.4486388 -0.071266383 0
-0.32771507 -1.3383267 -0.053402413 0
-0.31589073 -1.2253522 -0.037414942 0
-0.28960121 -1.2440779 -0.037100278 0
-0.046184603 -0.95974755 -0.019060014 0
-0.039092302 -0.86187375 -0.028280007 0
3.0539999 -0.223 -0.039000005 0
3.1352482 -0.22774017 -0.051806778 0
3.2248232 -0.23296615 -0.065926105 0
3.3143985 -0.23819214 -0.080045424 0
3.4039738 -0.24341813 -0.094164751 0
-2.7103398 1.9627271 -0.09642005 0
-2.3896964 1.9940531 -0.09777528 0
-1.5282547 1.9729465 -0.095077388 0
-1.4838113 1.9711367 -0.097509488 0
-1.2615862 1.977519 -0.098844379 0
-3.6535039 2.0850546 -0.087870218 0
-3.5758924 2.0397153 -0.09410686 0
-3.4687757 2.0853374 -0.093548968 0
-3.3926787 2.0386703 -0.099855348 0
-3.2690423 2.0625381 -0.097129136 0
-2.8525097 2.0670907 -0.077630073 0
-2.7814248 2.0149088 -0.087025061 0
-2.6265831 2.0993853 -0.079499051 0
-2.5582664 2.0479081 -0.090999238 0
-2.4552619 2.0487375 -0.087033711 0
-2.369945 2.0723786 -0.092527248 0
-2.1317782 2.0440609 -0.09307164 0
-2.0619476 2.0695441 -0.091424897 0
-1.6409286 2.077395 -0.095841862 0
-1.557982 2.0402176 -0.08573103 0
-1.4183134 2.0719719 -0.091447525 0
-1.3576374 2.0323868 -0.090600267 0
-1.2885377 2.0729585 -0.091493405 0
-1.088967 2.0490358 -0.099565938 0
-3.7350578 2.1326971 -0.081316791 0
-3.5644364 2.1440024 -0.085621297 0
-3.4232764 2.1658363 -0.086330712 0
-3.3437977 2.1126053 -0.091895282 0
-3.2501712 2.160404 -0.088881649 0
-3.1447749 2.1419783 -0.093146443 0
-3.0811665 2.150409 -0.093954071 0
-2.9591372 2.1453633 -0.063537598 0
-2.6948996 2.1508622 -0.067998856 0
-2.5536098 2.130764 -0.070921361 0
-2.4624176 2.1530681 -0.072290868 0
-2.2536306 2.1594348 -0.071786076 0
-2.164849 2.1384602 -0.077567853 0
-1.9555368 2.1525965 -0.085988507 0
-1.6617935 2.1509731 -0.070539087 0
-1.5903522 2.1078944 -0.083182476 0
-1.4432201 2.1603231 -0.075070791 0
-1.3577815 2.1296921 -0.084959179 0
-1.1284587 2.1260448 -0.092457421 0
-1.0343797 2.1950178 -0.095441893 0
-0.59344363 2.1667755 -0.090432003 0
0.18908598 2.1544924 -0.091485053 0
0.34630835 2.1652019 -0.095389791 0
0.44793516 2.147388 -0.099803723 0
1.7000841 2.1611443 -0.098930635 0
1.8912008 2.1845884 -0.096319497 0
-3.0539999 2.2149999 -0.050999999 0
-2.7736082 2.2101696 -0.054749336 0
-2.6574793 2.2173953 -0.053904504 0
-2.546 2.2260001 -0.054000005 0
-2.3341856 2.2357073 -0.057714432 0
-2.2449474 2.2490439 -0.0579249 0
-2.0551691 2.2573547 -0.06356322 0
-1.814 2.2880001 -0.063000001 0
-1.7526257 2.2532387 -0.061163083 0
-1.6968931 2.2446523 -0.068855464 0
-1.5373 2.2768574 -0.062542155 0
-1.4778707 2.2429092 -0.059724163 0
-1.3829771 2.2258039 -0.077634379 0
-1.2247199 2.2586217 -0.087371007 0
-1.1679505 2.2030535 -0.085348904 0
-1.0413054 2.2731419 -0.087953091 0
-0.77130061 2.2899773 -0.094633326 0
-0.65463781 2.2364311 -0.088617176 0
-0.56935418 2.2835355 -0.09838447 0
0.20220032 2.2858086 -0.077162802 0
0.36152643 2.252569 -0.087288089 0
0.46725768 2.2342861 -0.092437677 0
1.1153857 2.2790663 -0.099833071 0
1.2265761 2.2346346 -0.095232412 0
1.4592779 2.2632551 -0.094079524 0
1.5515232 2.2300024 -0.091699347 0
1.634678 2.2930207 -0.0812378 0
1.7548552 2.2314301 -0.089663289 0
1.8447959 2.2355447 -0.089322045 0
1.949841 2.2529063 -0.0879834 0
-2.4405222 2.3376431 -0.037351996 0
-1.7836958 2.3159063 -0.024635423 0
-1.562 2.3570001 -0.020000003 0
-1.4325984 2.3061132 -0.070352435 0
-1.3302509 2.3904207 -0.082273945 0
-1.2574645 2.3249714 -0.086431742 0
-1.1329539 2.3497162 -0.085204795 0
-1.04 2.3429999 -0.079000004 0
-0.90864277 2.3309941 -0.085019723 0
-0.75189543 2.3465078 -0.08867681 0
-0.63262737 2.3628693 -0.078223929 0
-0.54433614 2.3782208 -0.093766369 0
-0.47251835 2.3584943 -0.09762419 0
-0.39300001 2.392 -0.098999999 0
0.21094322 2.3733525 -0.06761463 0
0.37674448 2.3399358 -0.079186387 0
0.48658022 2.3211842 -0.085071631 0
1.1538476 2.3590884 -0.090110764 0
1.2423489 2.3279865 -0.089423418 0
1.3089602 2.3870578 -0.072054021 0
1.5371139 2.3247771 -0.082554981 0
1.650535 2.3745036 -0.070299014 0
1.8408586 2.3394833 -0.086059913 0
1.9218168 2.3560543 -0.084722601 0
2.0496519 2.3512154 -0.081741981 0
2.1805201 2.3263144 -0.094520994 0
2.2510486 2.3727784 -0.084115475 0
2.3637447 2.3255081 -0.097816497 0
2.4270937 2.3874097 -0.090579793 0
2.7527554 2.3623757 -0.096634373 0
-2.6013923 2.4920487 -0.0062719844 0
-2.5370443 2.4302864 -0.01870399 0
-1.3458567 2.4720631 -0.067256346 0
-1.249301 2.4256382 -0.076961994 0
-0.017999999 2.45 -0.030999999 0
0.21699999 2.434 -0.061000004 0
0.39298126 2.4331512 -0.070542343 0
0.50945139 2.424041 -0.07635279 0
1.1923094 2.4391105 -0.080388457 0
1.2579119 2.4251583 -0.086504534 0
1.3501521 2.4632695 -0.060464829 0
1.5544169 2.4128828 -0.074619278 0
1.6333594 2.4724879 -0.062176973 0
1.7353492 2.436229 -0.059732914 0
1.8848242 2.4457135 -0.085598767 0
1.9583267 2.4301326 -0.071930081 0
2.0484638 2.4473753 -0.07630153 0
2.1381445 2.4550273 -0.078687981 0
2.2607822 2.4382682 -0.084434494 0
2.3419631 2.4663119 -0.06915012 0
2.4904428 2.4493115 -0.083343089 0
2.6209972 2.4792433 -0.097346745 0
2.8549442 2.4502196 -0.085542969 0
-1.4207525 2.5392623 -0.064821832 0
-1.3428746 2.5505998 -0.061938237 0
-1.2428155 2.5238638 -0.063819192 0
-0.020950586 2.5395994 -0.021361414 0
0.13761079 2.5883486 -0.094762996 0
0.44499999 2.5550001 -0.02 0
0.6311301 2.5496225 -0.017665446 0
0.75919414 2.5448971 -0.020965405 0
0.88599998 2.5309999 -0.028000001 0
0.96436161 2.5561249 -0.025104379 0
1.0299768 2.5510037 -0.024320457 0
1.1681856 2.5426595 -0.025877293 0
1.2662996 2.5411589 -0.069805138 0
1.3656105 2.5623512 -0.058990985 0
1.6495558 2.5625105 -0.05515904 0
1.7447734 2.5445025 -0.04594934 0
1.809 2.5409999 -0.044 0
1.9561002 2.5238934 -0.070739783 0
2.0283806 2.533709 -0.066931635 0
2.1387804 2.5466781 -0.057192497 0
2.2421215 2.5508029 -0.065675974 0
2.3634813 2.5476651 -0.072459683 0
2.4334388 2.5604229 -0.054092381 0
2.5537918 2.5112131 -0.076106392 0
2.6502128 2.5564246 -0.080269568 0
2.734 2.589 -0.086999997 0
2.9665666 2.5660319 -0.06872578 0
3.025259 2.5966263 -0.067057289 0
3.8982844 2.5327461 -0.098991007 0
3.9728317 2.5803704 -0.09265618 0
-1.5112542 2.6881039 -0.047369719 0
-1.4337132 2.623126 -0.052012689 0
-1.3602972 2.6742721 -0.04040356 0
-1.2822694 2.6030798 -0.049023986 0
-0.023901172 2.629199 -0.011722831 0
0.14362991 2.6774209 -0.083060615 0
0.46146289 2.6419551 -0.011050373 0
0.6645205 2.6744907 -0.0016617831 0
0.79877645 2.6705885 -0.0058616158 0
0.92390633 2.6546421 -0.013313762 0
1.0471771 2.6737571 -0.010349678 0
1.2227426 2.6556377 -0.0045091752 0
1.3442771 2.672215 -0.055814385 0
1.4299999 2.6110001 -0.038000003 0
1.5254184 2.6387305 -0.033324976 0
1.6971253 2.6373243 -0.045428917 0
1.7490823 2.6469326 -0.036138065 0
2.0385125 2.6396389 -0.056793191 0
3.039597 2.6284964 -0.056871809 0
4.0473795 2.6279948 -0.086321346 0
4.1100001 2.668 -0.081 0
-1.556505 2.7625248 -0.038643662 0
-1.4573933 2.7467289 -0.036715932 0
-1.3611771 2.7615118 -0.01943358 0
-0.026851758 2.7187984 -0.0020842478 0
0.14964901 2.7664931 -0.071358234 0
0.47792578 2.72891 -0.0021007471 0
1.0461696 2.7567494 -0.0056262799 0
1.3530785 2.7735996 -0.039749607 0
1.4218415 2.7452848 -0.051708162 0
1.5866735 2.7549224 -0.016299902 0
1.8629116 2.7396631 -0.00869032 0
2.1210248 2.7442775 -0.037586376 0
3.1464853 2.7389817 -0.024859037 0
5.2150002 2.766 -0.041000001 0
-1.6017559 2.8369455 -0.029917609 0
-1.5292406 2.8624949 -0.028376799 0
-1.4423962 2.8323627 -0.012871414 0
0.15566811 2.8555653 -0.059655849 0
1.4699119 2.8391581 -0.041504536 0
1.6275103 2.8323834 -0.0049498528 0
2.1760333 2.8140366 -0.024781838 0
2.2310414 2.8837957 -0.0119773 0
3.2487769 2.8259706 -0.0019744597 0
5.2926512 2.8072925 -0.025662841 0
5.3703022 2.8485847 -0.010325681 0
-1.6475034 2.9121833 -0.021095775 0
-1.5608844 2.9343364 -0.016742235 0
0.16168723 2.9446375 -0.047953464 0
0.16770631 3.0337098 -0.036251083 0
0.18181694 3.1291878 -0.025365798 0
0.15703711 3.2266243 -0.0053373054 0
0.034638811 4.055356 -0.01458216 0
-0.079886168 -1.1069051 0.010951215 0
-0.072848223 -1.0392067 0.0079349531 0
0.67000002 -1.045 0.003 0
-0.062462054 -0.93930173 0.0034837383 0
0.579 -0.91299999 0.028999999 0
0.61798459 -0.96954906 0.017861543 0
-5.6302109 2.1813271 0.079432629 0
-5.5486054 2.1476636 0.064216316 0
-5.467 2.1140001 0.048999999 0
-5.7118158 2.2149906 0.094648942 0
-2.6657403 2.5538108 0.0061600208 0
-2.7622623 2.6464543 0.024808023 0
-0.88599998 2.6830001 0.0070000002 0
-2.8587844 2.7390976 0.043456025 0
-0.90918094 2.7632542 0.015952639 0
0.68678069 2.7577362 0.0090073254 0
0.82516468 2.7543826 0.0042075757 0
0.96181273 2.7782845 0.001372477 0
1.1148614 2.7510223 0.0040772464 0
1.2591138 2.7309566 0.0097362362 0
-2.9672043 2.8431606 0.064402685 0
-0.93236184 2.843508 0.024905279 0
-0.042851761 2.844465 0.03758242 0
0.49438867 2.815865 0.0068488792 0
0.70904094 2.8409815 0.019676434 0
0.8515529 2.8381767 0.014276769 0
0.98708367 2.8607125 0.011163302 0
1.0788928 2.8369992 0.0021649618 0
1.1488152 2.8310297 0.015436327 0
1.295485 2.8062754 0.023981649 0
1.3318563 2.8815942 0.038227059 0
1.9366585 2.8414612 0.011895489 0
3.3169711 2.8839631 0.013281927 0
5.4479532 2.8898771 0.0050114766 0
-1.698 2.9779999 0.021 0
-1.5694518 2.9817472 0.0043694302 0
-1.4545424 2.9489717 0.015578412 0
-0.9555428 2.9237621 0.033857919 0
-0.056824878 2.9592781 0.058950778 0
0.51908302 2.9462976 0.020273319 0
0.73130119 2.924227 0.030345542 0
0.87794113 2.9219711 0.02434596 0
1.0123546 2.9431407 0.020954128 0
1.1462414 2.9419281 0.01816635 0
1.2167226 2.9910445 0.03815449 0
1.3682276 2.956913 0.052472472 0
1.6683471 2.9098446 0.0064001977 0
1.7091838 2.9873059 0.017750248 0
1.9858232 2.9093266 0.025619362 0
2.0349879 2.9771917 0.039343234 0
2.2860498 2.9535549 0.00082723796 0
3.3851652 2.9419558 0.028538309 0
3.4533594 2.9999485 0.043794699 0
5.5256042 2.9311695 0.020348638 0
5.6032553 2.9724617 0.0356858 0
-1.7377191 3.0405576 0.033660475 0
-1.595 3.029 0.012000002 0
-1.0019047 3.08427 0.051763196 0
-0.97872376 3.0040159 0.042810556 0
-0.05378304 3.076221 0.048585206 0
0.54377735 3.07673 0.033697758 0
0.76469147 3.0490952 0.046349201 0
0.9175235 3.0476623 0.039449751 0
1.0376256 3.025569 0.030744959 0
1.1770625 3.0777485 0.025538687 0
1.2506764 3.0710521 0.049513571 0
1.39 3.0020001 0.060999997 0
