# .PCD v0.7 - Point Cloud Data file format
VERSION 0.7
FIELDS x y z intensity
SIZE 4 4 4 4
TYPE F F F F
COUNT 1 1 1 1
WIDTH 408
HEIGHT 1
VIEWPOINT 0 0 0 1 0 0 0
POINTS 408
DATA ascii
-44.465847 -14.372043 9.7541418 9
-44.467911 -14.676696 10.664076 10
-44.542717 -14.921318 11.522853 10
-44.448841 -14.659791 11.921879 11
-44.497177 -14.952039 12.287926 11
-43.23563 -8.8788967 8.3702726 9
-43.231445 -9.85886 14.702538 13
-43.238884 -8.8794947 14.577636 13
-43.165668 -9.8493738 8.4457283 9
-43.016594 -9.4928417 9.0936575 9
-42.840626 -8.8150682 9.9305286 10
-43.182529 -9.938612 10.066733 10
-43.116142 -10.399897 11.765678 11
-42.90099 -9.3881922 15.761412 13
-42.791756 -10.164375 10.847631 10
-38.970108 -6.2340889 7.383039 9
-38.858372 -6.6449137 8.0931187 9
-38.841728 -7.0579505 8.9557848 10
-38.502579 -5.6430831 7.9681258 9
-38.693073 -6.1101317 8.8814268 10
-38.700153 -6.4703574 9.7117367 10
-38.427853 -5.5415568 9.6208858 10
-38.336655 -5.1481819 8.7648296 10
-29.49213 -10.527738 3.5106425 6
-29.23653 -10.034655 3.6615572 7
-29.042131 -10.70659 3.6588337 7
-29.155571 -10.304507 4.2296886 7
-28.260353 -6.3750486 3.165997 6
-28.225039 -5.7841864 2.8173976 6
-28.0611 -6.1970582 3.4362533 7
-28.297304 -5.581706 3.454011 7
-28.305546 -5.2364893 3.887965 7
-28.127832 -5.9288659 4.0592275 7
-27.806139 -6.5009427 3.898607 7
-27.244944 -6.4568624 -0.028199371 3
-16.024408 -8.4300661 -0.057323746 3
-11.989839 -2.2456229 -0.023309572 3
-11.805937 -1.0847893 -0.039584141 3
-11.482144 1.8222438 3.1350908 11
-10.968147 -0.43029097 1.1330377e-05 3
-10.978906 -0.37456331 0.11761095 3
-10.300982 -1.4094855 -0.081411332 3
-10.009418 -1.617489 0.7417959 5
-10.077221 -1.4827904 0.52798218 5
-7.2151256 -4.1916075 -0.069889523 3
-7.4572845 2.288975 -0.03906469 3
-6.6466346 -2.6787794 -0.0051099509 3
-6.6076384 -2.666615 0.24140407 4
-6.5893817 -2.6595078 0.54331917 5.4000001
-6.2243433 -8.0502129 -0.013818967 3
-6.3869166 -2.5107033 -0.15966374 2
-6.1010222 -8.0877399 0.21991028 3.5
-6.0130982 -2.8484166 0.29749537 4
-6.0853314 -8.1450834 0.4834156 4
-6.0366726 -2.8653672 0.54280347 5
-5.6936874 1.4698589 -0.016144181 3
-5.6374164 -9.0391798 0.029904442 3
-5.7848735 -8.2079115 0.17074446 3.6666667
-5.7844992 -2.9323545 0.17853001 4
-5.7731409 -8.1632481 0.62442911 4.5
-5.762032 -2.9371605 0.57285088 5.5
-5.7967415 -8.1640196 1.0464232 6
-5.8242545 -2.9629152 0.87358624 7
-5.9581389 1.2961079 1.4351312 10.5
-5.5887704 2.3429213 -0.056545191 3
-5.3756495 -8.2484436 0.23186381 4
-5.2784719 -3.4229465 0.027015019 3
-5.4732013 -3.0256212 0.24659422 4.25
-5.38381 1.9529247 0.061876349 3
-5.3469305 -8.2180347 0.66751486 4.6666665
-5.485744 -3.0192053 0.58024538 5.6666665
-5.3553281 -8.2552691 1.0246201 6
-5.5268631 -3.0490072 0.90778011 7
-4.9267812 -0.91698366 -0.15059759 2
-4.8891711 1.4801813 -0.12866829 2
-4.92381 -3.3826683 0.099443324 3.5
-5.0253234 -3.156157 0.29203606 4.5
-5.0453382 -8.31845 0.75655341 5
-4.8217692 -3.2252283 0.60911965 6
-5.0197182 -3.1669462 0.62863117 6
-5.0599861 -8.3597345 0.99355829 6
-4.991889 -3.2189448 0.8685016 7
-4.6281052 -0.63383925 -0.14679399 2
-4.4819069 -0.39849404 -0.14765386 2
-4.506712 2.1604116 -0.040078301 3
-4.5754738 -3.301873 0.32368332 4.6666665
-4.5802898 -3.2885175 0.65003031 6.5999999
-4.4800429 -10.16139 4.0679312 13.5
-4.2174826 -3.4135385 -0.022344664 3
-4.3899179 -0.18171811 -0.15000126 2
-4.0249166 2.1398826 -0.045414522 3
-4.026638 -5.1345682 0.16426416 4
-4.18294 -3.4394424 0.21615614 4.1666665
-4.1679511 -3.4384747 0.61183894 6.3333335
-4.1852546 -10.261718 4.0965667 13.6
-3.7459002 -1.2561405 -0.17328069 2
-3.6018813 -0.85707283 -0.16872917 2
-3.9205358 0.77840573 -0.1591468 2
-3.8041668 0.94415295 -0.15897138 2
-3.6389489 1.3221142 -0.15241182 2
-3.6406887 2.1798019 -0.081549488 3
-3.7197068 -3.6099896 0.3704364 5
-3.8193302 -3.5453038 0.36933187 5
-3.787395 3.4486687 0.083594911 4
-3.7965207 -3.5519972 0.57366276 6.25
-3.7677486 2.6716394 0.57274121 7
-3.6397085 -10.439466 4.0249057 13
-3.8374338 -10.368251 4.1348443 13.666667
-3.4458132 -3.2599523 -0.16155121 2
-3.5207651 -2.7381709 -0.17630412 2
-3.4114249 -2.2961109 -0.16523558 2
-3.5633454 -1.0021049 -0.17964421 2
-3.3168597 -0.4551785 -0.1748933 1
-3.4201846 -0.10922717 -0.17019446 2
-3.4371305 1.4274132 -0.14915156 2
-3.3156686 2.1883996 -0.087157801 3
-3.2537453 3.2421596 0.067368448 4
-3.3605855 -10.509302 4.1479874 14
-3.078305 1.5271038 -0.14210483 2
-2.9197705 1.7310485 -0.14256193 2
-3.1179793 3.40799 0.060092699 4
-2.9856992 3.6299756 0.085644521 4
-3.121876 -10.580494 4.1407928 14
-2.5220859 -5.5723624 -0.16768534 2
-2.5530601 -3.5920417 -0.16810623 2
-2.7163975 1.7804884 -0.14180098 2
-2.4977913 2.2526183 -0.058122169 3
-2.5842886 3.2958436 0.017636627 3
-2.6027749 3.6678286 0.062686399 4
-2.3602843 -3.6546447 -0.16654694 2
-2.1161201 -2.9072826 -0.17029332 1
-2.1485286 -2.0140798 -0.1929336 1
-2.1034431 -1.5951074 -0.2052808 1
-2.2340026 -0.85140109 -0.19260696 1
-2.2027595 -0.57142955 -0.17930163 1
-2.1245062 -0.33137107 -0.18434137 0
-2.3165429 0.35743949 -0.16413559 1
-2.1422377 0.61885959 -0.16038625 1
-2.2526355 1.0457428 -0.15812021 1
-2.2106905 2.2775745 -0.062875681 3
-2.1521301 -5.25455 4.3421445 23
-2.1366034 -3.4652779 4.5133748 28
-1.7091371 -3.0944233 -0.081214286 2
-1.9974964 -0.77131748 -0.19069284 0
-1.86642 0.36302409 -0.17069514 0
-1.7137457 0.59602153 -0.16470219 0
-1.8427608 1.9416375 -0.13204227 2
-1.6077828 2.3666353 -0.026825672 3
-1.7252448 2.9844012 -0.030321689 3
-1.6234771 -2.966819 0.24956489 5
-1.6998416 2.6853724 0.34723014 6.5
-1.6208054 -3.0767317 0.4806456 7
-1.750033 2.6704862 0.46443596 8
-1.7781467 2.506763 1.2176676 15
-1.7860589 -5.3608608 4.3088522 23
-1.553104 -2.4942887 -0.15750936 1
-1.5191559 -0.45847106 -0.17675933 0
-1.52474 -0.34870416 -0.17717893 0
-1.3678186 1.3944745 -0.14820319 1
-1.281955 1.8929887 -0.12947121 2
-1.2750505 2.3333406 -0.081625655 2
-1.556767 -3.3550944 0.039988149 3
-1.5710646 -3.0202768 0.30254567 5.5
-1.5351923 -2.9989133 0.68353742 9.1999998
-1.4347816 2.6299078 0.70976514 10.5
-1.4340466 2.5970442 0.82333976 12
-1.3493655 2.3099117 2.6956789 27
-1.4761488 -5.4550385 4.3333516 23
-1.1441025 -3.0001552 -0.14041568 2
-0.88484794 -1.8106606 -0.15090451 1
-0.98127437 1.1430985 -0.15733962 0
-1.0105661 1.3597767 -0.14891155 0.5
-0.95380694 1.765732 -0.14312375 1
-0.97673303 2.2708035 -0.11941017 2
-1.1869888 2.744859 -0.022286512 3
-1.1944344 2.7224135 0.099641792 4
-0.42085126 -1.2090378 -0.00027199613 3
-0.70970553 1.397014 -0.15413234 0
-0.64541656 1.8221587 -0.15066719 1
-0.65437102 2.3246474 -0.13406982 2
-0.47948691 -1.2295283 0.10431454 5
-0.62630457 2.7774594 0.72782034 10.666667
-0.56592613 2.8160295 0.65712011 10
-0.685157 3.3408265 3.1768911 26
-0.65694517 3.2947073 3.2808409 26.5
-0.17705831 -0.89706808 -0.019981148 2.5
-0.23218626 1.7081286 -0.1509916 1
-0.14641094 2.4133217 -0.11959962 2
-0.37031588 -1.2261735 0.19210579 7.625
-0.16347896 -0.84520036 0.11709184 7.3333335
-0.35928336 2.8257811 1.1762143 15
0.24663468 -0.90313464 -0.023139475 2.5
0.21876673 1.5454541 -0.16583721 0.5
0.15195812 1.6418209 -0.15110938 1
0.31223884 2.2665665 -0.13619037 2
0.11006913 2.4197893 -0.13094908 2
0.21440361 -0.89067644 0.093912371 6.3636365
0.27382419 -0.72212678 0.15123834 9
0.13749388 3.3916264 0.0050923754 3
0.29534033 3.1599798 3.1411638 27
0.29008469 3.2534778 3.0705214 26
0.064312786 3.4200134 3.3045728 26.5
0.51882672 -0.98641366 -0.035573483 2.5
0.53825659 1.5321865 -0.15101805 1
0.77297992 1.6893909 -0.14690332 1
0.54707652 2.1978717 -0.13637696 2
0.65572578 2.5043178 -0.03440078 3
0.565175 3.3850307 -0.040425718 3
0.6065321 -0.98778069 0.15701057 7.125
0.76349711 3.1386893 0.045946926 4
0.65841031 -0.86498159 0.40455696 14
0.43143979 3.1288302 3.1184299 27
0.50034386 3.2700644 3.0794601 26
0.46570799 3.0158482 3.2833128 28
0.548962 3.23803 3.213573 27
1.1986864 -1.2012215 -0.043304496 2
1.008714 -1.1011729 -0.088991553 1.4444444
0.92545992 0.92670786 -0.19068608 0
1.0722024 1.7503562 -0.14523882 1.25
0.96969634 2.2276144 -0.13698168 2
0.9698832 -1.1186056 0.039374273 4
1.1174529 3.1966727 0.013883935 3
0.94967043 3.2251799 0.048711285 4
0.90671527 3.1028743 3.2661271 27
1.3580972 -1.2375487 -0.069770515 2
1.3483282 -1.1844821 -0.1351462 1
1.2197733 -0.76185328 -0.18394931 0
1.3405887 1.0326859 -0.15714489 1
1.2953594 1.5237011 -0.15177326 1
1.5120704 1.8502122 -0.14285542 2
1.329109 2.0393114 -0.13974303 2
1.3761785 -1.2383487 0.05149363 4
1.2461623 -1.1952896 0.021752428 3.5
1.5547818 2.8058677 3.1795704 27
1.5658824 2.7648847 3.2157304 27
1.8165965 -1.3635594 -0.071422286 2
1.9844177 -1.0428777 -0.16671538 1
1.9356511 0.18859066 -0.16676402 1
1.7587159 0.95512426 -0.1551595 1
1.7633628 1.7482454 -0.1467457 2
1.739018 2.3725483 -0.14067023 2
1.8846401 2.5424111 -0.055198364 3
1.8257132 -1.3650664 0.062750004 4
1.7987028 2.6359525 3.1708896 27
1.7558228 2.548326 3.3156857 28
2.0016508 -1.3104357 -0.16376874 1
2.014147 -0.98731136 -0.16540202 1
2.0722821 -0.57750672 -0.1667327 1
2.1957338 -0.21103573 -0.16655171 1
2.2006435 2.56004 -0.059518021 3
2.6721332 -1.4359895 -0.083627075 2.4000001
2.7816315 -1.1033696 -0.07587228 2.5
2.7754958 1.1415704 -0.17335512 2
2.5780098 1.8324869 -0.14647296 2
2.5345995 2.5567284 -0.064752176 3
2.6347325 -1.6010417 0.079458036 4
2.6875827 -1.4037781 0.15663746 4.8000002
2.7778022 -1.1032596 0.20914842 5.5
2.6361208 3.5470791 0.10958818 4
2.7018893 -1.607138 0.64149177 9.5
2.7033226 -1.4629897 0.48753017 8
2.6986425 -1.6039054 0.87449121 11
2.713799 -1.4144654 1.033523 13
2.835201 -0.92944103 -0.064160228 2.6666667
2.9306347 -0.61019945 -0.081027828 2.5
3.009429 -0.34575224 -0.038689949 3
2.9865744 0.99084306 -0.17578016 2
2.987154 2.5988421 -0.078093193 3
2.8513093 -0.93296349 0.21328063 5.25
2.960989 -0.56014746 0.20649737 5.2857141
3.0105448 -0.32883883 0.18898918 5.2857141
3.118695 3.4786651 0.14618798 4
2.941458 -0.60293496 0.56117135 8.8888893
3.0216167 -0.32730538 0.58277845 9
3.3195231 0.58319104 -0.17196886 2
3.2128344 0.80221999 -0.17312653 2
3.5427752 2.6499774 -0.072427429 3
3.9500136 -0.0019956897 -0.19299056 2
3.8718004 0.17360112 -0.19238074 2
3.674969 3.6798856 0.094816491 4
3.9769831 3.2228093 4.0497251 23
4.0062733 -0.18457565 -0.19262116 2
4.0503211 2.1435323 -0.14132808 2
4.4752727 2.1174955 -0.14206432 2
4.7138453 2.9643319 0.17056641 4.25
5.009439 3.0481143 0.62191218 6.5
5.0076051 3.1018147 0.86422122 7.5
5.2050924 2.7602825 -0.048990071 3
5.9296613 3.1445882 0.092976667 4
5.925209 3.123266 0.97330004 7.5
6.0691628 2.8439419 -0.069946997 3
6.006381 3.0942883 0.72918159 7
6.4326468 2.2769632 -0.12199318 3
6.8570623 2.847821 -0.069706284 3
8.6613998 1.308971 -0.15794258 3
9.4860039 3.452965 0.78905785 6
9.4560852 3.5829511 1.0846449 6
9.3102846 3.4254591 1.3551033 7
9.2644444 3.4596484 1.6769853 8
10.117167 3.0530558 -0.18759911 3
13.933038 -1.4620223 11.128473 23
14.527522 -0.76820546 -0.068604432 3
14.739903 0.052874614 -0.23108162 3
14.566327 -0.69041908 0.26326415 4
14.692887 -0.20852175 0.24690621 4
14.786791 0.11772965 0.2027939 4
14.459872 -0.97233647 0.68873 5
14.557195 -0.64206964 0.69268066 5
14.699808 -0.17194715 0.64300698 4.6666665
14.754869 0.075830936 0.64687437 5
14.475922 -1.0237859 1.1308136 6
14.547244 -0.68751103 1.1362588 6
14.698816 -0.18160534 1.1463561 6
14.611633 -0.63513845 1.2971658 6
14.74126 -0.15466642 1.28231 6
14.793723 0.16863933 1.2706947 6
14.51461 -0.91411483 1.8476365 7
14.705388 -0.2385051 1.8439646 7
14.66958 -2.0763414 7.3483315 17
14.644239 -1.8576288 7.3750429 17
14.748522 -3.7943504 7.6360841 17
14.802517 0.27836105 0.22947925 4
14.863329 0.4040975 0.65822858 5
15.099536 4.5260153 0.40691873 4
14.856464 0.3322818 1.1583724 6
14.880643 0.23252364 1.9000677 7
15.044985 -0.60876751 2.2186201 8
15.13813 -0.087818578 2.2171867 8
14.998258 -0.79444438 2.695441 9
15.040499 -0.32934639 2.5686309 8
14.938007 -0.95417488 2.9917026 9
15.199877 -0.58686888 2.977087 9
15.093459 -0.31639317 3.0656071 9
14.951283 -0.84842074 3.3695292 10
14.994749 -0.51503819 3.3839612 10
15.170033 -0.025948346 3.785069 11
14.95669 -0.84302479 4.1895204 11.5
15.192171 -0.13475542 4.0462732 11
15.169173 -0.14174962 4.4112868 12
14.974031 -0.84269911 5.6885195 14
14.880713 -3.3992827 7.6377754 17
15.014593 -2.9869184 7.6433921 17
15.123685 -2.5632513 7.6469421 17
15.530693 0.82909405 0.2173562 4
15.525831 0.76329446 0.69249493 5
15.554642 0.88599509 0.47823605 4
15.545948 0.71245801 1.2136014 6
15.556756 0.86414021 1.3002825 6
15.571734 0.93007302 1.8921424 7
15.517007 0.71852559 2.0265892 7
15.226663 -0.44313005 2.7298346 9
15.514132 0.66170949 2.772707 9
15.253248 -0.183654 3.4473643 10
15.516241 0.64284438 3.9007456 11
15.580515 0.50323611 5.9460325 14
15.315265 -2.4389164 16.946804 28
15.384159 -2.1918907 16.918499 28
15.524517 -1.8708913 17.030079 28
15.61088 0.69837815 0.052631125 3
15.800014 1.3528901 0.20122036 4
15.614368 1.1135149 0.70174623 5
15.830554 1.3764105 0.59866709 4.5
15.854021 1.4438136 0.88701779 5
15.668478 1.0836568 1.2248127 6
15.935935 1.592571 1.2966815 6
15.812227 1.383611 1.7911519 6.5
15.784514 4.4769769 1.9681714 7
15.640117 0.65068376 2.2707303 8
15.701638 1.0458694 2.1683948 7.5
15.824294 1.3971747 2.2861221 8
15.841669 4.3004508 2.2226851 7
15.667058 0.72556818 2.6315758 8
15.768824 4.4114566 2.5863581 8
15.618066 0.75656301 3.1805096 9
15.649663 1.1128544 2.9637494 9
15.947013 4.3876562 2.9084511 8
15.859614 1.3455873 4.0222402 11
15.645356 0.57900643 4.5308781 12
15.822709 1.3287147 4.5722752 12
15.601425 0.53111571 4.876976 12
15.746812 1.2459166 4.9014583 12
15.7351 0.9844473 5.6140289 14
15.893861 1.3608552 5.6832056 14
15.654322 0.78684616 6.3984466 15
15.823005 1.2161509 6.070528 14
15.61725 0.93466949 6.703135 15
15.828856 -0.89890671 17.118614 28
15.739834 -0.84894508 17.330528 28
15.802859 -0.52395737 17.402975 28
16.255999 2.3665915 0.23485637 4
16.13294 4.1189847 2.6462367 8
16.782665 3.6801307 0.17851193 3.5
16.78124 3.7695682 0.46727091 4
16.752422 3.6659613 0.83954793 5
16.877949 4.1535478 0.092229344 3
16.823362 3.8904958 0.87094635 5
16.869524 3.9890001 1.3101834 5.5
16.864771 3.8819695 1.8369753 6
17.566717 3.4035034 0.87931579 5
17.650469 3.45661 0.19668305 3.5
17.630541 3.5250823 0.49800199 4
17.78097 3.3368468 1.4115069 6
18.024832 3.3146648 0.84358144 5
18.5987 3.1815979 -0.10703938 3
18.620848 3.143816 0.27005759 4
18.514725 3.2635109 0.16174729 4
18.543041 3.128083 0.92709291 5
18.752264 3.069392 1.4822533 6
