# .PCD v0.7 - Point Cloud Data file format
VERSION 0.7
FIELDS x y z intensity
SIZE 4 4 4 4
TYPE F F F F
COUNT 1 1 1 1
WIDTH 92
HEIGHT 1
VIEWPOINT 0 0 0 1 0 0 0
POINTS 92
DATA ascii
-17.299065 -1.745512 3.2528844 9
-1.8043045 -0.83110642 0.038036514 4
-1.1176759 -1.0219289 0.27306855 9
-0.86089075 -1.0835756 0.048762124 4
-0.85595173 -2.5624683 0.47632962 8
-0.85276866 -2.5602198 0.60332584 10
-0.85763693 -2.5732493 2.1358576 23.5
-0.67968959 -1.1286604 -0.042335451 2.5
-0.79444712 -2.5733376 0.54239506 9
-0.77089632 -2.6064596 0.985497 14
-0.6394015 -1.1437727 0.99672592 23
-0.62528896 -2.6191998 1.5165989 19
-0.7780512 -2.5884023 2.0044458 22
-0.66584355 -2.6058576 2.6515479 27
-0.58591932 -2.6117313 0.3275916 7
-0.4261362 -2.6612363 0.49976256 9
-0.51098979 -2.6439459 0.66269976 10
-0.42910725 -2.6758337 1.9658022 22
-0.25894564 -1.6959428 -0.0077766515 3
-0.21922177 -2.6808555 0.94081819 13
-0.21302958 -2.6855693 1.0498303 14
-0.32393906 -2.709698 1.5019008 18
-0.22439006 -2.718514 3.0799217 29
-0.12355311 -1.7251589 -0.071738943 2
-0.18230703 -1.7132245 0.16391821 6
-0.11652452 -2.5623415 1.4374835 19
-0.080590256 -2.560751 2.0064697 23
-0.17365302 -2.7223117 2.6879239 26.5
0.15220132 -1.6898468 0.16645491 6.5
0.18410024 -2.8210027 1.5830325 19
0.18824466 -2.8186216 2.0620244 22
0.35432512 -1.7471793 0.096844614 5
0.35532835 -1.7148491 0.20474848 7
0.22866637 2.7291021 0.30517995 7
0.21846092 2.8636169 0.68689394 11
0.23250581 -2.8361111 1.4840386 18
0.52179229 -1.7454065 0.19753927 6
0.50397938 -2.8884904 1.657925 19
0.41222647 -2.8736386 3.392988 29
0.85444242 2.6240354 -0.070902243 3
0.99750984 -3.1840255 3.7350833 28
1.0855719 -2.0146437 0.015060121 3
1.08248 2.5928168 0.32637212 7
1.0559849 2.5424924 0.44202656 8
1.1836838 -3.0402675 1.8662771 19
1.074584 -3.0771651 3.8116195 29
1.2690067 -3.0856187 1.0752366 13
1.2803354 -3.0608549 1.2681335 14
1.2158033 -3.0676692 2.5433021 23
1.7491645 -3.1892009 3.8274498 28
2.0897076 -3.3021348 3.8314049 26.5
2.3850033 -3.3408778 1.6226225 14.5
2.4059324 -3.3519058 0.49208421 7
2.7460577 -3.4236352 0.48224139 6
2.7877765 -3.4444177 0.93618977 9
2.8829749 -3.4460778 1.0858674 10
2.8507459 -3.6221962 3.5207353 23
3.2507844 3.5610216 1.357296 12
3.2086496 3.6402333 1.3046552 11
3.7571418 3.0686293 1.3580886 12
3.8880606 -3.5218341 4.2424431 24
4.0259686 -3.517472 4.0508561 23
4.0991502 2.6726551 4.8137717 27
4.3873868 -2.164938 4.0968442 24
4.3096886 2.204953 4.1424832 24
4.2431026 -2.0101738 4.5886135 26
4.266202 -2.0655951 4.6958475 27
7.729897 -0.083706237 0.24942774 4
7.77777 -0.06491299 0.45602125 5
7.6448817 -0.061812371 0.66772258 6
7.6853771 0.095945708 0.97218186 7
7.7372899 -0.035710033 1.1720278 8
8.8811817 -1.6307125 0.19255671 4
8.8467245 -1.8311288 0.61325866 5
8.835515 -1.8657526 0.88458592 6
8.844964 -1.8609141 1.1835121 7
8.9215984 -1.9324465 1.3516406 8
9.1736126 -0.54970986 1.8605655 9
9.319418 -1.6197125 5.959372 20
9.4920826 4.9060154 1.2992176 7
9.595067 4.5934234 1.466845 8
9.4447193 -2.9068377 8.2711 24
9.4833212 -1.2238923 9.0755863 26
9.5538273 -2.5534973 11.40118 29
9.7801943 -0.028455801 2.7990139 12
9.6070147 -3.1616378 3.7158396 14
9.7045097 -0.34021568 6.0331726 20
9.707736 -0.15058866 6.4796033 21
9.7313766 -1.3201305 11.409105 29
9.8549805 -0.98964202 8.3407173 24
9.8187408 0.27626309 10.102578 27
9.82901 -2.5865169 10.775947 28
