# .PCD v0.7 - Point Cloud Data file format
VERSION 0.7
FIELDS x y z intensity
SIZE 4 4 4 4
TYPE F F F F
COUNT 1 1 1 1
WIDTH 1388
HEIGHT 1
VIEWPOINT 0 0 0 1 0 0 0
POINTS 1388
DATA ascii
1.324524 -1.7493951 -0.16644807 0
1.5443684 -1.7560929 -0.16611254 0
-0.67812788 -1.6329765 -0.10068648 0
1.0441493 -1.6508974 -0.16498391 0
1.2448275 -1.649497 -0.16778004 0
1.4574212 -1.6615655 -0.16678137 0
1.5722367 -1.6276841 -0.16911189 0
1.618 -1.673 -0.169 0
1.165131 -1.5495988 -0.16911201 0
1.3708949 -1.5674959 -0.16744696 0
1.4511577 -1.5077894 -0.16940793 0
1.5116972 -1.5677367 -0.16925991 0
1.112 -1.483 -0.17 0
1.2555263 -1.4420698 -0.16833441 0
1.3906183 -1.4478421 -0.16955595 0
1.169 -1.348 -0.169 0
1.2695395 -1.3279474 -0.16985199 0
1.3300788 -1.3878947 -0.16970396 0
1.5938159 -1.3003557 -0.16923381 0
1.660979 -1.3526268 -0.16968057 0
1.709 -1.39 -0.17 0
1.209 -1.268 -0.17 0
1.5266527 -1.2480845 -0.16878705 0
1.65868 -1.2256484 -0.1693393 0
1.734 -1.279 -0.17 0
1.3923264 -1.1435423 -0.16789351 0
1.4725666 -1.1494472 -0.16808087 0
1.5548581 -1.1521078 -0.16842858 0
1.258 -1.039 -0.167 0
1.3361889 -1.0481491 -0.16702695 0
1.416429 -1.0540539 -0.16721429 0
1.278 -0.95599997 -0.16599999 0
1.6397076 -0.93300515 -0.16692254 0
1.7561383 -0.99583673 -0.16794835 0
-1.8451066 -0.81224632 -0.14631046 0
1.4554255 -0.83355784 -0.16529891 0
1.5291383 -0.87333679 -0.16594836 0
1.6462649 -0.83561671 -0.16679174 0
1.7678432 -0.89407784 -0.16886115 0
-2.0669999 -0.73699999 -0.162 0
-1.9525743 -0.71620536 -0.17057149 0
-1.8482512 -0.74614388 -0.1694579 0
-1.7562599 -0.7490465 -0.16284892 0
-1.6511242 -0.72487068 -0.16177887 0
1.3571091 -0.75204605 -0.16364551 0
1.4572289 -0.74471855 -0.1635741 0
1.5328432 -0.7810778 -0.16486116 0
1.6514077 -0.74010515 -0.1652448 0
1.7667718 -0.78890347 -0.16699654 0
-1.9166807 -0.65265405 -0.17230362 0
-1.8624271 -0.66513991 -0.17175737 0
-1.7491306 -0.63967174 -0.17337129 0
-1.6810116 -0.64112216 -0.17939103 0
-1.537071 -0.67349756 -0.17087364 0
-1.4610355 -0.63924879 -0.17693682 0
-1.385 -0.60500002 -0.183 0
1.3443787 -0.64923394 -0.16108274 0
1.4595145 -0.65893561 -0.16233101 0
1.5362718 -0.69140345 -0.16349652 0
-1.9223181 -0.55816573 -0.17639188 0
-1.8645499 -0.56717902 -0.17291076 0
-1.7593863 -0.54571116 -0.17615281 0
-1.658963 -0.54588884 -0.17253906 0
-1.560514 -0.58135498 -0.17815606 0
-1.4600048 -0.54811835 -0.18188536 0
-1.388 -0.509 -0.177 0
1.306 -0.59399998 -0.16 0
1.962822 -0.51758087 -0.16118413 0
-1.9296741 -0.46469641 -0.17551917 0
-1.8517187 -0.46566567 -0.17592929 0
-1.7570666 -0.44398895 -0.17653304 0
-1.6404903 -0.43806666 -0.17547143 0
-1.5504413 -0.43714297 -0.17483121 0
-1.4682508 -0.43004772 -0.17699917 0
-1.372 -0.42899999 -0.17399999 0
1.7465 -0.42750001 -0.1645 0
1.8538109 -0.45741135 -0.16317755 0
1.9715276 -0.4360925 -0.16219595 0
2.0690184 -0.45897833 -0.16121396 0
-3.477 -0.36899999 -0.19400001 0
-3.3516152 -0.3546612 -0.19352204 0
-3.2192922 -0.33952895 -0.19301763 0
-3.1310768 -0.3294408 -0.19268136 0
-3.0428615 -0.31935263 -0.1923451 0
-2.9546461 -0.30926448 -0.19200882 0
-1.73 -0.38800001 -0.182 0
-1.4363301 -0.38355953 -0.17787424 0
-1.3890001 -0.36199999 -0.175 0
1.74 -0.36000001 -0.164 0
1.8547277 -0.38535064 -0.16302498 0
1.9687825 -0.31310749 -0.16202749 0
2.0673552 -0.33023834 -0.161185 0
-3.4524484 -0.2059986 -0.19478095 0
-2.8664308 -0.29917634 -0.19167255 0
-2.7782154 -0.28908816 -0.19133627 0
-2.6900001 -0.27900001 -0.191 0
-2.1553226 -0.21670046 -0.17073271 0
-2.0481613 -0.20835024 -0.18186635 0
1.738 -0.273 -0.164 0
1.8605381 -0.26360545 -0.16286939 0
1.9532483 -0.21456328 -0.16237099 0
2.0618322 -0.22820885 -0.16208066 0
-3.3478069 -0.19879748 -0.19320568 0
-3.2577174 -0.19259776 -0.1918495 0
-3.1676278 -0.18639804 -0.19049332 0
-3.077538 -0.18019833 -0.18913713 0
-2.9874485 -0.17399861 -0.18778093 0
-2.852314 -0.16469902 -0.18574665 0
-2.7171793 -0.15539944 -0.18371238 0
-2.6270897 -0.14919972 -0.18235618 0
-2.5361524 -0.14294599 -0.18101013 0
-2.4512143 -0.13753161 -0.18202533 0
-2.3679714 -0.13222529 -0.18302026 0
-2.2431073 -0.1242658 -0.18451267 0
-2.1516836 -0.14939736 -0.17665642 0
-2.0459681 -0.14398095 -0.18382739 0
1.7542317 -0.14739978 -0.16328801 0
1.8690218 -0.11348939 -0.16272341 0
1.9475327 -0.11923409 -0.1620851 0
2.0535216 -0.12698939 -0.1612234 0
-3.1449752 -0.059400819 -0.17397213 0
-3.0342758 -0.056738481 -0.17411155 0
-2.9456015 -0.054675318 -0.17427883 0
-2.8569269 -0.052612159 -0.17444609 0
-2.7682526 -0.050548997 -0.17461336 0
-2.6541173 -0.040841665 -0.17660554 0
-2.5368707 -0.037764013 -0.17654683 0
-2.4766808 -0.043917105 -0.17566819 0
-2.3474307 -0.041670073 -0.1774447 0
-2.2181203 -0.046615358 -0.17681414 0
-2.1493621 -0.039011281 -0.18235883 0
-2.0615904 -0.04676659 -0.18624942 0
1.684 -0.017999999 -0.162 0
1.7474985 -0.04793698 -0.16252871 0
1.8504956 -0.044810943 -0.16208613 0
1.9297433 -0.047716413 -0.16187918 0
2.0419955 -0.051810943 -0.16158612 0
-3.1379523 0.047612898 -0.17500527 0
-3.0359936 0.047191732 -0.17525949 0
-2.9475827 0.046657667 -0.17550844 0
-2.8591719 0.046123601 -0.17575738 0
-2.770761 0.04558954 -0.17600632 0
-2.6823499 0.045055475 -0.17625527 0
-2.539489 0.061169583 -0.17841911 0
-2.4346957 0.071543798 -0.17807077 0
-2.3484509 0.069237567 -0.17910598 0
-2.2415884 0.066276118 -0.18053433 0
-2.1410267 0.053869028 -0.18410014 0
-2.049 0.056000002 -0.19049999 0
1.673 0.021 -0.162 0
1.7525499 0.021 -0.1617955 0
1.8320998 0.021 -0.16159101 0
1.9514246 0.021 -0.16128425 0
2.062 0.021 -0.161 0
-3.1040001 0.13699999 -0.169 0
-3.0301776 0.13169992 -0.1706405 0
-2.9449813 0.12558328 -0.17253375 0
-2.8687096 0.15759543 -0.17503911 0
-2.7808518 0.15169965 -0.17593922 0
-2.6438522 0.1466848 -0.1798315 0
-2.5361094 0.16561532 -0.18269703 0
-2.4482949 0.16034403 -0.18272427 0
-2.3407638 0.15124951 -0.1853535 0
-2.2301102 0.14736766 -0.18285249 0
-2.138648 0.17339678 -0.18639362 0
-2.0444999 0.153 -0.19150001 0
1.6471083 0.14161807 -0.15959093 0
1.7418249 0.16082615 -0.15937516 0
1.8372836 0.1400438 -0.15776959 0
1.9646664 0.11500655 -0.16078982 0
2.0474164 0.11887909 -0.16099364 0
-3.217 0.21699999 -0.176 0
-3.1491914 0.21274889 -0.17593031 0
-3.0538483 0.25333026 -0.17131682 0
-2.9621308 0.23499592 -0.17281131 0
-2.8673451 0.26126862 -0.17064358 0
-2.7785816 0.25394455 -0.17140877 0
-2.6454363 0.2429584 -0.17255658 0
-2.5126452 0.25298613 -0.1788522 0
-2.4418724 0.24663925 -0.17980604 0
-2.3565688 0.23881418 -0.18107438 0
-2.2490106 0.22499061 -0.18149418 0
-2.121721 0.2630266 -0.19010189 0
-2.0485001 0.25150001 -0.19400001 0
1.5885 0.27200001 -0.1585 0
1.6549248 0.2373292 -0.15894668 0
1.7472742 0.25998762 -0.15784007 0
1.8315767 0.24846028 -0.15841755 0
1.9416876 0.20947778 -0.16076775 0
2.0305548 0.21817361 -0.16097984 0
-3.1646638 0.39913923 -0.18251243 0
-3.0780001 0.38499999 -0.183 0
-2.8542411 0.39389318 -0.17118087 0
-2.7663496 0.38333702 -0.17186932 0
-2.678458 0.37278083 -0.17255777 0
-2.5278103 0.37597328 -0.17979522 0
-2.4374039 0.36434263 -0.18084975 0
-2.3528557 0.35290727 -0.18208632 0
-2.2480061 0.33839321 -0.18376909 0
-2.1630685 0.34693241 -0.18690079 0
-2.0440066 0.36634275 -0.18674578 0
-1.9298338 0.36312842 -0.18404248 0
-1.8471117 0.35717124 -0.18472329 0
-1.7626374 0.36329895 -0.18564968 0
-1.6554297 0.36187807 -0.18573444 0
-1.5868595 0.34775615 -0.18746886 0
-1.4557148 0.31943905 -0.1893672 0
1.5650001 0.34650001 -0.15899999 0
1.6599523 0.34829912 -0.15812202 0
1.7533286 0.34768489 -0.15719007 0
1.8264855 0.33205467 -0.1595702 0
1.9492124 0.32962036 -0.16018528 0
2.0145001 0.34 -0.16049999 0
3.0869999 0.31200001 -0.192 0
3.1686802 0.31844842 -0.18698455 0
3.2503603 0.32489687 -0.18196911 0
3.3320403 0.33134529 -0.17695366 0
3.4545608 0.34101796 -0.16943049 0
3.543 0.34799999 -0.164 0
-3.7713108 0.49811396 -0.17909953 0
-3.6846468 0.4839747 -0.17958708 0
-3.554651 0.46276584 -0.18031842 0
-3.4246554 0.44155696 -0.18104976 0
-3.3379915 0.42741773 -0.18153732 0
-3.2513278 0.41327849 -0.18202488 0
-3.0050001 0.412 -0.17 0
-2.9417584 0.45018372 -0.17080016 0
-2.8331139 0.45348138 -0.17472649 0
-2.7520854 0.43886104 -0.17754486 0
-2.671057 0.42424071 -0.18036324 0
-2.5588083 0.4566766 -0.17670767 0
-2.436764 0.44967702 -0.18101878 0
-2.3363407 0.43643391 -0.18010959 0
-2.2462678 0.44167614 -0.17909551 0
-2.1638801 0.45414701 -0.17888506 0
-2.0518093 0.45889291 -0.18068378 0
-1.928749 0.45897529 -0.180713 0
-1.844331 0.45102897 -0.1808119 0
-1.7708354 0.45541811 -0.18129575 0
-1.6767486 0.45281938 -0.18142454 0
-1.5834999 0.44849998 -0.18149999 0
1.5556666 0.44433331 -0.16066666 0
1.646109 0.45622575 -0.15915002 0
1.7397039 0.43113777 -0.15788439 0
1.878862 0.43591964 -0.16044734 0
1.9588275 0.45364958 -0.16080917 0
2.0009999 0.463 -0.161 0
3.0280001 0.45100001 -0.19 0
3.1487513 0.46616411 -0.18269876 0
3.2695024 0.48132819 -0.17539755 0
3.350003 0.49143758 -0.17053005 0
-3.789 0.50099999 -0.17900001 0
-2.9260001 0.54000002 -0.169 0
-2.8458462 0.55984032 -0.17132041 0
-2.7622457 0.54416966 -0.17285466 0
-2.6536694 0.53190219 -0.17588586 0
-2.5228591 0.52085423 -0.1809399 0
-2.4353824 0.54189175 -0.18365347 0
-2.3323576 0.56830531 -0.18289855 0
-2.234144 0.5449115 -0.18024032 0
-2.1568856 0.54043573 -0.18019336 0
-2.0576982 0.55520219 -0.17988625 0
-1.9562976 0.54828411 -0.17948778 0
-1.8411217 0.54959071 -0.17960334 0
-1.745528 0.562343 -0.17928284 0
-1.6382051 0.5506587 -0.18061462 0
-1.5450001 0.54033333 -0.18066667 0
1.488 0.58600003 -0.15899999 0
1.5476767 0.54565465 -0.15926051 0
1.6622007 0.54826963 -0.15717082 0
1.7389162 0.52061319 -0.15804294 0
1.8474432 0.52530193 -0.16078116 0
1.957027 0.55568874 -0.16173823 0
2.9809999 0.58700001 -0.19 0
3.444252 0.50327349 -0.16483128 0
-2.9130001 0.60699999 -0.171 0
-2.4047601 0.61643523 -0.18298474 0
-2.3572199 0.66351438 -0.18278916 0
-2.2132111 0.63872027 -0.17967418 0
-2.1402586 0.6460464 -0.17956781 0
-2.052217 0.6539067 -0.17928126 0
-1.9427636 0.63580531 -0.17932519 0
-1.8550889 0.66173565 -0.17826442 0
-1.7608051 0.65659225 -0.17756577 0
-1.652593 0.6389696 -0.1790399 0
-1.550869 0.64355308 -0.17875214 0
-1.477 0.662 -0.1785 0
1.4859999 0.66900003 -0.162 0
1.5405016 0.64962709 -0.16012965 0
1.6448236 0.64824218 -0.15690659 0
2.967 0.65700001 -0.19 0
3.0471609 0.63914716 -0.18457341 0
3.1421149 0.65227848 -0.17698203 0
3.217 0.653 -0.17 0
-2.3417766 0.7594943 -0.18231125 0
-2.2399406 0.74029636 -0.18073514 0
-2.1544886 0.75007081 -0.1793308 0
-2.0483859 0.75836158 -0.17846 0
-1.9438405 0.74333322 -0.17813513 0
-1.839947 0.75484407 -0.17740509 0
-1.7448946 0.75309199 -0.17555961 0
-1.6464404 0.74609399 -0.17621595 0
-1.5300771 0.75368959 -0.17746949 0
-1.4299999 0.74799997 -0.17733334 0
1.4584999 0.76600003 -0.163 0
1.5421811 0.78473008 -0.16027901 0
1.6190217 0.72850966 -0.15849943 0
2.9235001 0.75699997 -0.1895 0
3.0422478 0.75697684 -0.18165821 0
3.1482477 0.79147691 -0.17265821 0
3.2403083 0.71024185 -0.17225271 0
3.352 0.73199999 -0.16500001 0
-2.3033559 0.82877171 -0.18199432 0
-2.2709999 0.87800002 -0.18099999 0
-2.1592512 0.85471505 -0.17806619 0
-2.0527997 0.86021978 -0.17693821 0
-1.9584635 0.85035473 -0.17613873 0
-1.8611304 0.84608239 -0.17502099 0
-1.7607648 0.84006673 -0.17478274 0
-1.6614208 0.85728824 -0.17363171 0
-1.5793024 0.8477273 -0.17526001 0
-1.4608727 0.85829097 -0.1759215 0
-1.3663334 0.84666663 -0.17566667 0
1.4623723 0.86713815 -0.16528608 0
1.5492586 0.8580851 -0.16085985 0
1.604 0.815 -0.15899999 0
2.9671834 0.81050134 -0.18354443 0
3.063458 0.84275341 -0.17536107 0
3.1029999 0.85600001 -0.17200001 0
-2.251564 0.95067877 -0.1775852 0
-2.1296024 0.94721383 -0.17545278 0
-2.0451012 0.95901453 -0.1757814 0
-1.9356779 0.95015204 -0.174546 0
-1.8292332 0.94237137 -0.17495596 0
-1.748485 0.95120621 -0.17455183 0
-1.6512433 0.95094657 -0.17369412 0
-1.5573906 0.93808192 -0.17336233 0
-1.4375902 0.9570803 -0.175 0
-1.3195 0.9325 -0.175 0
-1.285 0.98000002 -0.17399999 0
1.0445424 0.9611606 -0.16200809 0
1.4524173 0.95839947 -0.16838066 0
1.5371003 0.94164234 -0.16377194 0
2.8509998 0.95749998 -0.1895 0
2.9364336 0.95072562 -0.18662833 0
3.0038669 0.97545123 -0.18325666 0
-2.5665739 1.0902063 -0.17886753 0
-2.4368336 1.067992 -0.17822741 0
-2.3540742 1.0314928 -0.17770214 0
-2.2412567 1.0448118 -0.1765891 0
-2.1564941 1.0277536 -0.17601672 0
-2.0717976 1.0551732 -0.17392281 0
-1.9455997 1.0667077 -0.17402335 0
-1.8506153 1.0382062 -0.17410843 0
-1.7518991 1.0551111 -0.17334491 0
-1.6594387 1.0311294 -0.17378816 0
-1.5493265 1.0524389 -0.17414963 0
-1.4440238 1.050211 -0.17310299 0
-1.3444564 1.0513006 -0.17409709 0
-1.2453333 1.0483333 -0.17433333 0
-1.1670001 1.082 -0.169 0
0.97600001 1.053 -0.164 0
1.0664961 1.0472244 -0.163545 0
1.1552545 1.0299633 -0.16304855 0
1.2168818 1.0854448 -0.16407283 0
1.4534118 1.0572366 -0.16916382 0
1.547213 1.0155312 -0.16582754 0
1.6562022 1.0542949 -0.16979794 0
1.7282695 1.0993931 -0.17039725 0
2.8641307 1.0520344 -0.18659078 0
2.9741955 1.0449617 -0.17608577 0
3.0713005 1.0001769 -0.17988499 0
3.109 1.0140001 -0.178 0
-2.539 1.149 -0.17900001 0
-2.4555068 1.1566101 -0.17744015 0
-2.3209848 1.1173428 -0.17604457 0
-2.231519 1.1692818 -0.17150916 0
-2.1452909 1.1624217 -0.17353538 0
-2.0504341 1.1502254 -0.17536348 0
-1.9468962 1.156545 -0.17459936 0
-1.8506556 1.1384659 -0.17448486 0
-1.7497979 1.1489825 -0.175 0
-1.648632 1.1392138 -0.17406109 0
-1.5563579 1.1611141 -0.17303976 0
-1.4619288 1.1451578 -0.17303655 0
-1.3692149 1.1532285 -0.17275597 0
-1.2639242 1.1438142 -0.17186323 0
-1.155 1.1515 -0.1715 0
0.94911164 1.1661371 -0.16585977 0
1.0592029 1.1425819 -0.16510937 0
1.1542401 1.1330611 -0.16436249 0
1.278509 1.1409264 -0.1650971 0
1.3615682 1.167204 -0.16956069 0
1.4487796 1.1907803 -0.17253014 0
1.5650289 1.1068618 -0.17130557 0
1.6345433 1.1552927 -0.17145835 0
1.8363705 1.1670406 -0.17129622 0
2.7909999 1.123 -0.19 0
2.8751085 1.1610868 -0.17809789 0
2.9506967 1.1141415 -0.17768654 0
-2.4707975 1.2987047 -0.16927291 0
-2.3511584 1.2339933 -0.17039104 0
-2.2448356 1.2648215 -0.17424352 0
-2.1474111 1.2638326 -0.17482018 0
-2.0483243 1.2398793 -0.17486799 0
-1.9745092 1.2589849 -0.17481872 0
-1.8388057 1.2490503 -0.17474812 0
-1.7500114 1.2297626 -0.17435662 0
-1.6400707 1.2561858 -0.17195491 0
-1.5230676 1.2518976 -0.17326194 0
-1.4315367 1.2356441 -0.17304781 0
-1.3415126 1.244063 -0.17197303 0
-1.2638818 1.2298423 -0.17061324 0
-1.1654713 1.2480569 -0.16962463 0
-1.0634139 1.2559549 -0.16500001 0
0.86000001 1.248 -0.16599999 0
0.96045393 1.2637324 -0.16661054 0
1.0486695 1.2458225 -0.16615871 0
1.1701403 1.2620244 -0.16658854 0
1.2419844 1.2188977 -0.16517997 0
1.3461603 1.2467073 -0.16890831 0
1.4077874 1.2759523 -0.17320521 0
1.5474489 1.2699506 -0.17182535 0
1.7388148 1.2279391 -0.17168751 0
1.9462279 1.2363851 -0.17183745 0
2.6329999 1.283 -0.169 0
-2.6303167 1.3849866 -0.16778208 0
-2.5505571 1.3418458 -0.1685275 0
-2.4541123 1.3735127 -0.17008092 0
-2.3546803 1.3499045 -0.17315929 0
-2.2635543 1.3511163 -0.17516635 0
-2.1348288 1.3674276 -0.17258681 0
-2.0199156 1.3717083 -0.17423914 0
-1.94245 1.3407235 -0.175 0
-1.8641772 1.358088 -0.17322589 0
-1.7412752 1.3336822 -0.17171651 0
-1.6583514 1.3635964 -0.1728929 0
-1.5638946 1.3500737 -0.17241304 0
-1.4587175 1.3524542 -0.171139 0
-1.3410528 1.3355954 -0.17073101 0
-1.2378116 1.3574398 -0.16869074 0
-1.1409146 1.3461604 -0.1689509 0
-1.0345365 1.3486724 -0.17010278 0
0.74400002 1.375 -0.16599999 0
0.83387268 1.3412367 -0.167 0
0.92427862 1.3503804 -0.16861767 0
1.0139079 1.3364649 -0.16622107 0
1.1271716 1.3379393 -0.16702773 0
1.2715859 1.3679017 -0.17242448 0
1.3340076 1.3239141 -0.17223984 0
1.4705749 1.3319048 -0.17241044 0
1.5333624 1.3878571 -0.17161566 0
1.6461183 1.3491211 -0.17112058 0
1.8683621 1.3181952 -0.17197223 0
1.953938 1.3790541 -0.1713766 0
2.0723674 1.3183107 -0.1710247 0
2.148051 1.3674662 -0.17053704 0
2.5050001 1.367 -0.167 0
2.7397218 1.3323061 -0.16867562 0
2.8464437 1.3816123 -0.16835123 0
-2.7499559 1.4496982 -0.16666397 0
-2.611757 1.4609179 -0.16771328 0
-2.5329347 1.4172153 -0.16889711 0
-2.4572835 1.4521172 -0.16841796 0
-2.3411551 1.4600055 -0.16957311 0
-2.2703993 1.4913723 -0.17017117 0
-2.1756203 1.4666874 -0.17157611 0
-2.0633173 1.4634628 -0.17266575 0
-1.9507356 1.4543295 -0.17273983 0
-1.8433616 1.4406646 -0.17232476 0
-1.7412821 1.4439354 -0.17248023 0
-1.6551275 1.4637985 -0.17166698 0
-1.5545888 1.4408785 -0.17043552 0
-1.465088 1.4583256 -0.17021835 0
-1.353982 1.4252348 -0.16833889 0
-1.248947 1.4479266 -0.16637196 0
-1.1425519 1.4487143 -0.16872516 0
-1.0428247 1.4639916 -0.17053729 0
-0.96000004 1.45575 -0.17074999 0
-0.66286284 1.4411402 -0.17059757 0
-0.57700002 1.499 -0.171 0
0.67199999 1.4400001 -0.16500001 0
0.75265408 1.4507381 -0.16532557 0
0.8655268 1.4650028 -0.1665 0
0.98855728 1.4527609 -0.17123535 0
1.0673618 1.4091972 -0.16583161 0
1.1484079 1.4894648 -0.17072107 0
1.2395411 1.4493345 -0.17201866 0
1.3362806 1.4323994 -0.17536089 0
1.4400387 1.4580046 -0.17310368 0
1.5961497 1.4438094 -0.17082089 0
1.6589372 1.4997618 -0.17002611 0
1.7447877 1.4282916 -0.1704158 0
1.803 1.475 -0.17 0
2.063345 1.457135 -0.17044151 0
2.2615767 1.4411993 -0.16980556 0
2.3789999 1.444 -0.16599999 0
2.4480965 1.4856896 -0.16599999 0
2.575562 1.4041059 -0.167 0
2.6461241 1.4412118 -0.167 0
2.7166862 1.4783176 -0.167 0
2.9397957 1.4247415 -0.16806749 0
-2.928 1.546 -0.16500001 0
-2.8589399 1.5681452 -0.16456923 0
-2.769402 1.548323 -0.16534565 0
-2.6710415 1.5352137 -0.16597781 0
-2.5530839 1.5493364 -0.16659051 0
-2.4384863 1.5602829 -0.16776045 0
-2.3253675 1.5668125 -0.16929352 0
-2.2305882 1.5421276 -0.17069846 0
-2.1549711 1.5662584 -0.17134395 0
-2.0309513 1.5565163 -0.16878241 0
-1.951713 1.525054 -0.1690753 0
-1.8519322 1.562318 -0.17017464 0
-1.744 1.5416666 -0.17133333 0
-1.6394401 1.5437045 -0.17062765 0
-1.5390364 1.5438586 -0.16968043 0
-1.4581609 1.5582197 -0.16836898 0
-1.3500938 1.5392622 -0.16678254 0
-1.2398084 1.5561434 -0.16744761 0
-1.1479203 1.5441521 -0.16881116 0
-1.0401657 1.5535684 -0.1688683 0
-0.94290006 1.542254 -0.16906399 0
-0.85049999 1.5625 -0.171 0
-0.73617673 1.5618407 -0.16958547 0
-0.63615668 1.5449226 -0.17055151 0
-0.5463888 1.5666847 -0.17205556 0
0.55400002 1.5609999 -0.16599999 0
0.63247776 1.5394199 -0.16553794 0
0.73698711 1.5517794 -0.166319 0
0.84094524 1.5515902 -0.16356602 0
0.97040582 1.5521046 -0.167 0
1.0528359 1.5551414 -0.17385304 0
1.1441348 1.5608311 -0.17002633 0
1.228716 1.5626582 -0.17442168 0
1.36605 1.5349287 -0.17354298 0
1.4518416 1.5531981 -0.17208263 0
1.535548 1.5652877 -0.17065243 0
1.606113 1.5977106 -0.16959758 0
1.7339083 1.5665714 -0.16907711 0
1.8720934 1.5315797 -0.16967914 0
1.941187 1.5881593 -0.16935827 0
2.1727517 1.535216 -0.1695064 0
2.2456896 1.58727 -0.168883 0
2.3751023 1.5149324 -0.16907409 0
2.4507859 1.5640877 -0.16858643 0
2.5517416 1.548224 -0.16599999 0
2.7872481 1.5154235 -0.167 0
2.8529999 1.55 -0.167 0
-2.8079395 1.6573793 -0.16301633 0
-2.7291913 1.6112827 -0.16422941 0
-2.6470709 1.6493436 -0.16474921 0
-2.5717988 1.6877449 -0.16534235 0
-2.4751141 1.6669375 -0.16701093 0
-2.3589523 1.6713886 -0.16899724 0
-2.2416773 1.6696473 -0.16969925 0
-2.1360946 1.6646544 -0.16528977 0
-2.0604553 1.6215307 -0.16532382 0
-1.955277 1.6535671 -0.16464949 0
-1.8745488 1.6564361 -0.1684331 0
-1.7487119 1.6599933 -0.16698579 0
-1.6415 1.633 -0.16949999 0
-1.5533315 1.6788971 -0.16802391 0
-1.4424446 1.6565964 -0.16561589 0
-1.3519979 1.62804 -0.16553509 0
-1.247694 1.6603794 -0.16740787 0
-1.1317124 1.6629579 -0.16687149 0
-1.0517546 1.6438564 -0.16849321 0
-0.95546246 1.6305643 -0.16680396 0
-0.84667104 1.6468171 -0.16818161 0
-0.74027365 1.6495246 -0.16867793 0
-0.62829483 1.6331556 -0.16987264 0
-0.55524439 1.666883 -0.17076597 0
-0.46053469 1.6441274 -0.17218377 0
-0.38499999 1.682 -0.17200001 0
0.384 1.699 -0.16599999 0
0.45666668 1.6500001 -0.16666667 0
0.56400263 1.6468558 -0.16422758 0
0.63430798 1.6550531 -0.16317369 0
0.75430101 1.6845258 -0.16492802 0
0.84160101 1.6449537 -0.16398138 0
0.93928146 1.6385294 -0.16775 0
1.0354927 1.6448951 -0.17183143 0
1.1631691 1.6343799 -0.17268226 0
1.2545778 1.6278554 -0.16875328 0
1.3341479 1.6939746 -0.17126504 0
1.4548904 1.6451868 -0.17056857 0
1.5674026 1.6739967 -0.16880438 0
1.6735678 1.6637263 -0.16815856 0
1.8390421 1.6606076 -0.16848683 0
2.0102806 1.644739 -0.1690374 0
2.3550966 1.6653509 -0.16794789 0
2.5264697 1.6132431 -0.16809878 0
2.6287699 1.6365784 -0.16680557 0
2.7307415 1.656224 -0.16599999 0
4.5619998 1.6390001 -0.142 0
4.6388192 1.6684915 -0.13899788 0
4.7156382 1.697983 -0.13599575 0
-2.7379999 1.7505 -0.163 0
-2.624861 1.7670624 -0.16472834 0
-2.5281763 1.746255 -0.16639693 0
-2.4119425 1.7515168 -0.16868792 0
-2.2657828 1.7627587 -0.15937468 0
-2.1521354 1.7673836 -0.16745503 0
-2.0407736 1.7518896 -0.16186501 0
-1.9212511 1.7394282 -0.16377088 0
-1.8361192 1.7031348 -0.16392811 0
-1.7656834 1.7562536 -0.16355991 0
-1.659719 1.7302639 -0.16592014 0
-1.5410115 1.747826 -0.16337018 0
-1.4563333 1.7379999 -0.16466667 0
-1.3574622 1.7542572 -0.16487022 0
-1.2481234 1.7439579 -0.16668649 0
-1.1421589 1.7530066 -0.16652346 0
-1.0417752 1.7346036 -0.16514476 0
-0.95523483 1.7426528 -0.16567338 0
-0.83720589 1.7555574 -0.16727924 0
-0.77447927 1.7498231 -0.16696344 0
-0.65330124 1.7467426 -0.16855407 0
-0.54856378 1.7635312 -0.1679554 0
-0.44822562 1.7549056 -0.17024079 0
-0.34100422 1.7296219 -0.17043293 0
-0.252 1.7620001 -0.17 0
-0.192 1.795 -0.169 0
0.25050002 1.7755001 -0.164 0
0.33808801 1.7506752 -0.16442616 0
0.4403291 1.7393667 -0.16478945 0
0.5449667 1.7591628 -0.16316396 0
0.6519351 1.7482364 -0.16188815 0
0.75106925 1.7471466 -0.16195314 0
0.86587405 1.7513157 -0.16214649 0
0.92467541 1.7533174 -0.16479839 0
1.0569975 1.7461319 -0.16910985 0
1.1440771 1.7870686 -0.17111191 0
1.2516744 1.7236754 -0.16756169 0
1.3607477 1.7662461 -0.16678549 0
1.5184519 1.7434088 -0.16788962 0
1.6318731 1.7331583 -0.1670661 0
1.7080562 1.7783309 -0.1666176 0
1.9380841 1.7492151 -0.16797365 0
2.0793741 1.7013187 -0.16871653 0
2.1484675 1.7578984 -0.16839565 0
2.4645035 1.7434319 -0.16701278 0
2.5374415 1.795486 -0.16638939 0
2.6874185 1.717777 -0.16706173 0
4.7924576 1.7274745 -0.13299362 0
4.8692765 1.7569659 -0.1299915 0
4.9460959 1.7864574 -0.12698936 0
-2.6883233 1.8561063 -0.16408205 0
-2.5587833 1.8573787 -0.1671702 0
-2.4533253 1.8512115 -0.15863948 0
-2.3493159 1.8313724 -0.1597957 0
-2.1615021 1.8532156 -0.15431789 0
-2.0530849 1.8587136 -0.15895149 0
-1.9398478 1.8429731 -0.15644318 0
-1.8402756 1.8443661 -0.16012977 0
-1.7563567 1.8740807 -0.15786365 0
-1.6690972 1.8243469 -0.16023207 0
-1.5841342 1.8593012 -0.15807295 0
-1.4261909 1.8416506 -0.1603463 0
-1.3468242 1.8571422 -0.16306961 0
-1.2372694 1.8361346 -0.16332749 0
-1.1425 1.8503852 -0.16490993 0
-1.0462964 1.8598325 -0.16331898 0
-0.96052122 1.8486876 -0.16479975 0
-0.84992158 1.8510475 -0.16720846 0
-0.72819138 1.880165 -0.15941846 0
-0.6658318 1.84044 -0.16217123 0
-0.5573976 1.8419478 -0.16516426 0
-0.45195857 1.8554369 -0.1653 0
-0.34119999 1.8432117 -0.16753739 0
-0.25167853 1.8555908 -0.16720194 0
-0.14538112 1.8613685 -0.16752437 0
-0.046500001 1.869 -0.1665 0
0.041000001 1.8815 -0.16350001 0
0.15375 1.85 -0.16325 0
0.26839662 1.8587905 -0.16129492 0
0.350324 1.8484917 -0.16174194 0
0.44910166 1.8358549 -0.16158257 0
0.54958361 1.8416834 -0.15925153 0
0.66125435 1.8432487 -0.15584977 0
0.75327718 1.8650547 -0.15890422 0
0.83657551 1.8334109 -0.16494234 0
0.94751006 1.838491 -0.16003238 0
1.0497036 1.8680731 -0.15928921 0
1.1525004 1.8558903 -0.16959596 0
1.255 1.892 -0.161 0
1.349381 1.8410556 -0.16461194 0
1.4659379 1.8581202 -0.16731922 0
1.575314 1.8072301 -0.16602252 0
1.633424 1.8724136 -0.16558884 0
1.7691125 1.8406618 -0.16623521 0
2.0371261 1.8378227 -0.16746047 0
2.2521081 1.842768 -0.16791436 0
2.5829999 1.8279999 -0.16599999 0
4.9970002 1.806 -0.125 0
-2.8363473 1.9640983 -0.13792109 0
-2.7651737 1.9120492 -0.15096055 0
-2.6397345 1.9481033 -0.16580378 0
-2.5319231 1.9423679 -0.15625601 0
-2.4571257 1.9677297 -0.16501658 0
-2.3467436 1.95307 -0.15337075 0
-2.243161 1.9270487 -0.15420151 0
-2.0672717 1.9649596 -0.14941478 0
-1.9519585 1.941134 -0.15464982 0
-1.8450352 1.9681209 -0.15229547 0
-1.7559134 1.9636136 -0.15277676 0
-1.6778015 1.9371716 -0.15386261 0
-1.5285726 1.9729518 -0.15103887 0
-1.4495606 1.9455171 -0.1563468 0
-1.3362827 1.9513311 -0.1525017 0
-1.2376891 1.9576129 -0.15877374 0
-1.136063 1.9337511 -0.15498982 0
-1.0479866 1.9544588 -0.15433683 0
-0.95219052 1.9360034 -0.16301472 0
-0.85983503 1.936182 -0.16480812 0
-0.74553639 1.9575683 -0.16171183 0
-0.64939266 1.9541177 -0.15276639 0
-0.54354256 1.959609 -0.15750356 0
-0.44376111 1.9514531 -0.16300507 0
-0.3406595 1.9507563 -0.16056035 0
-0.25166038 1.9604226 -0.1616689 0
-0.14348589 1.9612479 -0.16353223 0
-0.050601888 1.9492078 -0.15843767 0
0.05190618 1.9493424 -0.15687452 0
0.14748995 1.939509 -0.15697555 0
0.23991337 1.9602025 -0.15398473 0
0.34606719 1.9531449 -0.15743677 0
0.45284075 1.9443175 -0.15772019 0
0.55505431 1.9585998 -0.15250321 0
0.64671904 1.9382375 -0.15354083 0
0.74155349 1.9598762 -0.15518437 0
0.84288508 1.9353386 -0.15462336 0
0.94928044 1.9476885 -0.15519139 0
1.0415573 1.9602904 -0.14957529 0
1.1511793 1.9458271 -0.16091855 0
1.2232313 1.9533957 -0.16785991 0
1.3320346 1.9336765 -0.16200718 0
1.4347107 1.9479206 -0.16223979 0
1.5281616 1.9350332 -0.16585661 0
1.6908482 1.9368273 -0.16517769 0
1.8606968 1.9341581 -0.1656616 0
2.1361682 1.9264302 -0.16694731 0
2.2021964 1.985502 -0.16660519 0
2.3557482 1.9276375 -0.16743305 0
2.4248416 1.9842172 -0.16711219 0
-3.2607484 2.0756476 -0.12151282 0
-3.1489999 2.0050001 -0.14 0
-3.0587726 2.0448964 -0.13448989 0
-2.9431078 2.042172 -0.11836192 0
-2.7909999 2.0569999 -0.14 0
-2.6570058 2.063045 -0.12927201 0
-2.5490353 2.019664 -0.15383972 0
-2.4356539 2.0610838 -0.14794052 0
-2.3660986 2.066071 -0.14815198 0
-2.2508359 2.0376415 -0.15172239 0
-2.1309836 2.0259528 -0.14590055 0
-2.0492337 2.0828409 -0.15186672 0
-1.960814 2.041584 -0.15052082 0
-1.8421309 2.0583439 -0.14819303 0
-1.7508354 2.051753 -0.14768235 0
-1.549499 2.0486608 -0.14526236 0
-1.4511375 2.0385449 -0.15187435 0
-1.3511903 2.0551655 -0.14767092 0
-1.2434626 2.0657415 -0.1424523 0
-1.1528873 2.0552754 -0.1408437 0
-1.0639 2.0359287 -0.14167485 0
-0.94977236 2.0461478 -0.15105546 0
-0.85493976 2.0504212 -0.15076245 0
-0.75150102 2.0419681 -0.14896366 0
-0.65389919 2.0593767 -0.13804258 0
-0.55530828 2.0435133 -0.14682284 0
-0.45489514 2.0593979 -0.1490573 0
-0.35180876 2.0402191 -0.14897698 0
-0.23902759 2.0406139 -0.15688974 0
-0.14160369 2.0506506 -0.1491885 0
-0.05357575 2.0300786 -0.14894997 0
0.050716907 2.0514708 -0.1428404 0
0.16168219 2.0392151 -0.14722826 0
0.2427063 2.0603237 -0.14290766 0
0.35603502 2.0525613 -0.14896466 0
0.43296492 2.0409479 -0.15148649 0
0.54512864 2.0469532 -0.15164109 0
0.64716387 2.0437777 -0.15132074 0
0.75263977 2.07235 -0.14799932 0
0.85419345 2.046766 -0.14718601 0
0.96237016 2.0469871 -0.15537035 0
1.0571249 2.0533481 -0.14642373 0
1.1366415 2.0309322 -0.15108953 0
1.247017 2.0540793 -0.16022362 0
1.3448389 2.0640564 -0.1627709 0
1.535092 2.038522 -0.16277908 0
1.6189705 2.0451984 -0.1651397 0
1.7482723 2.001241 -0.16476655 0
1.8056964 2.0656548 -0.1643554 0
1.9522812 2.0276544 -0.16508801 0
2.0133374 2.0899854 -0.16470562 0
2.2682242 2.0445735 -0.16626307 0
2.319 2.0899999 -0.16599999 0
2.4489999 2.0039999 -0.167 0
-3.3724966 2.1462951 -0.10302565 0
-3.242636 2.1643786 -0.10693939 0
-3.1690907 2.1165857 -0.1179596 0
-2.9295442 2.1618702 -0.11233926 0
-2.8602719 2.1094351 -0.12616964 0
-2.273 2.1129999 -0.14 0
-2.1754572 2.1166768 -0.14153016 0
-2.0525 2.1360002 -0.146 0
-1.9569162 2.1349273 -0.14350758 0
-1.8242013 2.136452 -0.14310941 0
-1.6515248 2.156539 -0.13770229 0
-1.5446545 2.1499321 -0.1436985 0
-1.4605443 2.1866214 -0.13272305 0
-1.3769432 2.1425369 -0.14252777 0
-1.2454666 2.1469085 -0.13501854 0
-1.1318002 2.176857 -0.11934967 0
-1.041642 2.1485646 -0.14697911 0
-0.93309784 2.1485934 -0.14502218 0
-0.8351959 2.1537411 -0.14308193 0
-0.75454915 2.142046 -0.13434854 0
-0.63694996 2.1501982 -0.13156283 0
-0.55342448 2.1405625 -0.13283665 0
-0.45023537 2.150053 -0.13638051 0
-0.33433396 2.1509652 -0.13014197 0
-0.25304145 2.1409545 -0.14111207 0
-0.14119683 2.1483767 -0.13501875 0
-0.064643845 2.1407444 -0.13407901 0
0.042550139 2.1459289 -0.12894459 0
0.14465018 2.1523991 -0.13690278 0
0.25272527 2.1432106 -0.1344555 0
0.34374088 2.1632693 -0.14378211 0
0.44702458 2.1627257 -0.13981169 0
0.53667676 2.1452019 -0.14475894 0
0.64076179 2.139442 -0.14372465 0
0.76547158 2.1650887 -0.14121398 0
0.84434867 2.1360664 -0.1395416 0
0.95398593 2.153224 -0.13904971 0
1.0448786 2.1547108 -0.14409086 0
1.1255671 2.1419456 -0.14379631 0
1.2686967 2.1557889 -0.15096423 0
1.3474241 2.1617053 -0.16400124 0
1.4272819 2.1420865 -0.15961063 0
1.6438199 2.1251707 -0.16363385 0
1.727941 2.177397 -0.16427942 0
1.8631206 2.1300683 -0.16394424 0
1.9205446 2.1944821 -0.16353309 0
2.0743937 2.1523163 -0.16432321 0
2.194 2.1700001 -0.16500001 0
2.2550001 2.132 -0.16500001 0
2.3519928 2.1714253 -0.15703952 0
-1.5928837 2.2513471 -0.11361593 0
-1.4479654 2.2760518 -0.12093344 0
-1.3639429 2.2073922 -0.12827179 0
-1.2699529 2.2163141 -0.12193701 0
-1.1265 2.233 -0.1115 0
-1.073 2.2360001 -0.121 0
-0.95641696 2.2438855 -0.11974607 0
-0.83883744 2.2518208 -0.12530963 0
-0.75267595 2.2559924 -0.1155569 0
-0.65531027 2.2639179 -0.11781697 0
-0.54791951 2.2579081 -0.11650726 0
-0.46796146 2.2606769 -0.11943023 0
-0.36009002 2.2641037 -0.11509391 0
-0.24930602 2.2520325 -0.12092915 0
-0.15472719 2.247565 -0.1242192 0
-0.031698462 2.2484646 -0.12950441 0
0.05449944 2.2234888 -0.1177461 0
0.14311978 2.2493932 -0.12756777 0
0.2517831 2.2424033 -0.12778671 0
0.3595694 2.2593193 -0.13711819 0
0.46167356 2.2587037 -0.13089903 0
0.55094999 2.2494369 -0.13689652 0
0.65036887 2.2454488 -0.1336789 0
0.74140525 2.2613921 -0.13732091 0
0.84438717 2.2259376 -0.13633879 0
0.93781388 2.2572665 -0.13156623 0
1.0259362 2.2479057 -0.13831629 0
1.1461072 2.2430782 -0.13877742 0
1.2379416 2.2574027 -0.13246018 0
1.3627543 2.2589335 -0.16026852 0
1.4174626 2.2592914 -0.16221985 0
1.5011169 2.2492664 -0.15901519 0
1.6669121 2.2060585 -0.16241086 0
1.7510332 2.2582846 -0.16305642 0
1.9864843 2.2684479 -0.16306096 0
2.1259999 2.2049999 -0.164 0
2.2575924 2.2296791 -0.15509427 0
2.3539371 2.2699721 -0.14592187 0
2.4472814 2.2131157 -0.15050291 0
2.5114222 2.2746735 -0.14275436 0
-1.6427675 2.3176942 -0.10423186 0
-1.4969308 2.3461032 -0.11286689 0
-0.82190657 2.3431611 -0.10908691 0
-0.74493432 2.3518028 -0.10237227 0
-0.56968284 2.3674343 -0.10015859 0
-0.46200001 2.3010001 -0.118 0
-0.3491945 2.3291407 -0.114307 0
-0.26280001 2.3150001 -0.1118 0
-0.14978406 2.3263288 -0.10998098 0
-0.03123753 2.3363879 -0.11627014 0
0.067267515 2.3408134 -0.11707351 0
0.14509989 2.3430328 -0.11447991 0
0.24522199 2.3449881 -0.1158353 0
0.34799322 2.3690865 -0.12651454 0
0.44674006 2.3401685 -0.12899871 0
0.54898125 2.3481603 -0.13266742 0
0.65033013 2.3466387 -0.12549736 0
0.75003922 2.3653653 -0.12678637 0
0.86280507 2.3355994 -0.13437562 0
0.95483756 2.3736525 -0.11874542 0
1.0558316 2.3408375 -0.13432392 0
1.168546 2.3452654 -0.12641028 0
1.2593311 2.3646927 -0.1313598 0
1.3364608 2.3243537 -0.12986469 0
1.455584 2.3484449 -0.16029225 0
1.5594296 2.3707452 -0.15879969 0
1.7723681 2.3400879 -0.16211629 0
1.8469706 2.358865 -0.16280638 0
2.3847771 2.3490369 -0.1352828 0
2.4525344 2.3098791 -0.13748279 0
2.5469711 2.3527017 -0.13165811 0
2.6397035 2.3977892 -0.12725727 0
-1.5458962 2.4161549 -0.10480034 0
-0.84981304 2.4283223 -0.10517382 0
-0.37355593 2.4841239 -0.10545602 0
-0.052638672 2.4264154 -0.1111564 0
0.08916574 2.4401822 -0.11613438 0
0.39899999 2.408 -0.138 0
0.454 2.4033334 -0.12733333 0
0.54396141 2.4229374 -0.12216089 0
0.64810693 2.4273806 -0.12512621 0
0.74793261 2.444752 -0.1315553 0
0.84948391 2.4350772 -0.12331938 0
0.94861364 2.4606676 -0.12753798 0
1.0539844 2.4530766 -0.11313655 0
1.1458695 2.4530399 -0.13495669 0
1.2488692 2.4616647 -0.12417364 0
1.3400966 2.4614863 -0.11485072 0
1.4574914 2.4418769 -0.14628053 0
1.5309238 2.4493785 -0.15874669 0
1.627 2.4319999 -0.15800001 0
1.837 2.49 -0.15899999 0
2.4483695 2.408716 -0.12537706 0
2.5480928 2.4484301 -0.11730465 0
2.6500688 2.4877582 -0.10996557 0
2.7038443 2.4593472 -0.11950873 0
-0.87771958 2.5134835 -0.10126073 0
0.094331481 2.5293643 -0.10326876 0
0.73272347 2.5273478 -0.12576982 0
0.84714794 2.53338 -0.13486081 0
1.268 2.51 -0.134 0
1.3359734 2.5377569 -0.12955278 0
1.452 2.526 -0.116 0
1.5556393 2.5393145 -0.12254125 0
1.6178361 2.595386 -0.10153165 0
1.8888928 2.5581007 -0.14755906 0
2.5755541 2.528074 -0.10556559 0
2.7419491 2.533978 -0.10627668 0
2.8321257 2.582463 -0.10401164 0
0.77130854 2.6478696 -0.11192457 0
0.85124815 2.6526608 -0.11375093 0
0.91999161 2.6522388 -0.11955313 0
1.3478765 2.6622479 -0.11309273 0
1.4924388 2.6016507 -0.10705946 0
1.586918 2.6349437 -0.12612373 0
1.966732 2.6602521 -0.13039766 0
0.9601866 2.772382 -0.10188501 0
1.3878148 2.7383718 -0.10263909 0
1.653877 2.7509155 -0.10968558 0
2.0445712 2.7624032 -0.11323626 0
2.0964642 2.8305039 -0.10179532 0
3.95 -3.6070001 -0.075000003 0
3.8403873 -3.5046949 -0.09379074 0
3.9054358 -3.5654068 -0.082639582 0
4.1398315 -3.5383711 -0.015607813 0
3.8582783 -3.4252787 -0.07446526 0
4.0460463 -3.4477835 -0.037633039 0
2.2460001 -3.3080001 -0.078000002 0
2.3665524 -3.3409123 -0.087247074 0
2.4864969 -3.3404257 -0.095845528 0
2.5369999 -3.3715 -0.093500003 0
3.7859178 -3.3529177 -0.092697889 0
3.9522614 -3.3571959 -0.059658259 0
2.1721845 -3.2002091 -0.095998846 0
2.2207153 -3.2710774 -0.08416532 0
2.3146486 -3.2660666 -0.096105918 0
4.226531 -2.9267025 -0.048603147 0
4.0651875 -2.8140035 -0.077004492 0
4.1356249 -2.8632042 -0.064605393 0
0.32499552 -2.7589309 -0.098121338 0
3.99475 -2.7648029 -0.089403585 0
-0.60100001 -2.6010001 -0.085000001 0
-0.44433331 -2.6353333 -0.042666662 0
0.31499106 -2.669862 -0.087242678 0
-0.78299999 -2.556 -0.096000001 0
-0.58838725 -2.5519505 -0.092307404 0
-0.43211612 -2.5625446 -0.042733505 0
0.13020758 -2.525393 -0.099863499 0
0.22606063 -2.5430734 -0.092711471 0
0.30498657 -2.5807929 -0.076364025 0
-0.42906106 -2.4682713 -0.051098853 0
-0.39272505 -2.4837513 -0.02940733 0
0.068148673 -2.4284196 -0.091878459 0
0.12561011 -2.4351907 -0.090484664 0
0.24677379 -2.4512012 -0.07212092 0
-0.42405081 -2.3517194 -0.039415408 0
-0.37898895 -2.3539236 -0.046531457 0
0.065685838 -2.3380246 -0.082848072 0
0.15759538 -2.3432324 -0.073828474 0
0.23376533 -2.343904 -0.057703298 0
-0.44156766 -2.2563529 -0.092199713 0
-0.37610435 -2.2358115 -0.050022993 0
0.063223004 -2.2476296 -0.073817685 0
0.16571645 -2.257252 -0.062083419 0
0.23958404 -2.2306647 -0.055981297 0
-0.74092531 -2.177202 -0.09899421 0
-0.42395958 -2.1686912 -0.077999644 0
-0.36093727 -2.1466982 -0.051157832 0
0.06076017 -2.1572344 -0.064787298 0
0.15900253 -2.167516 -0.050763983 0
0.23053193 -2.1426852 -0.0430337 0
-0.81999999 -2.033 -0.097000003 0
-0.75906849 -2.0442758 -0.094717175 0
-0.40635148 -2.0810294 -0.063799568 0
-0.34388119 -2.0446577 -0.046781316 0
0.05829734 -2.0668395 -0.055756912 0
0.1638276 -2.069262 -0.032488007 0
0.23299737 -2.060205 -0.03931997 0
0.96744186 -2.044167 -0.09934172 0
1.2928445 -2.0360756 -0.090355203 0
-0.75601286 -1.9630419 -0.064521864 0
-0.34754372 -1.9430654 -0.047406208 0
-0.21043932 -1.9524843 -0.086790785 0
0.055834506 -1.9764442 -0.046726525 0
0.14948118 -1.9675324 -0.025869647 0
0.21918888 -1.9686865 -0.033613186 0
0.889 -1.992 -0.090999998 0
0.96441299 -1.9843817 -0.094696671 0
-0.73359209 -1.8660662 -0.045156285 0
-0.67074156 -1.8700469 -0.077311769 0
-0.33082756 -1.8363749 -0.035441089 0
-0.24795526 -1.8620074 -0.07143084 0
0.081798993 -1.8650087 -0.032635927 0
0.155 -1.8380001 -0.011 0
-0.7215451 -1.7870263 -0.061673995 0
-0.67939651 -1.7447393 -0.056408934 0
-0.32024476 -1.766086 -0.060839798 0
-0.2644234 -1.746138 -0.07441584 0
-0.19461505 -1.779878 -0.058307096 0
0.050999999 -1.799 -0.028999999 0
-0.64015543 -1.642094 -0.055852272 0
-0.27649999 -1.6815 -0.083000004 0
-0.18585145 -1.6842874 -0.042532627 0
-0.62665516 -1.5580543 -0.057364643 0
-0.58488327 -1.5214326 -0.048404552 0
-0.61021316 -1.4722942 -0.082477458 0
-0.59027189 -1.4590614 -0.014572643 0
-0.55866927 -1.3602117 -0.046812892 0
-0.50617051 -1.2261354 -0.054581963 0
-4.0554709 2.1899891 -0.016414598 0
-3.9760001 2.1500001 -0.028999999 0
-3.4469957 2.1933932 -0.090700857 0
-3.121042 2.1722949 -0.085763283 0
-3.0498683 2.1202457 -0.098802738 0
-1.8049999 2.174 -0.097000003 0
-1.582 2.1960001 -0.083999999 0
-4.1349416 2.2299783 -0.003829198 0
-3.558744 2.2640407 -0.07221368 0
-3.3529539 2.236068 -0.090409093 0
-3.2633896 2.2763932 -0.059684373 0
-3.1922157 2.224344 -0.072723828 0
-3.0680885 2.2667406 -0.084678523 0
-2.9988163 2.2143054 -0.098508894 0
-1.8620425 2.2398751 -0.086818203 0
-1.6304184 2.261435 -0.07084284 0
-1.5281242 2.2581015 -0.098932996 0
-1.4488331 2.2553747 -0.081731312 0
-1.3432573 2.2398772 -0.088621445 0
-1.179 2.2309999 -0.098999999 0
-0.087028325 2.2693789 -0.098671034 0
0.044821061 2.2889063 -0.093769729 0
-3.7449913 2.3817863 -0.041401707 0
-3.6704924 2.3346882 -0.053726494 0
-3.5368176 2.3555503 -0.062858582 0
-3.4632721 2.3077574 -0.073878787 0
-3.3417816 2.3337212 -0.045322459 0
-3.2066326 2.3716109 -0.057017788 0
-3.1373606 2.3191757 -0.070848152 0
-1.9476064 2.3386874 -0.071545511 0
-1.7272551 2.3923049 -0.044528522 0
-1.6632868 2.3657386 -0.077777483 0
-1.5531423 2.3342969 -0.077945307 0
-1.4639632 2.357856 -0.06536328 0
-1.3895433 2.3592625 -0.065728709 0
-1.1744016 2.3536675 -0.0852459 0
-1.0110539 2.3319659 -0.099638142 0
-0.51144606 2.370625 -0.097434632 0
-0.37430865 2.3442204 -0.095899224 0
-0.19860224 2.3143494 -0.094161488 0
-0.072000004 2.3360002 -0.087333329 0
0.045499999 2.352 -0.083000004 0
0.23867545 2.3624341 -0.083188601 0
-3.900486 2.4825342 -0.012659226 0
-3.8238304 2.4316282 -0.028358972 0
-3.6331813 2.4181716 -0.048419189 0
-3.3560886 2.4847407 -0.027178526 0
-3.2759049 2.424046 -0.043187425 0
-2.0331702 2.4375 -0.056272816 0
-1.7591043 2.4540639 -0.058417529 0
-1.6621896 2.4790626 -0.059927072 0
-1.5585717 2.4580722 -0.06051055 0
-1.4313148 2.4308937 -0.051593065 0
-1.2328032 2.473335 -0.069491789 0
-1.0666349 2.4534149 -0.082595348 0
-0.76986855 2.4266055 -0.091744557 0
-0.55912888 2.4475594 -0.088093229 0
-0.41213697 2.4657266 -0.0887409 0
-0.38833225 2.4740365 -0.071452901 0
-0.25073409 2.449048 -0.083962128 0
-0.15687853 2.4441211 -0.091621347 0
-0.0455711 2.4258492 -0.082173929 0
0.051675119 2.4388781 -0.090622805 0
0.10939466 2.4354181 -0.091785379 0
-2.1472554 2.5692499 -0.035909221 0
-2.0902128 2.5033751 -0.046091016 0
-1.8425987 2.5658143 -0.039977439 0
-1.7924187 2.5167353 -0.076079637 0
-1.6582086 2.5581174 -0.060114391 0
-1.555383 2.5723982 -0.024364986 0
-1.4730865 2.5025249 -0.037457421 0
-1.2717376 2.5531135 -0.058989055 0
-1.122216 2.5748641 -0.065552562 0
-0.90562612 2.5986447 -0.09734764 0
-0.81973708 2.5762112 -0.070489116 0
-0.79480278 2.5014083 -0.08111684 0
-0.60904843 2.5263026 -0.080475785 0
-0.5463382 2.5258756 -0.074303895 0
-0.41385192 2.5543222 -0.068395354 0
-0.34581047 2.5769095 -0.092181787 0
-0.22064941 2.5800591 -0.051168937 0
-0.14614348 2.5647032 -0.074243359 0
-0.058216989 2.5261769 -0.075380273 0
0.052350238 2.5267563 -0.07824561 0
0.11378932 2.5228362 -0.081570759 0
0.78580695 2.5239768 -0.094689012 0
2.6391466 2.5877528 -0.095659859 0
-2.9093084 2.6927273 -0.012156419 0
-2.2042983 2.6351249 -0.025727421 0
-1.730433 2.6637669 -0.046303991 0
-1.6642271 2.6472926 -0.032896839 0
-1.562815 2.6563935 -0.0070930682 0
-1.3106719 2.6328919 -0.048486318 0
-1.1592699 2.6558301 -0.054190703 0
-0.9335326 2.6838059 -0.093434542 0
-0.84200001 2.6429999 -0.061000001 0
-0.63857269 2.6454539 -0.065713674 0
-0.5760048 2.6578753 -0.054637235 0
-0.42746919 2.638763 -0.056693804 0
-0.35641396 2.6658797 -0.085409053 0
-0.22786587 2.6664121 -0.03722525 0
-0.14282386 2.677685 -0.0500709 0
-0.045705836 2.6412671 -0.071167931 0
0.076261289 2.6165905 -0.078135774 0
0.12038132 2.6539636 -0.066248834 0
0.82601732 2.6514421 -0.083722547 0
1.4115301 2.6512785 -0.094489187 0
1.5328776 2.6773014 -0.098118916 0
1.6666722 2.6697721 -0.095063284 0
2.7328322 2.6372588 -0.087124966 0
2.8672898 2.6615527 -0.086570479 0
2.915 2.6619999 -0.093999997 0
-2.975539 2.7524848 -0.028104279 0
-2.2656703 2.7059999 -0.01477281 0
-1.7595421 2.7031224 -0.02952872 0
-1.3690736 2.7525592 -0.032732215 0
-1.1963239 2.7367964 -0.042828843 0
-0.96143913 2.7689672 -0.089521453 0
-0.662 2.74 -0.054000001 0
-0.43911842 2.749599 -0.056836814 0
-0.32814506 2.7568891 -0.072132587 0
-0.23508234 2.7527652 -0.023281567 0
-0.14769648 2.7645233 -0.037838627 0
-0.034132842 2.7654915 -0.05867796 0
0.05403804 2.7464514 -0.047302619 0
0.11382166 2.7632434 -0.064378768 0
0.31400001 2.7750001 -0.0049999999 0
0.85470611 2.7726524 -0.088612288 0
1.4552952 2.7274177 -0.088733785 0
1.5733163 2.7529521 -0.089178383 0
1.7155083 2.7441583 -0.088594928 0
-3.108 2.872 -0.059999999 0
-3.0417695 2.8122425 -0.044052139 0
-1.4274751 2.872227 -0.016978115 0
-1.251905 2.8582454 -0.02578605 0
-0.98934567 2.8541284 -0.085608363 0
-0.44522151 2.8381605 -0.046242248 0
-0.33857405 2.8452671 -0.065359108 0
-0.22283632 2.8429856 -0.030816469 0
-0.1456922 2.8636196 -0.027299061 0
-0.043325637 2.8696656 -0.043945659 0
0.05505072 2.8782687 -0.028736822 0
0.12318121 2.8793011 -0.046259284 0
0.86432594 2.856312 -0.077147111 0
0.94973981 2.8508997 -0.086304054 0
1.4648348 2.8362243 -0.085631885 0
1.5428253 2.8796961 -0.077222973 0
1.613755 2.8286028 -0.080237836 0
1.7425902 2.8427157 -0.087687001 0
1.8131806 2.8929305 -0.075658202 0
2.1483569 2.8986049 -0.09035439 0
-1.4747047 2.9690027 -0.0042376891 0
-1.3074859 2.9796944 -0.0087432563 0
-1.0172522 2.9392898 -0.081695274 0
-0.43450773 2.933753 -0.022230491 0
-0.34900308 2.9336448 -0.058585629 0
-0.20943615 2.9338288 -0.043510903 0
-0.1511409 2.9520562 -0.014515571 0
-0.050037265 2.9641879 -0.031549282 0
0.055725839 2.9661467 -0.01635962 0
0.12796141 2.9676011 -0.034719158 0
0.86917031 2.9535437 -0.076809481 0
0.931279 2.9349492 -0.066045448 0
1.02439 2.9642866 -0.073663749 0
1.5471098 2.9612894 -0.071372867 0
1.6744132 2.9420791 -0.066827029 0
1.7654754 2.9442019 -0.082288682 0
1.8620167 2.9673166 -0.069189847 0
2.2091248 2.9783528 -0.076956734 0
-1.0550795 3.0547256 -0.076391093 0
-0.44110075 3.0489552 -0.045160711 0
-0.3594321 3.0220227 -0.05181215 0
-0.21574923 3.0244021 -0.034363374 0
-0.15658961 3.0404928 -0.0017320886 0
-0.036236528 3.0512645 -0.021881439 0
0.056400958 3.0540247 -0.0039824247 0
0.13582774 3.0652676 -0.020786026 0
0.94979614 3.0416715 -0.020911952 0
1.5567839 3.0604339 -0.058412272 0
1.6303554 3.0319746 -0.065712169 0
1.7405357 3.0657775 -0.052208111 0
1.8324344 3.0601735 -0.065850541 0
1.9108528 3.0417027 -0.062721491 0
-0.61426681 3.1980209 -0.01774187 0
-0.59802246 3.1120279 -0.0036558248 0
-0.45174527 3.1356325 -0.04740037 0
-0.37143055 3.1237001 -0.044019334 0
-0.046542972 3.1463008 -0.02197336 0
0.13049167 3.1536393 -0.01320941 0
0.98060167 3.1408253 -0.032847345 0
1.6815603 3.121057 -0.058978379 0
1.897 3.1719999 -0.049999997 0
1.9596889 3.1160889 -0.056253131 0
2.0085249 3.190475 -0.049784776 0
-0.63051122 3.284014 -0.031827912 0
-0.46325991 3.2295399 -0.049093354 0
-0.0010567602 3.2708404 -0.027213641 0
0.13565741 3.2428215 -0.00034378469 0
1.0080875 3.2285974 -0.034067053 0
2.0220001 3.211 -0.048 0
-0.64675558 3.370007 -0.045913957 0
-0.66299999 3.4560001 -0.059999999 0
4.4350929 -3.8235669 0.053733926 0
4.3586626 -3.749742 0.035784379 0
4.5266266 -3.7244782 0.053788207 0
4.2648773 -3.6591544 0.013759155 0
4.3966265 -3.6124783 0.032288209 0
4.4549398 -3.6627173 0.041932315 0
4.2800002 -3.5120001 0.013 0
4.3383131 -3.5622392 0.022644104 0
4.480906 -3.5139561 0.039995842 0
4.5574369 -3.5764709 0.052330561 0
4.3609686 -3.4159856 0.020665281 0
4.4209375 -3.4649708 0.030330563 0
4.3010001 -3.3670001 0.011 0
4.6295338 -3.1356888 0.049873218 0
4.4661503 -3.0267668 0.021404913 0
4.5602999 -3.0895333 0.037809823 0
4.3720002 -2.964 0.0049999999 0
-0.87900001 -2.5550001 0.014 0
-0.85369319 -2.4749928 0.021859262 0
-0.81573296 -2.3549819 0.033648156 0
-0.77777272 -2.234971 0.045437045 0
-0.83600003 -2.1070001 0.011 0
-0.7524659 -2.1549637 0.053296305 0
9.2490625 -2.1042514 0.082687005 0
9.3364162 -2.1270018 0.08758267 0
9.4237709 -2.1497524 0.092478335 0
9.5111246 -2.1725028 0.097374007 0
-0.81493354 -2.0573258 0.0048521906 0
-0.72257954 -2.0604782 0.062577784 0
8.9870005 -2.036 0.068000004 0
9.0743542 -2.0587504 0.072895668 0
9.1617088 -2.081501 0.077791333 0
0.19 -1.9579999 0.001000002 0
0.23199999 -1.931 0.0029999986 0
0.66046435 -1.9463879 0.02091329 0
0.15467811 -1.8624763 0.0079488903 0
-0.745 -1.7460001 0.003 0
-0.71159422 -1.6668885 0.0080318302 0
-0.32600001 -1.681 0.001000002 0
-0.287 -1.679 2.3005683e-14 0
-0.66148561 -1.5482211 0.015579575 0
-0.61137694 -1.4295537 0.023127321 0
-0.57797122 -1.3504422 0.028159153 0
-0.52940029 -1.2824699 0.017723005 0
-0.50857985 -1.1861095 0.038611405 0
-4.2144122 2.2699673 0.0087562017 0
-2.4456949 2.2744243 0.099478573 0
-4.4528241 2.3899345 0.046512403 0
-4.3733535 2.3499455 0.033927009 0
-4.2938828 2.3099563 0.021341603 0
-2.5450406 2.3640606 0.075556792 0
-4.6117654 2.4699128 0.071683198 0
-4.5322948 2.4299235 0.059097804 0
-2.6443863 2.453697 0.051635016 0
-4.7589998 2.5439999 0.094999999 0
-4.6912365 2.5099018 0.0842686 0
-4.0494576 2.5816023 0.018022325 0
-3.9749718 2.5320683 0.0026815496 0
-2.743732 2.5433333 0.027713232 0
-0.15800001 2.5969999 0.056000002 0
-4.1611867 2.6559033 0.041033488 0
-2.8430779 2.6329696 0.0037914403 0
-0.51999998 2.6989999 0.063999996 0
-0.417 2.684 0.064000003 0
-0.39399999 2.678 0.028000005 0
-0.14467588 2.665014 0.073724419 0
0.4545213 2.6698823 0.081393123 0
-4.3474016 2.7797387 0.07938543 0
-4.2729154 2.7302046 0.064044654 0
-0.53304487 2.7680557 0.052688364 0
-0.41788399 2.7387457 0.043717414 0
-0.15016395 2.7449923 0.066263959 0
0.46603549 2.7556374 0.067988545 0
0.87300003 2.793 0.028999999 0
-4.4218874 2.8292727 0.094726205 0
-0.54928923 2.8540487 0.038602319 0
-0.42839634 2.8370886 0.023506064 0
-0.14944153 2.8502226 0.04056884 0
0.32277849 2.8557622 0.0090455841 0
0.4770284 2.8375099 0.055190835 0
0.89073986 2.8501759 0.021087259 0
-0.56553364 2.9400418 0.024516266 0
-0.46550077 2.9766791 0.01839154 0
-0.24951527 2.9254711 0.0046057999 0
-0.13851529 2.952219 0.034471195 0
0.33155698 2.9365242 0.023091167 0
0.48802131 2.9193823 0.042393129 0
0.91499192 2.9283407 0.010269806 0
-1.336 3.0420001 -7.4642732e-14 0
-0.58177805 3.0260348 0.010430221 0
-0.25736588 3.019412 0.019774742 0
-0.16663133 3.0606787 0.036766473 0
0.34472471 3.0576673 0.044159546 0
0.4990142 3.0012548 0.029595418 0
0.51000714 3.0831275 0.016797708 0
-0.17146906 3.1610465 0.019853402 0
-0.016000001 3.1040001 0.010000005 0
0.057 3.132 0.0069999993 0
0.35789245 3.1788104 0.065227918 0
0.52100003 3.165 0.0040000002 0
-0.19941898 3.2491283 0.028681103 0
-0.09354654 3.2599382 0.010465458 0
0.13699999 3.266 0.0030000031 0
0.36399999 3.2349999 0.075000003 0
-0.205 3.3369999 0.025 0
0.14078096 3.3516116 0.014747966 0
0.1445619 3.4372232 0.026495932 0
0.14834286 3.5228348 0.038243897 0
0.15401429 3.6512523 0.055865847 0
0.15968573 3.7796698 0.073487796 0
0.16346669 3.8652813 0.08523576 0
0.16500001 3.9000001 0.090000004 0
10.750722 4.3670435 0.077325009 0
10.878888 4.4001751 0.084300019 0
10.964332 4.4222627 0.088950031 0
11.049776 4.4443502 0.093600035 0
11.13522 4.4664378 0.098250046 0
9.685833 -2.2180035 0.10716534 0
9.7731867 -2.2407541 0.11206101 0
9.8787708 -2.2682524 0.11797833 0
9.5984783 -2.1952531 0.10226967 0
-2.402 2.2349999 0.11 0
-4.4963732 2.8788068 0.11006698 0
-4.632 2.9690001 0.138 0
-4.5708594 2.9283409 0.12540776 0
11.220663 4.4885254 0.10290005 0
11.348829 4.521657 0.10987507 0
