# .PCD v0.7 - Point Cloud Data file format
VERSION 0.7
FIELDS x y z intensity
SIZE 4 4 4 4
TYPE F F F F
COUNT 1 1 1 1
WIDTH 1386
HEIGHT 1
VIEWPOINT 0 0 0 1 0 0 0
POINTS 1386
DATA ascii
-2.0835779 -3.2664387 -0.19405177 0
-1.7071784 -3.2976696 -0.18877006 0
-1.66801 -3.2171454 -0.19137433 0
-1.4858207 -3.230484 -0.19528778 0
-1.2402589 -3.2737319 -0.19420679 0
-1.0421407 -3.2936091 -0.2 0
-0.94214845 -3.2283771 -0.19949999 0
-0.74742121 -3.2228081 -0.198 0
-0.66871864 -3.2437048 -0.19754207 0
-0.60000002 -3.2780001 -0.19599999 0
-0.37646979 -3.2458119 -0.16054001 0
-0.25178438 -3.2219353 -0.1204496 0
-0.096672125 -3.2687008 -0.1234463 0
-3.1386771 -3.1504412 -0.12000748 0
-2.3404908 -3.1607087 -0.19675288 0
-2.110074 -3.1524184 -0.19655707 0
-2.0382097 -3.1898048 -0.19547296 0
-1.9928414 -3.1131706 -0.19689412 0
-1.6288416 -3.1366212 -0.19397861 0
-1.4516566 -3.1487873 -0.19723023 0
-1.2126942 -3.191299 -0.19590509 0
-1.1851295 -3.108866 -0.1976034 0
-0.96476042 -3.1610727 -0.2 0
-0.87802303 -3.1388748 -0.199 0
-0.7327106 -3.1449039 -0.198 0
-0.65247309 -3.1556041 -0.19775034 0
-0.35499999 -3.119 -0.17900001 0
-0.24583828 -3.1324515 -0.13058721 0
-0.095726773 -3.1794174 -0.12953858 0
-3.0453541 -3.0528824 -0.10101496 0
-2.2601926 -3.0515668 -0.1982023 0
-2.0371518 -3.0418928 -0.19848995 0
-1.9474732 -3.0365365 -0.19831529 0
-1.5896733 -3.056097 -0.1965829 0
-1.4174924 -3.0670905 -0.19917268 0
-1.1575648 -3.026433 -0.1993017 0
-0.94599998 -3.092 -0.2 0
-0.85527015 -3.0511403 -0.199 0
-0.71799999 -3.0669999 -0.198 0
-0.63622761 -3.0675035 -0.19795862 0
-0.48941731 -3.052345 -0.19968283 0
-0.34840661 -3.0550141 -0.18004894 0
-0.23989218 -3.0429678 -0.14072481 0
-0.094308734 -3.0454922 -0.138677 0
-2.2066605 -2.9788058 -0.19916858 0
-1.9021049 -2.9599023 -0.19973648 0
-1.5505049 -2.9755726 -0.19918717 0
-0.83251727 -2.9634061 -0.199 0
-0.61998206 -2.9794028 -0.19816689 0
-0.47080991 -2.9180543 -0.19896162 0
-0.33593774 -2.9340096 -0.18203263 0
-0.23394608 -2.9534838 -0.1508624 0
-0.09289071 -2.911567 -0.14781544 0
0.2328476 -2.9599686 -0.10956361 0
-0.80976439 -2.8756716 -0.199 0
-0.60373658 -2.8913021 -0.19837517 0
-0.58749104 -2.8032014 -0.19858345 0
-0.45840496 -2.8285272 -0.19848081 0
-0.32762516 -2.8533397 -0.18335509 0
-0.2459415 -2.8624208 -0.16440523 0
-0.09194535 -2.8222835 -0.15390772 0
0.22342381 -2.8734841 -0.12328181 0
0.35299999 -2.8050001 -0.162 0
0.45486999 -2.8210394 -0.14782375 0
-0.77563506 -2.7440701 -0.199 0
-0.57124555 -2.7151008 -0.19879173 0
-0.44600001 -2.7390001 -0.198 0
-0.31931257 -2.7726698 -0.18467754 0
-0.25020614 -2.7345655 -0.17955391 0
-0.090999998 -2.733 -0.16 0
0.214 -2.7869999 -0.13699999 0
0.34954411 -2.7712312 -0.16249369 0
0.45268688 -2.7291069 -0.15378299 0
0.54738927 -2.7599692 -0.15248092 0
-0.74150574 -2.6124687 -0.199 0
-0.55500001 -2.6270001 -0.199 0
-0.31099999 -2.6919999 -0.186 0
0.35606423 -2.6530015 -0.16032343 0
0.4625127 -2.644906 -0.15571827 0
0.56491524 -2.6344521 -0.15114528 0
0.61104584 -2.6765308 -0.12057457 0
-0.71875286 -2.5247343 -0.199 0
0.35519719 -2.5537672 -0.16163778 0
0.44913453 -2.5619297 -0.15778871 0
0.55492073 -2.5682256 -0.14636628 0
0.62599999 -2.533 -0.145 0
-0.69599998 -2.437 -0.199 0
0.35408473 -2.4524128 -0.16540034 0
0.46532279 -2.478961 -0.15842003 0
0.57037824 -2.4385567 -0.14146151 0
0.6343714 -2.4471245 -0.14358991 0
-2.8110001 -2.3329999 -0.124 0
-2.6810694 -2.334537 -0.11849637 0
0.44356686 -2.3539863 -0.16097763 0
0.55317146 -2.3309848 -0.14914548 0
0.64784092 -2.3297107 -0.12638879 0
-2.7450485 -2.2787948 -0.13305217 0
-2.6433089 -2.247231 -0.13495705 0
-2.5425112 -2.2124593 -0.13599418 0
0.44800001 -2.2279999 -0.161 0
0.53397286 -2.250155 -0.15348172 0
0.67077512 -2.2672131 -0.12039945 0
0.91760772 -2.2618325 -0.10368885 0
-2.6085365 -2.1665959 -0.15178913 0
-2.5402803 -2.1104968 -0.16115761 0
-2.4751973 -2.153152 -0.14449491 0
0.48699999 -2.164 -0.16 0
0.57226998 -2.1544054 -0.15323971 0
0.65202439 -2.1563041 -0.12919664 0
0.72115004 -2.1415811 -0.10537732 0
0.8841731 -2.1793604 -0.11207405 0
-2.4399538 -2.074121 -0.16176087 0
-2.3405695 -2.0345371 -0.16149637 0
-1.3659064 -2.0392416 -0.19995706 0
-1.2084863 -2.034003 -0.19973201 0
-1.1512375 -2.0457001 -0.1986821 0
0.54100001 -2.062 -0.1575 0
0.61720973 -2.0493217 -0.14587866 0
0.71399999 -2.0649998 -0.107 0
0.83402115 -2.0556521 -0.12465183 0
-2.4037681 -1.998298 -0.17989457 0
-2.3355122 -1.9421988 -0.18926305 0
-2.2395988 -1.945576 -0.17424746 0
-1.405 -1.927 -0.199 0
-1.3273301 -1.9632597 -0.19936436 0
-1.2513375 -1.9467713 -0.19879417 0
-1.1816431 -1.9352702 -0.19866589 0
-1.0916951 -1.9378802 -0.19707283 0
0.59399998 -1.978 -0.15700001 0
0.76643467 -1.946472 -0.12161481 0
-2.6430001 -1.8295 -0.13150001 0
-2.5897686 -1.8267976 -0.14641532 0
-2.267256 -1.8860993 -0.19863153 0
-2.1386278 -1.8566148 -0.18699855 0
-1.4288262 -1.8341866 -0.19891506 0
-1.3347688 -1.8597223 -0.1987391 0
-1.2389152 -1.8296299 -0.19818218 0
-1.1398215 -1.8653851 -0.19783294 0
-1.0685 -1.8440001 -0.1965 0
0.76885867 -1.8366179 -0.1146537 0
1.0457038 -1.8624668 -0.10075556 0
1.7158084 -1.8166624 -0.10081133 0
2.6496401 -1.843513 -0.10026285 0
-2.7456541 -1.7450097 -0.15928793 0
-2.6001635 -1.767396 -0.12925048 0
-2.5232568 -1.7487972 -0.14707106 0
-2.4461205 -1.7308555 -0.16258237 0
-2.0713139 -1.7973075 -0.19549927 0
-1.507 -1.701 -0.2 0
-1.4342558 -1.7832329 -0.19889791 0
-1.3493468 -1.7300414 -0.19828497 0
-1.2475917 -1.7498727 -0.19813161 0
-1.1402479 -1.7549149 -0.19659142 0
0.71700001 -1.767 -0.154 0
0.81099999 -1.744 -0.104 0
0.96380234 -1.7413501 -0.10960841 0
1.0229467 -1.7695557 -0.10713623 0
1.1295614 -1.7232244 -0.10000616 0
1.3449368 -1.7014852 -0.10638012 0
1.4417241 -1.7550018 -0.1087078 0
1.58127 -1.7353885 -0.1008209 0
1.6566929 -1.7531393 -0.10755257 0
2.0840588 -1.7209857 -0.10133667 0
2.2430987 -1.7079544 -0.10310829 0
2.3955615 -1.7355512 -0.1108292 0
2.4369905 -1.7423273 -0.11012291 0
2.54632 -1.7642565 -0.11363143 0
2.7970178 -1.7174544 -0.10098246 0
-2.6517696 -1.688767 -0.16587888 0
-2.5762312 -1.6435145 -0.17118189 0
-2.4569738 -1.6701399 -0.15003607 0
-2.3540492 -1.6464366 -0.16994806 0
-1.5232098 -1.6385617 -0.19996914 0
-1.4605048 -1.6474473 -0.19958487 0
-1.3386279 -1.6611165 -0.19844896 0
-1.2625632 -1.6441261 -0.19769613 0
-1.1795 -1.653 -0.19749999 0
0.84189242 -1.638167 -0.10463645 0
0.94565749 -1.6402943 -0.11484496 0
1.0705149 -1.6376355 -0.10749914 0
1.126868 -1.6426508 -0.10010165 0
1.2472727 -1.633942 -0.10704052 0
1.369653 -1.6562498 -0.11288796 0
1.4534441 -1.6476778 -0.11206915 0
1.5616159 -1.6555477 -0.11468724 0
1.6348596 -1.63846 -0.10271748 0
1.9299042 -1.6055056 -0.10774726 0
2.0292969 -1.6357646 -0.10828592 0
2.1425128 -1.6732744 -0.10774575 0
2.2315621 -1.6182417 -0.12466794 0
2.3220451 -1.6788449 -0.12362999 0
2.4430001 -1.6849999 -0.127 0
2.6476727 -1.6344849 -0.12366083 0
2.7233043 -1.6404369 -0.11460719 0
2.8429606 -1.6700826 -0.10481229 0
-2.5006926 -1.5982621 -0.17648491 0
-2.4251542 -1.5530097 -0.18178792 0
-2.3316998 -1.5403206 -0.1789563 0
-2.2364187 -1.5555991 -0.18402368 0
-2.158824 -1.5389712 -0.19491647 0
-1.5421857 -1.5821002 -0.2 0
-1.4554343 -1.5394348 -0.19972427 0
-1.3590734 -1.5306203 -0.19867922 0
-1.228 -1.5585001 -0.19749999 0
0.86428005 -1.5519079 -0.11800584 0
0.95654488 -1.5464653 -0.11655863 0
1.0432663 -1.5519925 -0.10569672 0
1.1498772 -1.5364327 -0.11362626 0
1.2564124 -1.5434698 -0.12564957 0
1.3479385 -1.5553908 -0.1198551 0
1.4595737 -1.5387051 -0.13012831 0
1.5532135 -1.5573078 -0.11647618 0
1.6496788 -1.54845 -0.11090624 0
1.7326348 -1.5581179 -0.1041025 0
1.8617611 -1.5370967 -0.11271814 0
1.9313271 -1.5390545 -0.10998259 0
2.0843263 -1.5139658 -0.12896395 0
2.1579442 -1.5661037 -0.12681594 0
2.5695 -1.5555 -0.134 0
2.6451316 -1.5614522 -0.12494637 0
-2.2740769 -1.4625049 -0.19239396 0
-2.1845665 -1.4464402 -0.19465211 0
-1.4361857 -1.4711001 -0.2 0
-1.3518991 -1.4276935 -0.19941151 0
-1.283 -1.443 -0.198 0
0.85295719 -1.4521365 -0.12838267 0
0.95228481 -1.4547539 -0.11871066 0
1.0566143 -1.4507515 -0.12041575 0
1.1618158 -1.4449351 -0.13502754 0
1.2453077 -1.4571053 -0.13571657 0
1.3332728 -1.4513448 -0.14029896 0
1.4429284 -1.4786917 -0.13248324 0
1.5466373 -1.4524649 -0.12525594 0
1.6421939 -1.4410621 -0.11879572 0
1.7592758 -1.4380832 -0.12011412 0
1.8223983 -1.4700738 -0.11995453 0
1.9370902 -1.4096899 -0.13325997 0
2.0107081 -1.4618278 -0.13111196 0
-1.332 -1.362 -0.2 0
0.90200001 -1.397 -0.15000001 0
1.0661581 -1.3560183 -0.1454145 0
1.1430899 -1.3409437 -0.1485737 0
1.23562 -1.3630188 -0.15078196 0
1.3467441 -1.3465261 -0.14511527 0
1.4655399 -1.3714156 -0.13859406 0
1.52969 -1.3665283 -0.12397049 0
1.6479691 -1.3515676 -0.13510554 0
1.7457428 -1.3520155 -0.12912537 0
1.8634721 -1.3575519 -0.13540797 0
1.0447332 -1.2621171 -0.15175425 0
1.1483462 -1.2410374 -0.15141571 0
1.2560377 -1.2487314 -0.14989479 0
1.3464879 -1.2549942 -0.14575538 0
1.4560713 -1.2502156 -0.1361537 0
1.5525708 -1.2615607 -0.13862178 0
1.6277286 -1.263177 -0.13547102 0
1.7162361 -1.253276 -0.13970399 0
1.0496666 -1.1520001 -0.15233333 0
1.1232535 -1.1733336 -0.15107416 0
1.2438178 -1.1287291 -0.14942032 0
1.3449476 -1.1564667 -0.14679308 0
1.4228806 -1.1537071 -0.14074785 0
1.534547 -1.1680782 -0.13983756 0
1.082 -1.029 -0.15099999 0
1.1557345 -1.0489354 -0.15044938 0
1.260694 -1.0428383 -0.14806634 0
1.3587747 -1.073997 -0.14602068 0
1.1456655 -0.94437385 -0.15000775 0
1.2396619 -0.97649544 -0.14803103 0
1.3619505 -0.97371048 -0.14626999 0
1.8720615 -0.90223181 -0.13538519 0
1.947 -0.93699998 -0.134 0
2.3293447 -0.90543449 -0.13212687 0
2.4541359 -0.95285249 -0.13051492 0
1.1538501 -0.84791106 -0.14908619 0
1.2664421 -0.85874891 -0.14699447 0
1.3633376 -0.87977386 -0.14535385 0
1.7555461 -0.84817386 -0.13753888 0
2.074563 -0.80862302 -0.13541791 0
2.1594903 -0.84089351 -0.1343209 0
2.2444174 -0.87316406 -0.13322389 0
2.4580007 -0.82341915 -0.1303421 0
-2.2 -0.71700001 -0.198 0
1.149 -0.736 -0.148 0
1.2108918 -0.77751589 -0.1472359 0
1.4836769 -0.72203863 -0.14256419 0
1.5613538 -0.75807726 -0.14112839 0
1.6390307 -0.7941159 -0.13969259 0
1.797567 -0.71607494 -0.13770011 0
1.8491309 -0.72965074 -0.13787454 0
1.9512461 -0.76644641 -0.13683568 0
2.0470004 -0.74915147 -0.13560526 0
2.1740012 -0.72968686 -0.13407893 0
2.2600014 -0.75807065 -0.13294734 0
2.3445277 -0.75576115 -0.13171479 0
2.4605381 -0.73983997 -0.1301903 0
-2.2189999 -0.63699996 -0.19949999 0
-2.1453552 -0.69941711 -0.19834477 0
-2.0625901 -0.67278612 -0.19886693 0
-1.9798251 -0.64615512 -0.19938911 0
-1.8970602 -0.61952406 -0.1999113 0
1.406 -0.68599999 -0.14399999 0
1.5599134 -0.618415 -0.14084002 0
1.6428337 -0.65025771 -0.13996154 0
1.725754 -0.68210047 -0.13908303 0
1.8404289 -0.62933779 -0.13543551 0
1.9579362 -0.64626509 -0.13508637 0
2.042685 -0.65931553 -0.13554232 0
2.1693854 -0.64413267 -0.13352099 0
2.2562263 -0.66958022 -0.13252398 0
2.3417168 -0.63535208 -0.13031697 0
2.4286003 -0.65871537 -0.12924454 0
2.5304754 -0.60260701 -0.12696806 0
2.608 -0.62099999 -0.126 0
-2.22 -0.55299997 -0.199 0
-2.171237 -0.56787562 -0.1992577 0
-2.0720901 -0.56826758 -0.19944896 0
-1.9460676 -0.53395069 -0.19983672 0
1.393 -0.55900002 -0.141 0
1.4774697 -0.5514285 -0.14002007 0
1.5670261 -0.53544199 -0.14020012 0
1.6505467 -0.54672056 -0.13930862 0
1.735076 -0.57414651 -0.1381505 0
1.8424063 -0.52943516 -0.13545293 0
1.9528157 -0.54857206 -0.13445301 0
2.0803113 -0.56506807 -0.13354464 0
2.1730855 -0.52951723 -0.13184296 0
2.260781 -0.5507797 -0.13067275 0
2.3525379 -0.55520505 -0.12965694 0
2.4290426 -0.55188209 -0.1283571 0
-2.217 -0.498 -0.199 0
-2.1813581 -0.49003398 -0.19941062 0
1.382 -0.40599999 -0.139 0
1.4265029 -0.45480788 -0.13986704 0
1.5584034 -0.44282541 -0.13913064 0
1.6433394 -0.45241654 -0.13787964 0
1.7309697 -0.44464946 -0.13708138 0
1.8306885 -0.44509038 -0.13492098 0
1.9372482 -0.44820747 -0.1340898 0
2.0511384 -0.47312325 -0.13341263 0
2.1614842 -0.42713654 -0.13176467 0
2.2492442 -0.44411182 -0.13081896 0
2.3370044 -0.46108711 -0.12987328 0
2.4255209 -0.4482142 -0.13003927 0
1.3853334 -0.3363333 -0.14 0
1.4645134 -0.35488263 -0.13890725 0
1.5640243 -0.34636256 -0.1386928 0
1.640209 -0.35538095 -0.13768511 0
1.7213567 -0.35281038 -0.13593979 0
1.8295698 -0.36643806 -0.13483226 0
1.9441884 -0.34760493 -0.13429269 0
2.0747361 -0.35949147 -0.1329895 0
2.167635 -0.34759134 -0.13179493 0
2.2548001 -0.33432072 -0.13121137 0
2.3435249 -0.34779835 -0.13023779 0
2.411 -0.35799998 -0.1295 0
2.5480351 -0.30539829 -0.12533292 0
1.3805 -0.248 -0.14 0
1.4588805 -0.23088372 -0.13907854 0
1.5449101 -0.24439012 -0.13851903 0
1.6338167 -0.24998505 -0.13768427 0
1.7386553 -0.23011234 -0.13575137 0
1.8450149 -0.24318524 -0.13538411 0
1.9660311 -0.23479718 -0.13421956 0
2.0758936 -0.25368577 -0.13279775 0
2.1531649 -0.25014281 -0.13095112 0
2.2514508 -0.2317262 -0.12972817 0
2.3604662 -0.23953295 -0.12975277 0
2.4351017 -0.26718011 -0.12808436 0
2.5625827 -0.24753864 -0.12607306 0
1.3629999 -0.16133332 -0.13833334 0
1.4392223 -0.13537909 -0.13717052 0
1.5377589 -0.15291099 -0.13705914 0
1.6407133 -0.15695956 -0.13522689 0
1.7525176 -0.16042286 -0.13425517 0
1.8603572 -0.16037111 -0.1328871 0
1.9475237 -0.16737764 -0.12976316 0
2.0538442 -0.16824448 -0.1301652 0
2.1717386 -0.17120083 -0.13161582 0
2.2601485 -0.15314426 -0.13078606 0
2.3426857 -0.15593033 -0.13148259 0
2.404 -0.1295 -0.13249999 0
1.3594999 -0.077500001 -0.139 0
1.4642904 -0.066464998 -0.13672292 0
1.5601937 -0.066976666 -0.13548195 0
1.6333083 -0.021272385 -0.13507645 0
1.7553631 -0.046168458 -0.13504164 0
1.8693535 -0.039621495 -0.13308401 0
1.938375 -0.035477158 -0.13061364 0
2.0264032 -0.046408009 -0.1306899 0
2.1457593 -0.067753688 -0.13011798 0
2.2564509 -0.077102497 -0.1306307 0
2.3443387 -0.080712259 -0.1301679 0
2.4444528 -0.066826776 -0.12650104 0
2.5392642 -0.069732286 -0.12604228 0
-2.47 0.090999998 -0.198 0
1.334 0.050999999 -0.13850001 0
1.4303179 0.0016806527 -0.13753405 0
1.5352119 0.030120434 -0.1360227 0
1.6569649 0.052431267 -0.13547391 0
1.7718024 0.052564703 -0.13393232 0
1.8625216 0.055225536 -0.13315025 0
1.9532408 0.057886377 -0.13236818 0
2.0562627 0.040967558 -0.13041787 0
2.1423869 0.044042822 -0.12974335 0
2.2490425 0.039207824 -0.12875001 0
2.3614721 0.068947524 -0.12896134 0
2.4521914 0.071608357 -0.12817927 0
2.549 0.046 -0.12800001 0
1.2920001 0.192 -0.13699999 0
1.3649668 0.1248918 -0.13735183 0
1.4534001 0.12867537 -0.13605547 0
1.5308266 0.13387176 -0.13513814 0
1.6770186 0.13500993 -0.13392001 0
1.7640281 0.14001489 -0.13238004 0
1.8740187 0.15850993 -0.12992002 0
1.9605024 0.16425481 -0.12921901 0
2.0469861 0.16999969 -0.12851802 0
2.1493132 0.17182972 -0.12687801 0
2.2408326 0.19793922 -0.12955189 0
2.5090001 0.102 -0.127 0
-2.474 0.208 -0.2 0
1.2736666 0.252 -0.13666667 0
1.3661581 0.25269616 -0.13560374 0
1.4551322 0.25628299 -0.13475256 0
1.5486935 0.24697675 -0.13383882 0
1.648518 0.26369125 -0.13234286 0
1.7455522 0.27965841 -0.13103782 0
1.8233863 0.26836312 -0.1300579 0
1.9119507 0.28109029 -0.12890089 0
2.000515 0.29381746 -0.12774387 0
2.3267908 0.20442402 -0.12968987 0
2.4557281 0.21415123 -0.12989682 0
2.52 0.219 -0.13 0
1.22 0.36699998 -0.1345 0
1.35251 0.36986935 -0.13270974 0
1.4492308 0.35674441 -0.13335447 0
1.5390022 0.32100928 -0.13248965 0
1.6471212 0.34904307 -0.13099419 0
1.7460934 0.36495873 -0.12983179 0
1.838871 0.34378082 -0.12889709 0
1.9557409 0.34210932 -0.12840989 0
2.0667455 0.32956487 -0.12754776 0
2.1393681 0.33511502 -0.12759329 0
2.2532611 0.3448565 -0.12776065 0
2.3402822 0.35833445 -0.12745944 0
2.4520736 0.3759228 -0.12694579 0
2.5786092 0.38808301 -0.12158335 0
1.177 0.48199999 -0.13500001 0
1.3443592 0.43757114 -0.13350362 0
1.4594554 0.44685698 -0.13345569 0
1.5721775 0.42753974 -0.13155091 0
1.6519865 0.44961643 -0.13044639 0
1.7317953 0.47169313 -0.12934192 0
1.8324977 0.45836568 -0.12840456 0
1.9511889 0.41502365 -0.12818234 0
2.0723083 0.42511657 -0.1266553 0
2.1706681 0.43729162 -0.12735122 0
2.2567606 0.45485637 -0.12706316 0
2.3428528 0.47242111 -0.12677512 0
2.4252965 0.49132392 -0.12799136 0
2.6675313 0.40309963 -0.12070002 0
2.756453 0.41811624 -0.11981669 0
2.8453748 0.43313283 -0.11893336 0
2.9342966 0.44814944 -0.11805003 0
3.0316093 0.46458304 -0.11708335 0
1.1489999 0.57099998 -0.13550001 0
1.2531608 0.54244691 -0.13479735 0
1.3710269 0.54906845 -0.13401376 0
1.4577258 0.53035861 -0.13297915 0
1.5480223 0.52853948 -0.13182729 0
1.6262316 0.55501562 -0.13074015 0
1.7548838 0.55060816 -0.12880847 0
1.8407588 0.55752784 -0.12831506 0
1.9330347 0.53470868 -0.12817255 0
2.0201948 0.55279577 -0.12736605 0
2.1166987 0.59356147 -0.13045298 0
2.5310032 0.50622445 -0.12098855 0
2.6188037 0.52586937 -0.11998626 0
2.7505047 0.55533665 -0.11848282 0
2.8822057 0.584804 -0.11697938 0
1.09 0.68000001 -0.13500001 0
1.1588466 0.64828908 -0.13462782 0
1.264308 0.642088 -0.13396741 0
1.3426025 0.64070296 -0.1340262 0
1.681903 0.61243451 -0.12991662 0
1.749 0.63700002 -0.12899999 0
1.8962492 0.6090461 -0.12701927 0
1.9823852 0.63580894 -0.12600721 0
2.0417578 0.66008705 -0.12563504 0
2.1496947 0.64906299 -0.12816815 0
2.2810481 0.63434219 -0.13167946 0
2.3239999 0.64499998 -0.132 0
2.9679999 0.60399997 -0.116 0
1.043 0.76099998 -0.13433333 0
1.1349297 0.7490505 -0.13402945 0
1.2516589 0.74211311 -0.13367291 0
1.3596001 0.73736405 -0.13248378 0
1.4364667 0.77881879 -0.13164502 0
1.9353759 0.77699864 -0.126 0
2.1440001 0.70200002 -0.12499999 0
0.99150002 0.85949999 -0.1345 0
1.0497341 0.84717947 -0.1333586 0
1.1545265 0.83931649 -0.13320154 0
1.3418806 0.84112191 -0.13296048 0
1.4904656 0.8398912 -0.13127813 0
1.55018 0.84156263 -0.1304341 0
1.6562616 0.86115253 -0.12893477 0
2.0322518 0.82299721 -0.126 0
0.96100003 0.94033331 -0.13633333 0
1.0569307 0.9407236 -0.13389429 0
1.1324964 0.94033748 -0.13288382 0
1.2260871 0.94130135 -0.13193062 0
1.3155042 0.96244085 -0.13161132 0
1.4498293 0.91017419 -0.1320864 0
1.5528976 0.9761045 -0.13125184 0
1.617 0.91299999 -0.13 0
1.7763219 0.92164922 -0.1275351 0
1.8563621 0.9619804 -0.12660199 0
1.908 0.98799998 -0.126 0
-1.174 1.087 -0.19400001 0
0.88099998 1.098 -0.139 0
0.93917429 1.0514446 -0.13800621 0
1.0549858 1.0411186 -0.13491818 0
1.166501 1.0613041 -0.13264775 0
1.2710614 1.0243628 -0.13120367 0
1.3604784 1.0455022 -0.13088435 0
1.4522562 1.0636612 -0.13041697 0
1.5 1.099 -0.13 0
1.744 1.058 -0.12899999 0
1.9881181 1.0303547 -0.12506294 0
2.0682361 1.0727096 -0.1241259 0
-1.2406967 1.1485163 -0.19566511 0
-1.123 1.145 -0.192 0
-1.097 1.173 -0.191 0
0.85800004 1.1515 -0.14050001 0
0.94523084 1.1609411 -0.13678016 0
1.0474844 1.1264329 -0.13535295 0
1.1244252 1.1522797 -0.13373004 0
1.2352076 1.151004 -0.13182141 0
1.302887 1.1574217 -0.13108349 0
1.4255461 1.149772 -0.13015275 0
1.8593334 1.1298008 -0.12744525 0
2.1483541 1.1150644 -0.12318885 0
2.228472 1.1574191 -0.12225179 0
2.3085899 1.1997739 -0.12131473 0
-1.3407414 1.2407907 -0.19816276 0
-1.2482237 1.2715418 -0.19309846 0
-1.1592685 1.2394484 -0.19178279 0
-1.0610001 1.2205 -0.19049999 0
-0.99199998 1.29 -0.18799999 0
0.85266387 1.2531258 -0.14063725 0
0.94846386 1.254547 -0.13629103 0
1.0270282 1.2480822 -0.13313925 0
1.172828 1.2299197 -0.13255212 0
1.2531241 1.2527417 -0.13130057 0
1.3570143 1.2523272 -0.13016298 0
1.58 1.235 -0.12800001 0
1.6500245 1.2901047 -0.12723769 0
1.9746668 1.2016014 -0.12589051 0
2.0515559 1.2494686 -0.12485402 0
2.1284449 1.2973357 -0.12381753 0
2.3887081 1.2421287 -0.12037768 0
2.4688261 1.2844834 -0.11944063 0
-1.3421415 1.3664482 -0.1939223 0
-1.2494245 1.3341584 -0.19212697 0
-1.1532811 1.3354239 -0.19068532 0
-1.0461555 1.358755 -0.18799999 0
-0.93400002 1.3430001 -0.186 0
0.509 1.34 -0.149 0
0.75900716 1.3417341 -0.14410116 0
0.84891421 1.3596581 -0.14092183 0
0.95575601 1.320582 -0.13661073 0
1.0336616 1.3392431 -0.13380948 0
1.1350746 1.3899407 -0.13239187 0
1.2634161 1.3554702 -0.13036032 0
1.3354189 1.3284754 -0.12988432 0
1.7200489 1.3452096 -0.12647536 0
2.2437782 1.3691365 -0.12226279 0
2.548944 1.3268383 -0.11850358 0
2.6290622 1.3691931 -0.11756653 0
-1.418954 1.4783359 -0.19400005 0
-1.3263872 1.4501482 -0.19259834 0
-1.2360334 1.4189413 -0.19120213 0
-1.1273887 1.4618874 -0.18799999 0
-1.0352616 1.4842954 -0.18573834 0
-0.98463082 1.4136477 -0.18586917 0
-0.86084187 1.448878 -0.1820662 0
-0.77700001 1.464 -0.18099999 0
0.44771054 1.4448099 -0.15113562 0
0.54820514 1.4373369 -0.14854938 0
0.68825066 1.4640725 -0.14567859 0
0.7497077 1.4413964 -0.14475177 0
0.86119443 1.4528165 -0.14137113 0
0.95026177 1.4502612 -0.13694359 0
1.0457742 1.4438483 -0.13394715 0
1.138824 1.4698333 -0.13079792 0
1.2154377 1.446717 -0.13011323 0
1.3373768 1.4373175 -0.12925634 0
1.460129 1.4308324 -0.12864831 0
1.5221936 1.4942486 -0.12797248 0
1.7900734 1.4003143 -0.12571305 0
1.8600979 1.4554192 -0.12495073 0
2.3591118 1.4409372 -0.12070805 0
2.4360006 1.4888043 -0.11967156 0
2.7360902 1.425774 -0.11631473 0
-1.5612829 1.5878963 -0.19584459 0
-1.4807448 1.5422029 -0.19450006 0
-1.3527224 1.5512354 -0.19167024 0
-1.2427412 1.532877 -0.18923944 0
-1.0858924 1.554943 -0.18560752 0
-0.9293676 1.5595124 -0.18226483 0
-0.81907815 1.5394411 -0.18099999 0
-0.64499998 1.5580001 -0.177 0
0.25749999 1.5735 -0.152 0
0.42369655 1.5427362 -0.15142143 0
0.56289119 1.5425109 -0.1486375 0
0.76060832 1.5320433 -0.14320043 0
0.84440279 1.5700879 -0.14084409 0
0.98842067 1.5375615 -0.13583653 0
1.0590132 1.556258 -0.13292834 0
1.1555811 1.5388962 -0.13095422 0
1.2581502 1.5210329 -0.130421 0
1.35315 1.5565491 -0.12897509 0
1.4541303 1.5679525 -0.12776904 0
1.5842581 1.5576649 -0.12729664 0
1.9301224 1.5105239 -0.12418841 0
2.0001469 1.5656288 -0.12342609 0
2.5364447 1.5513357 -0.11831753 0
-6.3010001 1.679 -0.155 0
-6.2585564 1.6810455 -0.16241489 0
-6.1658893 1.6855114 -0.17860372 0
-1.6238947 1.6511674 -0.19639382 0
-1.5542731 1.6564754 -0.19438094 0
-1.459955 1.6334696 -0.19326445 0
-1.3917909 1.634101 -0.19071831 0
-1.2454149 1.6514324 -0.18711749 0
-1.1685592 1.6432762 -0.18560751 0
-1.097 1.649 -0.184 0
-0.93914294 1.661796 -0.18169862 0
-0.86115634 1.6148822 -0.18099999 0
-0.71436197 1.619699 -0.17809138 0
-0.6236127 1.6703379 -0.17648047 0
-0.54843634 1.6460609 -0.17439464 0
-0.449 1.6735001 -0.171 0
0.1525 1.6619999 -0.15349999 0
0.24171691 1.6496842 -0.15248805 0
0.30622461 1.6828729 -0.152 0
0.44539309 1.6254723 -0.15084285 0
0.53269744 1.615644 -0.14911032 0
0.77080584 1.6322081 -0.14269303 0
0.86701405 1.6400782 -0.13888013 0
0.93688858 1.6507442 -0.13763578 0
1.054351 1.6445931 -0.13381313 0
1.1494933 1.6307026 -0.13161808 0
1.2564633 1.6453313 -0.12955005 0
1.3735126 1.6595424 -0.12914217 0
1.5416954 1.6659288 -0.12665355 0
1.6463227 1.6210811 -0.1266208 0
1.7083873 1.6844974 -0.12594496 0
2.0701714 1.6207335 -0.12266377 0
2.1401958 1.6758384 -0.12190145 0
-1.8190304 1.7642312 -0.19523741 0
-1.7543143 1.7439523 -0.19537538 0
-1.6697012 1.7292877 -0.19618861 0
-1.5465852 1.7708923 -0.19245745 0
-1.4492559 1.7007846 -0.19083804 0
-1.3360592 1.7550281 -0.18756831 0
-1.2559447 1.7485328 -0.18584248 0
-1.1610677 1.7433021 -0.184 0
-1.0331036 1.7570605 -0.18231624 0
-0.95965636 1.7418823 -0.18149999 0
-0.84850001 1.7785 -0.18000001 0
-0.76740485 1.7452476 -0.17822844 0
-0.66798836 1.7579584 -0.17717588 0
-0.56207764 1.747869 -0.17438379 0
-0.45076075 1.7608271 -0.1712255 0
-0.34972343 1.7421547 -0.16779281 0
-0.255 1.7639999 -0.1655 0
-0.19400001 1.784 -0.163 0
0.056333333 1.7426667 -0.15566666 0
0.17776223 1.7529873 -0.15410839 0
0.24250352 1.7518667 -0.15263484 0
0.33899999 1.7539999 -0.15099999 0
0.47793788 1.7495766 -0.14997499 0
0.65700001 1.793 -0.146 0
0.77399999 1.749 -0.142 0
0.85093898 1.7422968 -0.13922994 0
0.9526999 1.7399582 -0.13603912 0
1.0458543 1.7523451 -0.13298574 0
1.1495262 1.7521694 -0.13226613 0
1.2424484 1.7489475 -0.1302577 0
1.3596283 1.7504877 -0.1282513 0
1.4482588 1.7202952 -0.12829936 0
1.506464 1.7886899 -0.12784587 0
1.6292605 1.763905 -0.12553808 0
1.7704518 1.7479136 -0.12526913 0
2.2166102 1.7359717 -0.12106957 0
-5.729279 1.8760567 -0.13380666 0
-5.6471858 1.8507044 -0.14453778 0
-5.565093 1.8253522 -0.15526888 0
-5.4829998 1.8 -0.16599999 0
-2.3138556 1.8609374 -0.19034521 0
-2.2238426 1.8298764 -0.19613293 0
-2.1370177 1.8963315 -0.18895628 0
-2.0481684 1.8540494 -0.19776274 0
-1.9470912 1.8886937 -0.18571222 0
-1.848659 1.8386357 -0.18748815 0
-1.759946 1.8736957 -0.18645027 0
-1.6705315 1.824085 -0.1890986 0
-1.5629218 1.8751125 -0.18766537 0
-1.4405609 1.83701 -0.18875 0
-1.352842 1.8708719 -0.18618797 0
-1.2567756 1.8375688 -0.18454209 0
-1.1121029 1.8545371 -0.1827945 0
-1.0503125 1.848752 -0.18151394 0
-0.95906425 1.8560961 -0.1807633 0
-0.82876229 1.8677641 -0.17868274 0
-0.75104737 1.8452439 -0.17742033 0
-0.64427954 1.8506467 -0.17640254 0
-0.54810357 1.8474227 -0.17382362 0
-0.47087798 1.8643337 -0.1715402 0
-0.35177225 1.849368 -0.16603258 0
-0.25411937 1.8554162 -0.16371845 0
-0.13961476 1.8526779 -0.16157219 0
-0.050360207 1.8662386 -0.15803759 0
0.045264512 1.8516411 -0.15631488 0
0.14142863 1.8603414 -0.15224572 0
0.25076354 1.8500497 -0.15122864 0
0.36253786 1.867005 -0.15059096 0
0.52024138 1.8523405 -0.14905357 0
0.68971151 1.8776814 -0.14498641 0
0.75785142 1.8377845 -0.14170405 0
0.8510896 1.8517802 -0.13856013 0
0.93166941 1.8362284 -0.13619815 0
1.0197513 1.8639985 -0.13289876 0
1.1570237 1.837133 -0.12935932 0
1.2470008 1.8552488 -0.12985148 0
1.350099 1.8572969 -0.12845632 0
1.4388652 1.8555124 -0.1273386 0
1.5465561 1.8673067 -0.12722392 0
1.6876372 1.8292226 -0.12479443 0
1.7480071 1.89677 -0.12402539 0
1.8597581 1.839165 -0.12429664 0
-5.9755578 1.9521135 -0.10161334 0
-5.8524184 1.914085 -0.11770999 0
-2.4527833 1.9754059 -0.17801782 0
-2.3610711 1.9454606 -0.18355487 0
-2.2362075 1.9357542 -0.18514214 0
-2.1663342 1.9786328 -0.19241676 0
-2.0550077 1.9452906 -0.19080098 0
-1.9355147 1.9806179 -0.172003 0
-1.8479025 1.9268785 -0.18021384 0
-1.728395 1.981221 -0.17840594 0
-1.6709299 1.9146473 -0.18310395 0
-1.5631418 1.9701182 -0.17932537 0
-1.4542439 1.9236579 -0.18271175 0
-1.3450541 1.9684968 -0.17805812 0
-1.261462 1.9153681 -0.18375 0
-1.1520687 1.9699663 -0.18199246 0
-1.0631616 1.9409542 -0.1810903 0
-0.99780202 1.9650831 -0.18028992 0
-0.85278082 1.9566369 -0.17593981 0
-0.74722576 1.9442593 -0.1720202 0
-0.64154243 1.9554281 -0.1740261 0
-0.54918921 1.9347696 -0.1705642 0
-0.44139922 1.9665066 -0.16572344 0
-0.33707988 1.94754 -0.16140649 0
-0.25481293 1.9726651 -0.15894344 0
-0.14802769 1.9565531 -0.15971307 0
-0.058142602 1.9663168 -0.15521713 0
0.052130181 1.9492474 -0.15202846 0
0.15603657 1.9512899 -0.1505605 0
0.26128045 1.939425 -0.14999008 0
0.36090177 1.9591849 -0.14906535 0
0.41960037 1.9477968 -0.14972474 0
0.54444718 1.9370391 -0.14825231 0
0.67699999 1.944 -0.14300001 0
0.76318717 1.9538046 -0.14105657 0
0.85325593 1.9513172 -0.13980025 0
0.93247503 1.9426748 -0.13545422 0
1.0536352 1.9604304 -0.1310709 0
1.1632978 1.9315978 -0.12698907 0
1.2502407 1.9502257 -0.12778926 0
1.3463211 1.9869978 -0.12797368 0
1.4576944 1.9716448 -0.12676862 0
1.5350012 1.955006 -0.12658644 0
1.6395082 1.9451116 -0.12683794 0
-4.5892425 2.0694489 -0.19010726 0
-4.0229783 2.0722508 -0.15061547 0
-3.9419999 2.0320001 -0.153 0
-2.5529773 2.0680187 -0.17912351 0
-2.4367027 2.0688708 -0.1811378 0
-2.3339207 2.0630033 -0.18603988 0
-2.2423813 2.0314941 -0.18275981 0
-2.1527936 2.0532806 -0.18703313 0
-2.0628717 2.0314295 -0.18921191 0
-1.9550686 2.0545888 -0.18274912 0
-1.8466512 2.0409985 -0.18233478 0
-1.7438437 2.065975 -0.18858075 0
-1.6530104 2.0267 -0.17959659 0
-1.5587316 2.0619736 -0.17313527 0
-1.455286 2.0423031 -0.1728576 0
-1.3441978 2.0675914 -0.16716677 0
-1.2499566 2.025732 -0.17471787 0
-1.1493976 2.0750191 -0.17576233 0
-1.0574138 2.0329556 -0.18041065 0
-0.94310749 2.068825 -0.17920001 0
-0.85837013 2.0585747 -0.16990609 0
-0.74160218 2.0434601 -0.17060012 0
-0.64963776 2.0418873 -0.1706572 0
-0.56623018 2.0524859 -0.16909213 0
-0.45842534 2.0517108 -0.16553514 0
-0.35622549 2.0474677 -0.15966403 0
-0.24541447 2.0524669 -0.15229312 0
-0.15232415 2.0652409 -0.15552387 0
-0.060852945 2.0549471 -0.15218917 0
0.039529283 2.0430942 -0.14777079 0
0.15438609 2.0577133 -0.14816315 0
0.25657502 2.0364451 -0.14520139 0
0.32544839 2.0460753 -0.15015809 0
0.42652082 2.0473194 -0.14738402 0
0.56247681 2.0227745 -0.14765072 0
0.61014557 2.0909843 -0.14592822 0
0.73063177 2.0377855 -0.14266184 0
0.85447502 2.0661638 -0.1379147 0
0.96010083 2.0502694 -0.13475214 0
1.0526755 2.0589383 -0.13097362 0
1.1290191 2.0298259 -0.12791049 0
1.285 2.027 -0.12899999 0
1.3710001 2.056 -0.13 0
1.5765014 2.0458641 -0.12702736 0
1.7505348 2.0678999 -0.12707904 0
-4.8174849 2.1818981 -0.1462145 0
-4.7414041 2.1444151 -0.16084543 0
-4.6653233 2.1069322 -0.17547634 0
-4.2659144 2.1930034 -0.14346188 0
-4.1444464 2.1326272 -0.14703867 0
-2.6525609 2.1603315 -0.18479659 0
-2.5421164 2.1477993 -0.16368517 0
-2.4958642 2.1440744 -0.19459997 0
-2.3572807 2.1617723 -0.17503799 0
-2.2422357 2.155112 -0.17514543 0
-2.1319852 2.1534185 -0.17140709 0
-2.0531144 2.1503737 -0.17342162 0
-1.9545428 2.160754 -0.16227677 0
-1.8556201 2.1537132 -0.17430626 0
-1.7569507 2.159744 -0.1820156 0
-1.6536862 2.1438658 -0.17715964 0
-1.5538417 2.1613204 -0.17452367 0
-1.4362679 2.162477 -0.1613217 0
-1.3388699 2.1691964 -0.15815362 0
-1.2427044 2.1223779 -0.17157763 0
-1.1565826 2.1723101 -0.17338851 0
-1.0546126 2.1347516 -0.17139 0
-0.93460709 2.1445808 -0.17078911 0
-0.85866475 2.157654 -0.17090601 0
-0.7414884 2.1564095 -0.1689249 0
-0.65055734 2.1445143 -0.16654654 0
-0.53912783 2.1577229 -0.16505054 0
-0.44155756 2.143445 -0.16289251 0
-0.34210107 2.1550682 -0.1478854 0
-0.24381176 2.1368041 -0.14874348 0
-0.14804967 2.1641741 -0.15118101 0
-0.059882425 2.1518664 -0.1501995 0
0.043838318 2.1500614 -0.14481594 0
0.14913246 2.1602397 -0.14317104 0
0.26018474 2.1506038 -0.14024317 0
0.34010863 2.1339808 -0.14852372 0
0.44512782 2.1357255 -0.14613283 0
0.57473069 2.1172986 -0.14682832 0
0.63686073 2.1776459 -0.14490429 0
0.76249701 2.1474535 -0.1415893 0
0.85785145 2.1387348 -0.13726254 0
0.95319796 2.142432 -0.13533138 0
1.0493803 2.1667371 -0.13145846 0
1.1671048 2.1515079 -0.12594119 0
-4.9070001 2.2260001 -0.12899999 0
-4.8935652 2.2193811 -0.13158359 0
-4.4278717 2.2735052 -0.13869283 0
-4.3468928 2.2332542 -0.14107735 0
-2.7288797 2.2131145 -0.16712101 0
-2.6232936 2.2300498 -0.16709028 0
-2.5268898 2.2450213 -0.16509999 0
-2.4326427 2.2495439 -0.16682743 0
-2.3564909 2.2681787 -0.16527054 0
-2.266355 2.252759 -0.18133838 0
-2.153069 2.2496536 -0.16216828 0
-2.0683205 2.2368612 -0.15408176 0
-1.9562608 2.2463033 -0.16751601 0
-1.8638812 2.2588849 -0.16457851 0
-1.7346748 2.2562425 -0.16715997 0
-1.6586957 2.2491279 -0.17403668 0
-1.5484598 2.25407 -0.17171414 0
-1.4377956 2.2573335 -0.13865833 0
-1.3284086 2.2667561 -0.16115525 0
-1.2315867 2.2354243 -0.16418201 0
-1.1278377 2.2802546 -0.15416996 0
-1.0385654 2.231503 -0.16223496 0
-0.95152599 2.2468529 -0.16968153 0
-0.83919495 2.2595186 -0.16420703 0
-0.75485075 2.2584224 -0.16234727 0
-0.63688982 2.261024 -0.15726565 0
-0.53669649 2.2338128 -0.16786464 0
-0.44624981 2.246691 -0.15534559 0
-0.34513485 2.2486358 -0.13810104 0
-0.25357759 2.2242124 -0.14366058 0
-0.15458021 2.2523859 -0.14803994 0
-0.055888031 2.2532191 -0.1463058 0
0.042696297 2.2577617 -0.13907582 0
0.15589038 2.2496047 -0.14015174 0
0.25092104 2.2383564 -0.14192025 0
0.33866861 2.2437012 -0.14041828 0
0.46815655 2.2290876 -0.14558774 0
0.54973161 2.2507908 -0.14514016 0
0.64188397 2.2761016 -0.14418265 0
0.79351598 2.2821083 -0.14045784 0
0.86870736 2.2239418 -0.13775341 0
0.95510852 2.2332075 -0.13422439 0
1.0450013 2.2410932 -0.13194916 0
1.210417 2.234076 -0.12410925 0
-4.6708074 2.3942575 -0.13153924 0
-4.5493393 2.3338814 -0.13511604 0
-2.6496801 2.3590171 -0.121271 0
-2.5591841 2.3419893 -0.13818569 0
-2.4751766 2.3438826 -0.17155536 0
-2.3349726 2.3213034 -0.17321277 0
-2.234812 2.3224409 -0.1603619 0
-2.1659999 2.3195 -0.148 0
-2.0377071 2.3358085 -0.15677661 0
-1.9675041 2.3395076 -0.15111779 0
-1.8346888 2.3554459 -0.15933667 0
-1.7721335 2.3591826 -0.1560898 0
-1.6584756 2.3663642 -0.15080544 0
-1.5499086 2.3511131 -0.1475971 0
-1.3712608 2.3389452 -0.15594408 0
-1.2626691 2.3433971 -0.15036218 0
-1.1644502 2.3530059 -0.14555994 0
-1.0376625 2.3666117 -0.15917505 0
-0.94179386 2.3225114 -0.15366317 0
-0.83570272 2.3516321 -0.15699477 0
-0.73431891 2.3439212 -0.16700548 0
-0.6483528 2.3620484 -0.13625199 0
-0.54516625 2.3458793 -0.15997291 0
-0.45374778 2.3393164 -0.14943159 0
-0.34790292 2.3466487 -0.13330019 0
-0.2496707 2.3287995 -0.14048676 0
-0.15019986 2.34093 -0.14444044 0
-0.057644043 2.3420055 -0.14354077 0
0.039054763 2.3559279 -0.13782312 0
0.14948606 2.3436205 -0.13974172 0
0.24972339 2.3402677 -0.1342788 0
0.352357 2.3322675 -0.13791071 0
0.45421687 2.345926 -0.14196377 0
0.52260226 2.3867812 -0.14334843 0
0.6666069 2.3620818 -0.14308485 0
0.85396487 2.3511646 -0.13954851 0
1.0692643 2.3566349 -0.13274056 0
-4.7713928 2.4442544 -0.12857735 0
-2.7454402 2.4332802 -0.10647425 0
-2.6226208 2.4540534 -0.1400438 0
-2.5393531 2.4037652 -0.16111071 0
-2.4647942 2.446775 -0.14209579 0
-2.3693514 2.468935 -0.14544371 0
-2.1566713 2.4761395 -0.14641084 0
-2.0780754 2.4415836 -0.13707805 0
-1.9078598 2.4364073 -0.15396391 0
-1.8423342 2.4533417 -0.14475143 0
-1.6403803 2.426008 -0.16282715 0
-1.5699999 2.415 -0.1275 0
-1.4549173 2.4237804 -0.13391225 0
-1.3494447 2.4294484 -0.14513457 0
-1.2329717 2.4376173 -0.14311874 0
-1.1494569 2.4640036 -0.13466871 0
-1.0508047 2.4777858 -0.15197322 0
-0.96946353 2.4493284 -0.14554083 0
-0.84314376 2.4471138 -0.14428391 0
-0.74791104 2.4386857 -0.14874896 0
-0.63541746 2.4497309 -0.13962623 0
-0.54730231 2.4487872 -0.14851746 0
-0.46430129 2.442832 -0.1508422 0
-0.36081234 2.4331038 -0.12704575 0
-0.25704092 2.4420369 -0.13501756 0
-0.14501119 2.4346273 -0.14248684 0
-0.045845818 2.4220326 -0.13847882 0
0.056446444 2.4653912 -0.139487 0
0.14999163 2.4495602 -0.13840769 0
0.24300474 2.4519265 -0.13243137 0
0.34267381 2.4525516 -0.13684177 0
0.45216477 2.4467413 -0.14175232 0
0.52325261 2.4552758 -0.1332652 0
0.66565341 2.4584932 -0.14214158 0
0.71700633 2.4376302 -0.14183252 0
0.85177398 2.4511623 -0.13918675 0
0.91869217 2.4704509 -0.13789123 0
1.1267171 2.479162 -0.13068867 0
-2.7356727 2.5482633 -0.12134714 0
-2.6411471 2.5575404 -0.1232065 0
-2.5546703 2.5336401 -0.12055327 0
-2.4607623 2.5612962 -0.12890995 0
-2.216007 2.5417092 -0.13761625 0
-2.1498904 2.5591815 -0.11702872 0
-2.0235796 2.5732217 -0.13789174 0
-1.9593611 2.5494199 -0.13809106 0
-1.8976682 2.5236835 -0.13750285 0
-1.7272809 2.5460472 -0.14696293 0
-1.5480843 2.5433459 -0.1119879 0
-1.1286753 2.5666001 -0.14321467 0
-1.011 2.503 -0.138 0
-0.91922945 2.5061994 -0.1442375 0
-0.84200001 2.5213335 -0.13433333 0
-0.76960486 2.5341723 -0.1407776 0
-0.63353288 2.5561531 -0.14789841 0
-0.54233116 2.5556033 -0.13930449 0
-0.46261543 2.5638752 -0.14203773 0
-0.35957018 2.5527351 -0.13754956 0
-0.25461736 2.5530219 -0.13841249 0
-0.15139982 2.5425737 -0.13815321 0
-0.053162359 2.5434279 -0.13598956 0
0.043424834 2.5613632 -0.14186655 0
0.14881951 2.547735 -0.13114814 0
0.24639408 2.5651479 -0.12306851 0
0.34840727 2.5568981 -0.1319976 0
0.46875972 2.5354185 -0.14043123 0
0.53712326 2.5750368 -0.13257718 0
0.68838412 2.5437918 -0.14096989 0
0.74372149 2.5242918 -0.14080858 0
0.88090295 2.5356894 -0.13855121 0
0.95140368 2.5551324 -0.13687764 0
1.1695095 2.5704231 -0.12916037 0
-2.8334239 2.6169176 -0.10484309 0
-2.7960591 2.6432958 -0.11933213 0
-2.5521731 2.6536572 -0.11237619 0
-2.3346782 2.6728487 -0.12002708 0
-2.2460046 2.6432743 -0.11363595 0
-2.044888 2.652998 -0.12643069 0
-1.8315617 2.6900945 -0.12792584 0
-1.7794213 2.6180708 -0.13744438 0
-1.6221685 2.6556919 -0.10497581 0
-1.1633508 2.6472001 -0.13242935 0
-0.78890055 2.6227334 -0.14080739 0
-0.54039717 2.6608477 -0.11998962 0
-0.48414671 2.6674657 -0.12771182 0
-0.35699999 2.608 -0.1345 0
-0.2367959 2.6199441 -0.13389896 0
-0.14335565 2.6344392 -0.13912219 0
-0.040612806 2.6459723 -0.12850763 0
0.050679408 2.651196 -0.1380883 0
0.13959432 2.6640966 -0.12334067 0
0.24977593 2.6626949 -0.12516654 0
0.35982311 2.6455133 -0.12945002 0
0.45818678 2.6550565 -0.13926454 0
0.55436498 2.6615238 -0.12932454 0
0.75956774 2.6458862 -0.13944787 0
0.94707358 2.6300149 -0.13688985 0
-2.8602357 2.7031784 -0.10888749 0
-2.3940139 2.7384186 -0.1112325 0
-2.1682291 2.7442396 -0.11780152 0
-2.0636709 2.7347088 -0.11575714 0
-1.8837022 2.7621179 -0.11840731 0
-1.6715581 2.7305892 -0.10030109 0
-1.1980262 2.7278001 -0.12164402 0
-0.82925129 2.7513332 -0.12701845 0
-0.54776716 2.7503555 -0.11897841 0
-0.49829343 2.7509313 -0.11342365 0
0.25375003 2.7065001 -0.12374999 0
0.34660921 2.7171233 -0.12772815 0
0.43949997 2.7284999 -0.13749999 0
0.5573554 2.7442997 -0.11382229 0
0.6070019 2.7464843 -0.13812369 0
0.73992276 2.7371945 -0.13831326 0
0.81699997 2.7620001 -0.138 0
0.94558048 2.7233717 -0.13714007 0
1.012 2.7119999 -0.13500001 0
-2.4533494 2.8039882 -0.10243791 0
-2.2550189 2.8468504 -0.10574739 0
-2.146672 2.8402214 -0.10488428 0
-1.9358425 2.8341415 -0.10888878 0
-1.2500393 2.8487 -0.10546603 0
-0.86960208 2.8799331 -0.11322951 0
-0.56715077 2.8360331 -0.10796762 0
-0.89650261 2.9656665 -0.10403689 0
1.975 3.3970001 -0.118 0
2.0181222 3.4727206 -0.11581822 0
2.0612445 3.5484414 -0.11363643 0
1.901 3.6630001 -0.118 0
2.1259279 3.6620224 -0.11036377 0
1.9403033 3.7368772 -0.11669533 0
2.1906114 3.7756033 -0.10709109 0
1.9796066 3.8107543 -0.11539065 0
2.0189099 3.8846316 -0.11408598 0
2.2337337 3.8513241 -0.10490931 0
2.0582132 3.9585087 -0.11278131 0
2.2768559 3.9270446 -0.10272753 0
2.3110001 3.987 -0.101 0
2.0975163 4.0323858 -0.11147663 0
2.1394098 4.1111317 -0.11008598 0
-0.45859617 -3.730895 -0.089926675 0
-0.28823048 -3.7704191 -0.058312006 0
0.057958424 -3.7430649 -0.06512472 0
-0.28151482 -3.6693542 -0.069761612 0
0.056677241 -3.6526134 -0.068968266 0
-0.27556872 -3.5798705 -0.079899207 0
0.055437636 -3.5650971 -0.072687089 0
0.29300001 -3.5120001 -0.022 0
-0.26962265 -3.4903867 -0.090036809 0
0.05419803 -3.477581 -0.076405905 0
0.1445138 -3.4845235 -0.0084876865 0
0.28939041 -3.478874 -0.02725447 0
0.052338619 -3.3463066 -0.081984133 0
0.13863535 -3.3498926 -0.024115769 0
0.27525473 -3.3491478 -0.047831759 0
0.050479211 -3.2150323 -0.08756236 0
0.1327569 -3.2152619 -0.039743844 0
0.26111901 -3.2194211 -0.068409048 0
0.049239606 -3.1275163 -0.091281183 0
0.12883793 -3.1255078 -0.050162565 0
0.25169522 -3.132937 -0.082127228 0
0.048 -3.04 -0.094999999 0
0.12491897 -3.035754 -0.060581282 0
0.24227141 -3.0464528 -0.095845424 0
-2.9520311 -2.9553237 -0.082022443 0
0.12004121 -2.9345684 -0.072475068 0
0.83850002 -2.9099998 -0.013500001 0
-2.8587081 -2.8577652 -0.063029915 0
0.11306182 -2.8513525 -0.083212592 0
0.78464782 -2.8156557 -0.024205573 0
0.82908928 -2.8760829 -0.018491264 0
0.95859134 -2.8235345 -0.012761606 0
-2.7653852 -2.7602065 -0.044037402 0
0.108 -2.7909999 -0.090999998 0
0.76387316 -2.7335463 -0.038337983 0
0.86474741 -2.75213 -0.031117473 0
0.94394827 -2.7322624 -0.017133139 0
-2.6720624 -2.6626477 -0.025044881 0
0.76305103 -2.6283331 -0.057709292 0
0.85992885 -2.658565 -0.036577202 0
0.94898987 -2.6216414 -0.020342359 0
-2.6098471 -2.5976086 -0.012383208 0
0.74103826 -2.5457497 -0.070781969 0
0.85760659 -2.5462837 -0.048289582 0
0.93471169 -2.5331976 -0.023160972 0
1.0256371 -2.5190828 -0.052511092 0
0.68077463 -2.4051092 -0.094867595 0
0.71902549 -2.4631667 -0.083854645 0
0.84104967 -2.460813 -0.055906553 0
0.97256607 -2.4372904 -0.042771474 0
1.0451653 -2.4421055 -0.016257539 0
0.7699405 -2.3446152 -0.081154682 0
0.83599329 -2.3795991 -0.064281411 0
0.94018453 -2.3562233 -0.054272134 0
1.0352829 -2.3778396 -0.012791191 0
0.76225781 -2.2315373 -0.087589711 0
0.84311122 -2.2600772 -0.063137926 0
0.96225929 -2.2496033 -0.038234189 0
1.0569727 -2.2702672 -0.012475271 0
3.0593081 -2.2162566 -0.0086460337 0
-3.438 -2.145 -0.037999999 0
-3.3621714 -2.100487 -0.025473762 0
0.74646527 -2.1545308 -0.092772633 0
0.83919048 -2.121089 -0.072931558 0
0.93154061 -2.1439915 -0.050487097 0
1.0449005 -2.1444721 -0.009621188 0
1.104 -2.1070001 -0.011 0
2.3970001 -2.102 -0.0040000007 0
2.5577486 -2.1190035 -0.035220116 0
2.664866 -2.1233616 -0.059487656 0
2.72 -2.125 -0.067000002 0
2.8444443 -2.1642942 -0.010987286 0
2.9397736 -2.1296859 -0.027048256 0
-3.2484288 -2.0337176 -0.0066844085 0
0.77974916 -2.0420098 -0.092786513 0
0.8665641 -2.0432451 -0.071611807 0
0.95496643 -2.052021 -0.050431106 0
1.0476066 -2.0492136 -0.024509681 0
1.1147776 -2.0186584 -0.077223733 0
1.95946 -2.0189629 -0.048994675 0
2.0742502 -2.040329 -0.027655311 0
2.1309047 -2.0519516 -0.003997907 0
2.2187116 -2.0464981 -0.038016386 0
2.3462436 -2.0577083 -0.012037165 0
2.4569826 -2.0558479 -0.01910264 0
2.5380206 -2.0471282 -0.065425031 0
2.647393 -2.0431058 -0.054368027 0
2.7407897 -2.0856345 -0.026866287 0
2.8436055 -2.0264425 -0.058665063 0
2.9545798 -2.0774319 -0.060806647 0
3.0160282 -2.026849 -0.0036715716 0
3.3426766 -2.0316231 -0.015936565 0
3.4192355 -2.0778308 -0.0035820864 0
0.83238047 -1.9640833 -0.083952688 0
0.93823069 -1.9631335 -0.052516013 0
1.0490704 -1.9213773 -0.078233123 0
1.123 -1.905 -0.093000002 0
1.3625 -1.9045 -0.043000001 0
1.4235711 -1.9094422 -0.082044534 0
1.5734291 -1.932874 -0.055255465 0
1.6516517 -1.9527509 -0.023267932 0
1.7653778 -1.9666126 -0.042890333 0
1.8474079 -1.956203 -0.050461929 0
1.9487611 -1.9396029 -0.053956676 0
2.051789 -1.9501019 -0.03739354 0
2.1534865 -1.9760687 -0.038878214 0
2.2468228 -1.9709504 -0.027780201 0
2.363132 -1.9518008 -0.056096084 0
2.4538941 -1.9756303 -0.073536985 0
2.5630429 -1.9507487 -0.054095574 0
2.6858079 -1.9457564 -0.066146031 0
2.7728848 -1.9737481 -0.068706661 0
2.868017 -1.9277095 -0.029802941 0
2.9420226 -1.9772793 -0.016737256 0
3.1895587 -1.9392077 -0.040645521 0
3.272151 -1.9472424 -0.044404179 0
3.357316 -1.9525216 -0.052463681 0
3.411 -1.982 -0.046999998 0
0.79904133 -1.8835264 -0.092189386 0
0.86153924 -1.8637698 -0.082180426 0
0.97183704 -1.8549312 -0.061094012 0
1.0620048 -1.8620878 -0.097797632 0
1.1585006 -1.8328795 -0.075384319 0
1.2540891 -1.8482413 -0.071727067 0
1.3291783 -1.855957 -0.044051144 0
1.444 -1.821 -0.092 0
1.5331299 -1.8470176 -0.055143774 0
1.6555293 -1.8397642 -0.061028756 0
1.7536548 -1.865097 -0.075378396 0
1.8691816 -1.8457869 -0.063977994 0
1.9533026 -1.8416096 -0.059269249 0
2.0570502 -1.8605258 -0.049009368 0
2.1656966 -1.8565583 -0.051787276 0
2.2537704 -1.8531842 -0.078575924 0
2.3459826 -1.8409411 -0.082093306 0
2.4332895 -1.8823873 -0.075209714 0
2.5388329 -1.8231542 -0.090366721 0
2.6279624 -1.8763593 -0.075548194 0
2.7441788 -1.8676867 -0.063384466 0
2.9463632 -1.800424 -0.078304112 0
3.058372 -1.8626512 -0.061295342 0
3.1362436 -1.8684456 -0.062798887 0
0.87271452 -1.7387779 -0.087234095 0
0.93322468 -1.7812874 -0.07572934 0
1.0801599 -1.7571709 -0.078494519 0
1.1589282 -1.751803 -0.09592104 0
1.2390839 -1.7400026 -0.076883622 0
1.3532776 -1.7444534 -0.086670011 0
1.462213 -1.7629538 -0.077816494 0
1.5356022 -1.7532154 -0.082246147 0
1.6434659 -1.7473847 -0.091047235 0
1.7301569 -1.7590379 -0.08707916 0
1.8444036 -1.751277 -0.069126338 0
1.9375238 -1.7502183 -0.070521452 0
2.0311685 -1.7419888 -0.072519794 0
2.1611643 -1.7585379 -0.087567762 0
2.2669106 -1.7885743 -0.08599177 0
2.3141973 -1.7619087 -0.092216574 0
2.4681232 -1.7881025 -0.099658415 0
2.6459999 -1.779 -0.068999998 0
2.8716905 -1.7589393 -0.089643285 0
2.961658 -1.7352607 -0.092731848 0
3.0407896 -1.7787129 -0.084678218 0
0.83249998 -1.6875 -0.0995 0
0.91900003 -1.618 -0.1 0
1.0361279 -1.6861367 -0.091995612 0
1.1529971 -1.6412276 -0.076897994 0
1.244724 -1.674845 -0.081713632 0
1.3508127 -1.6337249 -0.077607207 0
1.4479833 -1.6585197 -0.080159552 0
1.5383928 -1.6642692 -0.091258496 0
1.6815186 -1.6581049 -0.090566106 0
1.7506492 -1.6338551 -0.088591747 0
1.8511477 -1.6727318 -0.083932467 0
1.9792478 -1.658731 -0.090762831 0
2.052 -1.6289999 -0.094999999 0
2.123637 -1.6821914 -0.091997258 0
0.95099998 -1.5880001 -0.1 0
1.0769242 -1.5427328 -0.085740991 0
1.1364734 -1.558218 -0.082324274 0
1.2614837 -1.561939 -0.0873878 0
1.304329 -1.539786 -0.097219408 0
1.6280012 -1.5565437 -0.099611521 0
1.7518442 -1.5678856 -0.097465143 0
1.816 -1.595 -0.096000001 0
1.9904228 -1.5797026 -0.099538207 0
1.0475 -1.4645 -0.0995 0
-6.0763254 1.9832329 -0.088441119 0
-0.41437718 2.4895022 -0.098961003 0
-0.35561055 2.4966347 -0.096560143 0
-0.29533628 2.4967127 -0.094523214 0
-0.0002895752 2.4997115 -0.087786362 0
3.7506921e-05 2.4111814 -0.097816885 0
-2.8531003 2.5167716 -0.089838751 0
-0.68000001 2.552 -0.098999999 0
-0.43114412 2.586287 -0.088192001 0
-0.33732677 2.5832701 -0.085619062 0
-0.00061665731 2.5882418 -0.077755839 0
-2.918 2.6930001 -0.093999997 0
-2.8973279 2.6744039 -0.096650273 0
-2.7030001 2.677 -0.085000001 0
-2.6745055 2.6494601 -0.091829903 0
-0.34100002 2.6104999 -0.082499996 0
-0.00098124647 2.686924 -0.066575103 0
-2.9244123 2.763061 -0.098442845 0
-2.6435838 2.7460184 -0.095842429 0
-2.3127811 2.7633629 -0.095057443 0
-0.57082129 2.7420347 -0.094980069 0
0.0013652177 2.773509 -0.059450164 0
0.639 2.779 -0.098999999 0
0.852 2.799 -0.092 0
-2.964 2.8 -0.092 0
-2.698 2.8010001 -0.086000003 0
-2.5126851 2.8695579 -0.09364333 0
-2.4170001 2.8940001 -0.081 0
-2.3670778 2.8314233 -0.087733686 0
-1.7456424 2.8429351 -0.093288988 0
-0.55083609 2.8307245 -0.08955279 0
0.0037304354 2.8550181 -0.052900333 0
0.65951788 2.8630612 -0.085570112 0
0.8750298 2.8831613 -0.081027687 0
-2.5710001 2.934 -0.085000001 0
-2.3418088 2.949461 -0.093693256 0
-2.2296734 2.9457343 -0.094011426 0
-2.0401235 2.9781888 -0.0898517 0
-1.987983 2.9061651 -0.099370234 0
-1.8197267 2.955281 -0.086276889 0
-1.3020525 2.9696002 -0.089288041 0
-0.61684799 2.9545782 -0.057455156 0
-0.55656058 2.9197867 -0.09090206 0
0.0060956529 2.9365273 -0.046350501 0
0.68003577 2.9471223 -0.072140232 0
0.89805961 2.9673226 -0.070055366 0
-2.4260001 3.049 -0.082000002 0
-2.329 3.072 -0.081 0
-2.2850075 3.0160761 -0.086762853 0
-2.1159999 3.0829999 -0.075999998 0
-2.0922639 3.0502124 -0.080333158 0
-1.8691163 3.0301783 -0.081602164 0
-1.3367279 3.0502002 -0.078502715 0
-0.92340308 3.0513999 -0.094844267 0
-0.62522775 3.0608532 -0.065273829 0
-0.54780692 3.0430608 -0.063415021 0
0.0096434802 3.0587907 -0.036525749 0
0.70055366 3.0311832 -0.058710348 0
0.92108941 3.0514839 -0.059083048 0
-1.939253 3.1365378 -0.074963719 0
-1.3822017 3.1559 -0.064358696 0
-0.95030361 3.1371331 -0.085651644 0
-0.65377986 3.1729329 -0.041927345 0
-0.56951344 3.1711297 -0.041491378 0
0.012 3.1400001 -0.030000001 0
0.73133051 3.157275 -0.038565524 0
0.94411922 3.1356452 -0.048110731 0
-0.97720408 3.2228665 -0.07645902 0
-0.67267692 3.2582803 -0.028916966 0
0.76210725 3.2833667 -0.018420696 0
0.96714902 3.2198064 -0.037138414 0
-1.0175549 3.3514667 -0.062670082 0
-0.67799997 3.326 -0.045000002 0
0.7826252 3.3674278 -0.0049908161 0
0.99017882 3.3039677 -0.026166096 0
1.0132086 3.388129 -0.015193783 0
-1.04 3.4230001 -0.055 0
1.0396192 3.4846451 -0.0026107356 0
0.27244163 3.6132996 -0.010493655 0
0.28122079 3.7446499 -0.030246828 0
0.28999999 3.8759999 -0.050000001 0
0.16109484 -3.8642697 0.035593588 0
0.15627071 -3.7537851 0.022768468 0
0.15235174 -3.6640315 0.012349747 0
0.14843278 -3.5742774 0.001931034 0
-3.2290001 -3.2509999 0.057999998 0
-3.1417284 -3.1589797 0.050556235 0
-3.0481398 -3.0602987 0.042573672 0
-2.9545512 -2.9616177 0.034591109 0
0.9560647 -2.9031603 0.001584731 0
1.289463 -2.9715321 0.06932579 0
1.3430001 -2.9070001 0.067000002 0
-2.8609624 -2.8629365 0.026608547 0
0.95599997 -2.892 0.0019999966 0
1.2477939 -2.8716264 0.056272786 0
1.316864 -2.8487186 0.059845977 0
-2.7673736 -2.7642555 0.018625984 0
0.98400003 -2.757 1.084837e-13 0
1.1815293 -2.7127509 0.035515189 0
1.2480583 -2.7809737 0.048023842 0
-2.673785 -2.6655746 0.010643419 0
0.99800003 -2.6170001 0.001000002 0
