# .PCD v0.7 - Point Cloud Data file format
VERSION 0.7
FIELDS x y z intensity
SIZE 4 4 4 4
TYPE F F F F
COUNT 1 1 1 1
WIDTH 581
HEIGHT 1
VIEWPOINT 0 0 0 1 0 0 0
POINTS 581
DATA ascii
-47.653427 -11.474126 10.648688 10
-47.635571 -11.003992 11.866228 10
-47.62085 -10.199011 12.330175 11
-47.710419 -11.410608 12.433758 11
-47.667706 -10.55234 13.401756 11
-47.542625 -11.056681 6.5671673 7
-47.497852 -10.265428 10.529098 10
-47.46228 -9.098815 10.442512 10
-47.501987 -9.8362951 11.729612 10
-47.366409 -8.6966057 11.609013 10
-47.59314 -9.3787889 13.321167 11
-9.8807611 -2.6543775 2.7731419 11
-7.7994905 -3.0515485 1.7368797 9.5
-7.8294644 -3.0995526 2.1508329 11
-7.3516598 -0.97370249 -0.030729193 3
-7.2969661 -1.2622396 0.35487923 5
-7.3204017 -1.1088643 0.08691854 3.3333333
-7.3254781 -1.2376376 0.6249119 6
-7.252059 -1.1084563 0.51408553 5.5
-7.4224768 -1.2409912 0.84490752 7
-6.840158 -1.7430749 -0.37771019 2
-7.1585999 -1.045162 0.336171 5
-6.0295329 -1.8555439 -0.20880172 2.5
-6.2878418 1.9000229 -0.17808236 2
-6.004024 -1.8604584 0.11819455 4
-5.8953171 -3.1820741 -0.28595647 2
-5.8139296 -2.4428561 -0.16335715 2.5
-5.7750635 -2.1972499 -0.21750067 2.5
-5.8762422 -1.9017777 -0.18809104 2.5
-5.7922525 -2.1992996 0.18250908 4.1666665
-5.8184819 -1.9029284 0.26982784 4.6666665
-5.8024855 -2.1748385 0.46155804 5.3333335
-5.0621309 -3.3744984 1.2986106 9.5
-5.0646219 -3.3881557 1.7123522 11.5
-5.0442848 -3.3695529 2.6260357 15.5
-4.4993691 -3.4717779 -0.023771163 3
-4.4240103 2.0920365 -0.13149446 2
-4.5604177 -3.4700496 0.21612671 4.5
-4.4810185 -3.4831753 1.1442294 9
-4.4970188 -3.4824085 1.3952245 10.5
-4.5530257 -3.4761434 1.6317091 12
-4.2316122 -3.5066309 -0.11244292 2.5
-4.2254367 -2.542763 -0.17217885 2
-4.1371222 -2.1887126 -0.13141061 2.5
-4.0137191 2.6745145 -0.17864145 2
-4.2122817 -3.5058985 0.22361442 4.4000001
-4.1674562 -2.1895092 0.1334433 4
-4.1445189 -3.5195596 0.66455609 7
-4.1501079 -2.1334171 0.5776009 7
-4.1709647 -3.5174389 0.96782428 8.5
-4.0983257 -2.2349575 1.0168092 9.75
-4.3168864 2.3902524 1.0473564 10
-4.0137072 4.2044358 1.1747342 9
-4.244638 -3.5150321 1.4317709 11
-4.1420026 -2.3707526 1.2832044 11.5
-4.335484 -3.510047 1.6062676 12
-4.2944703 -3.5180349 2.1737785 14.5
-4.3129702 -3.5197999 2.4652712 16
-4.1628804 -3.6780188 3.4272621 20
-3.8106861 -3.5508006 -0.061545499 2.6666667
-3.7433016 -2.6472821 -0.11861897 2
-3.9865806 -2.2195902 -0.22890961 2
-3.8561692 2.0738497 -0.25524887 2
-3.6109931 3.9710813 -0.012174034 3
-3.8653021 4.7642894 -0.049151856 3
-3.7776489 -3.5558136 0.19405042 4.3333335
-3.8053346 -2.6005089 0.1183886 4.5
-3.7587643 -3.5646918 0.6122219 6.75
-3.8833435 -2.6023369 0.44186643 6
-3.7148738 -3.5764756 1.130986 9.5
-3.9421659 4.3009553 1.1389371 9
-3.7473783 -3.5717146 1.4183486 11.5
-3.3141382 -3.6126282 -0.14417222 2.3333333
-3.5181837 -3.5818195 -0.1014277 2.6666667
-3.4307573 2.1594336 -0.25692424 1.5
-3.540339 3.5156567 -0.07850261 3
-3.3167408 4.518784 -0.039877381 3
-3.3705215 -3.6106269 0.13717565 4
-3.5468512 -3.5854948 0.23155786 4.5
-3.4653282 -3.6034987 0.56909037 6.5
-3.4678297 -3.5976174 0.72559088 8
-3.509831 -3.6049716 1.1805689 10
-3.4528248 -3.5988472 1.0315976 9
-3.5038304 -3.6000814 1.3255732 11
-3.5690942 -3.5881765 1.4285469 11.5
-3.2007599 -3.6434503 1.93371 15
-3.2217622 -3.6426167 2.1576989 16
-3.420795 -3.6224091 3.1196058 20
-2.9935653 -3.6551971 -0.079846919 2.6666667
-2.9388649 -2.4063289 -0.25266609 1
-2.9860165 -2.1091387 -0.2544933 1
-3.0151899 -1.817976 -0.25624683 1
-3.0746591 -1.2946737 -0.26329651 1
-2.8748085 -0.95430887 -0.260171 1
-3.1417623 -3.6418428 0.14440778 4
-2.941704 -3.6706719 1.8831787 14.666667
-3.0200515 -3.6670182 2.1103029 16
-3.0433178 -3.8721199 3.0559659 20
-2.9506273 -3.8951888 3.2387922 21
-2.574137 -3.6960456 -0.1359437 2.5
-2.6269476 1.4738635 -0.25896135 1
-2.5925157 2.3741951 -0.15180625 2
-2.6087594 -3.7011836 0.21953452 4.7142859
-2.5367885 -3.7086396 0.58074391 6.8333335
-2.4999819 -3.7243705 1.0508482 10.25
-2.5892935 -3.7157111 1.2627093 11.333333
-2.7131503 -3.7057719 1.8758018 15
-2.7036505 -3.6973598 2.0189753 16
-2.1677434 -3.7489111 -0.11993362 2.5
-2.1667874 -2.5197802 -0.23758455 1
-2.3360019 -2.2513402 -0.23986024 1
-2.1577351 2.4529619 -0.19629119 2
-2.2136736 -3.7434387 0.21857154 4.7142859
-2.2209442 -3.7456956 0.59253007 7.1999998
-2.1906073 -3.7574537 1.0586166 10.333333
-2.2352898 -3.76086 1.2930188 12
-2.1860542 -3.7650657 1.8199875 15.142858
-2.1448202 -3.850193 3.7593553 24.6
-1.8301486 -3.7866266 -0.13364238 2.4000001
-1.8013152 -0.63198978 -0.23257512 0
-1.8022358 2.6088252 -0.12504783 2.3333333
-1.8972362 3.5725806 -0.014408029 3
-1.7733979 -3.7966928 0.2417925 5
-1.7885602 -3.7973893 0.58774251 7.4000001
-1.7858799 -3.8043594 0.98634148 10.4
-1.9269648 -3.7903252 1.259985 12
-1.8222164 -3.8056307 1.7633449 15.125
-1.6323392 2.2848821 2.6902218 26
-1.9357721 -3.869772 3.7713058 24.666666
-1.4333868 -2.4342122 -0.21766761 1
-1.386081 -2.2287436 -0.21846284 0.5
-1.4036266 1.785899 -0.21589155 0.33333334
-1.3708707 2.0693679 -0.21582721 1
-1.5680897 2.6004901 -0.17681038 2
-1.5459458 2.8788326 -0.10872892 2
-1.3784927 -3.8443403 0.24016409 5
-1.3844345 2.8680069 0.22038713 5.5
-1.3885437 -3.8470542 0.579081 7.5
-1.2716343 2.9919775 0.61992306 9
-1.3873752 -3.851119 0.99008161 10.5
-1.3298922 -3.8594582 1.4078709 13.25
-1.4366715 -3.8482878 1.7486089 15.428572
-1.5534335 2.2289007 2.7194812 27
-1.4189562 -4.0745354 3.5375426 24
-1.396098 -4.0653782 3.6708333 24.5
-1.402527 -3.9514053 3.8024471 25.333334
-1.4793379 -3.8617554 4.0028296 26
-1.1622669 -3.877502 -0.050904278 3
-0.84934396 -2.8204613 -0.11163278 2
-1.0709487 -2.7888138 -0.13780917 2
-1.0260973 -2.0985196 -0.29708746 0
-0.87382668 1.3991174 -0.19909868 0
-0.90210384 1.8988999 -0.20079204 1
-1.1457154 2.1500323 -0.20688419 1
-0.83464652 2.7795393 -0.10164376 2
-1.0144044 2.8826091 -0.10518877 2
-1.1515722 3.8698468 -0.10763304 3
-1.0166314 4.5603151 -0.12178598 3
-1.0182284 -3.8876612 0.23845513 5
-0.99429601 -3.89416 0.56931806 7.5
-1.1731875 3.036252 0.57512933 9
-0.96694875 -3.9012148 1.0216978 10.833333
-1.0882447 -3.8888359 1.20166 12
-0.99936998 -3.9014068 1.7058387 15.5
-0.89018953 -3.9215806 2.3668354 19
-0.94600326 -3.9220119 2.474786 20
-1.0461495 2.6725838 2.9702432 27.5
-0.96024799 -3.918118 3.3989394 24.5
-0.8311727 -3.9293833 4.1733885 27
-0.50317937 -2.862216 -0.023337567 3
-0.63444459 1.5439498 -0.18981571 0
-0.61099422 1.8497674 -0.18813133 0.66666669
-0.46402147 2.0985451 -0.18094686 1
-0.58411551 2.8209083 -0.12323858 2
-0.63069904 4.2226391 -0.10821704 3
-0.73547018 7.8666129 -0.18652053 3
-0.6410014 -3.9283998 0.19181238 4.75
-0.43859535 4.5314593 0.14797708 4
-0.58862841 -3.9419971 0.54318941 7.4285712
-0.59050626 -3.9476323 1.0611036 11
-0.62937164 -3.948211 1.6925731 15.5
-0.6273706 -3.9550433 2.3805749 19
-0.62486988 -3.9564266 2.4578273 20
-0.69463772 -3.9477 3.4590132 25
-0.57960761 -3.9723535 4.1820569 27.5
-0.48859131 -3.8667917 4.4752846 28.666666
-0.0092018954 -1.7074628 -0.18066478 0
-0.126118 1.9111212 -0.16989404 1
-0.30472305 2.1040924 -0.17376502 1
-0.21367827 2.902307 -0.13681257 2
-0.0027985896 3.5591819 -0.16925442 2
-0.35881722 7.7143412 -0.19458228 3
-0.23701803 -3.9839656 0.21594061 5
-0.1310036 -2.9109943 0.058996752 4
-0.10700719 -2.2729893 0.012993613 3
-0.0019313574 -1.8090938 0.0050638146 3
-0.23165864 4.6383877 0.1558625 4
-0.027964275 -4.0063109 0.52913976 7.5
-0.20752741 -3.9865086 0.53141451 7.25
-0.098733291 -4.0071435 1.0573226 11
-0.25589046 -3.9883747 1.0709231 11
-0.069976844 -4.0120125 1.5971 15
-0.14926381 -4.005033 1.7290913 15.6
-0.2908555 -3.9931867 1.7598457 15.666667
-0.1489979 -4.0149946 2.3800254 19
-0.15925059 -4.0088706 2.441515 20
-0.24008566 3.1492722 3.34285 28
-0.20452185 3.2600501 3.2925222 27
-0.19351962 -4.0190401 4.1691079 27.5
-0.070981815 -4.0299339 4.4830999 28
-0.20456666 -3.8739707 4.4913664 29
0.1977694 -1.8170342 -0.071343772 2
0.28815046 -1.3912113 -0.16517647 0
0.31985101 1.5574181 -0.15911898 0
0.20035869 1.7379293 -0.16101028 0.75
0.31538665 3.0141613 -0.16704035 2
0.24406479 4.7120824 -0.17382684 2
0.0037356499 6.3511906 -0.17160091 3
0.3308925 6.7463188 -0.080548346 3
0.17233638 -4.0326629 0.39133117 6
0.36108801 -2.2442303 0.1356193 5
0.14156774 -1.8267759 0.024508068 3.6666667
0.20565523 -4.0386233 0.56770188 7.6666665
0.16944578 -4.0377398 1.0313191 11
0.27794296 -4.0536036 1.3332659 12.666667
0.23884889 -4.0475926 1.7366035 15.5
0.039048847 -4.0339866 2.3732045 19
0.014042451 -4.0329838 2.457181 20
0.18911763 -4.0644188 4.2361364 27.5
0.20599148 -3.8726666 4.5014548 29
0.38036826 4.2811694 4.4653058 27.5
0.57605159 -1.8953496 -0.073462732 2
0.43282154 -1.3569084 -0.17142393 0
0.60240167 1.5478086 -0.15140551 1
0.50916547 1.6440248 -0.15417543 1
0.47032011 3.1001542 -0.1641435 2
0.63926333 3.2011397 -0.16128413 2
0.46015653 -4.0698118 0.38060582 6
0.60459757 -2.278697 0.13378327 5
0.79770947 -1.9250851 0.015708722 3
0.57972562 -4.0819654 0.56046867 7.5
0.57651412 -4.0887899 1.033605 10.666667
0.58768266 -4.0914655 1.2212269 12
0.60956037 -4.0962343 1.7798725 15.5
0.78770632 -4.2518988 2.7939243 20.5
0.53915948 -4.1036363 4.2866826 27.5
0.42553073 4.4794593 4.2631912 26
0.69795072 8.6525965 4.1591668 17
0.50715202 -4.1006274 4.4166517 28
0.56280094 -3.8100603 4.5098529 29
0.76226985 8.6879311 4.4884553 18
0.95588815 -1.7938997 -0.071206763 2.5
1.149181 -1.5538504 -0.10715796 2
1.0114927 -1.0941713 -0.15838815 0
1.187825 1.0545225 -0.13553727 1
1.0190662 1.6977969 -0.14179341 1
1.1623697 3.7270207 -0.15046348 2
1.0439196 4.1629405 -0.15906015 2
1.199509 5.8577938 -0.12858173 3
0.82939643 8.6659794 -0.087420955 3
0.86944121 -2.3198462 0.10219546 4.5
1.1500034 -4.5420656 0.62802833 7.5
1.0692953 5.8563752 1.0266594 8.5
1.1073552 5.6940603 1.2098732 10
0.98350894 5.7972779 1.8843913 13
0.89839929 -4.2263951 2.7960243 20.666666
1.0398753 -4.215836 2.8043463 20.5
1.0442643 -4.1634178 4.3571529 27
0.85025811 8.7194014 4.3554492 17
0.93276286 -3.981642 4.5260382 28
0.8922407 8.7373505 4.662437 18
1.0431865 8.8305311 6.2423029 22
1.4881006 -1.99587 -0.027831733 3
1.3512994 -1.5775837 -0.10204928 2
1.4590375 -0.73808593 -0.13890883 0.5
1.5329546 -0.039037071 -0.12556234 1
1.579945 0.22196651 -0.12610163 1
1.3790478 0.73706853 -0.13047189 1
1.269555 0.95319903 -0.13467121 1
1.3893796 2.0129664 -0.1350002 2
1.4969808 2.748347 -0.13383768 2
1.4433188 2.9932358 -0.13870698 2
1.4596477 3.7344916 -0.14517254 2
1.4552255 5.7337213 -0.12388381 3
1.4588443 5.7005539 0.19889991 4.3333335
1.3803368 -4.5342054 0.67465043 7.5
1.4463052 -4.5295248 1.1375428 10
1.4241227 5.6552968 1.0258518 8.5
1.4358011 -4.5374594 1.305034 11.5
1.4901313 5.5140772 1.8306798 12.666667
1.3837314 -4.199409 2.8512673 20.333334
1.3976496 8.9864855 6.2921739 22
1.7477092 -2.0241296 -0.037685476 3
1.8900424 -1.6366471 -0.11379887 2
1.6054329 -1.5983672 -0.10392742 2
1.6738373 -0.57995355 -0.12197741 1
1.6831319 -0.23127948 -0.12322218 1
1.7465541 1.168581 -0.12257876 2
1.6633036 1.2859358 -0.12247376 2
1.7296916 1.9108715 -0.12689242 2
1.6899235 2.054759 -0.12838586 2
1.6043329 -4.5427709 0.68368191 7
1.8812865 -5.0546412 1.1479727 10
1.9239049 -5.0301194 1.5028398 11.666667
1.8943849 -4.4509268 2.8349166 19
1.8222716 -4.2559881 2.9784713 20.5
1.7740127 -3.7148998 4.5442634 28
1.6841199 9.1032915 6.1865964 21
1.6786091 9.101265 6.492599 22
2.1678543 -2.0650012 -0.033474516 3
2.3046582 -1.7009327 -0.054622784 3
2.1395094 -0.97757441 -0.11249004 2
2.1234553 -0.59379107 -0.11343485 2
2.0655315 -0.16509521 -0.11333293 2
2.0536649 0.71916503 -0.11323593 2
2.2870595 1.0347732 -0.1107616 2
2.1554086 1.9239196 -0.11765532 2
2.3328338 2.3256381 -0.11579698 2
2.3336658 7.6900148 -0.16350535 3
2.1407726 -4.4592581 0.63445008 7
2.2362928 -4.2950673 0.65236634 7.1999998
2.1369414 -4.4323592 1.0881096 9.5
2.2348228 -4.2955942 1.0854987 9.666667
2.298831 -4.2962966 1.3740475 11.666667
2.2504857 -4.2954817 1.9071777 15
2.1894746 -4.28932 2.1691298 16
2.1544597 -4.2943072 3.1116023 20.5
2.3631551 -4.317759 3.2289329 21
2.5674543 -2.1208055 -0.021288058 3
2.5242348 -1.6961578 -0.081062913 2.5
2.5299346 4.1897192 -0.12766325 3
2.4516923 -4.3116345 0.62466425 7
2.7422411 -3.9243693 0.59589761 7
2.552232 -4.217123 1.0483828 9.333333
2.4324965 -4.3307867 3.1923201 20
2.7630663 9.5410252 4.8767772 17
3.0018005 -1.7854393 -0.049377661 3
3.1462812 0.62906736 -0.08787775 2
3.1373348 1.4622964 -0.085925497 3
3.1597364 3.4409521 -0.10776275 3
2.9679701 4.4455509 -0.12313015 3
2.8066444 7.9127712 -0.16476376 3
2.8926976 -3.9706581 0.61056113 7
2.9766045 9.5526066 1.5141901 8
2.9686179 9.5726204 1.7641168 8.5
3.1410902 9.6327267 1.9228437 9
3.0010903 9.5734062 2.1128998 10
3.1683013 -2.5537961 4.2521687 28
2.8410487 9.5707092 5.12676 18
3.2531011 0.49216869 -0.087571859 2
3.26015 1.3443841 -0.080586925 3
3.4912524 3.1580708 -0.092682719 3
3.3154843 3.2890167 -0.10018859 3
3.5339832 4.7213945 -0.093577363 3
3.4164195 -2.5329974 0.17824344 4
3.5664759 5.1986423 0.056906782 4
3.3586366 9.7207203 0.30726162 4
3.2936289 9.6898251 0.49580026 5
3.4600956 9.7711821 1.4837025 8
3.4684215 9.7798157 1.8093499 8.666667
3.569068 9.8202734 2.2096512 10
3.3353131 -2.595782 4.2899189 27.333334
3.3269889 9.802145 6.7644944 21
3.221966 9.7406626 7.0635948 21.5
3.7787099 -1.445279 -0.060057443 3
3.8080266 -1.0566269 -0.068997256 3
3.8697209 -0.65484548 -0.07220009 3
3.942719 -0.30529773 -0.035564162 3
3.7120478 3.0620947 -0.086274832 3
3.8527884 4.6783233 -0.093206413 3
3.8774648 -2.6062553 0.19543447 4
3.7969749 -1.3963115 0.20458023 5
3.8463092 -1.0055878 0.22299349 5
3.9003298 -0.59071916 0.22324717 5
3.9452775 -0.20613223 0.23726529 5
3.9869907 0.11048999 0.22253174 4.8333335
3.7045619 5.1104965 0.19480078 4.5
3.7913115 -1.3930491 0.63393617 7.8571429
3.8389976 -1.0000519 0.58896577 7.5
3.8859472 -0.61467487 0.61289227 7.7142859
3.9331505 -0.21381779 0.63311994 8
3.9833031 0.17975645 0.62119401 8
3.7836254 4.981391 0.52577776 5.5
3.6174407 5.2061353 0.61392587 6
3.7801538 -1.3865906 0.99643528 10.333333
3.8259492 -1.0066563 1.0665441 11.2
3.8731663 -0.62118888 1.029442 11
3.925281 -0.22009428 0.99129146 10.666667
3.9837542 0.24529333 0.86479157 9.666667
3.745362 -8.6253653 1.3640757 7.75
3.8511381 -4.5578403 1.5028043 11
3.74406 -1.6043129 1.3676021 13
3.7669468 -1.4061726 1.3718001 13.2
3.8146214 -1.0117546 1.3901983 13.5
3.86148 -0.65791619 1.3413506 13.5
3.9754944 0.32751122 1.3866349 13.5
3.9929068 0.4014751 1.2986557 13
3.8037939 -4.5702477 1.6994472 11.5
3.7401121 -1.5206935 1.8735188 16
3.8132322 -0.97064233 1.8285613 16.333334
3.864387 -0.61335516 1.789911 16.333334
3.740613 -1.5143728 2.1230128 17.5
3.7875254 -1.0096182 2.0599415 17.5
3.8489082 -0.58278251 2.0563676 18
3.79513 -4.4947948 3.460253 19.5
3.6396189 -4.4635329 3.7671525 21
4.1213179 -2.0825386 -0.060401402 3
4.0326891 0.63805491 -0.060086813 3
4.0087957 0.27026477 0.14794464 4.4000001
4.0446815 0.56522572 0.21068458 4.8571429
4.0864038 0.90419972 0.17265497 4.5
4.2061253 10.082385 0.020390699 3
4.0098281 0.30943307 0.50416988 7
4.0396385 0.59563446 0.60103035 7.7142859
4.0707393 0.85728019 0.63819724 7.6666665
4.0250683 0.54637939 0.88661039 10
4.3785839 4.7322497 1.1109823 8
4.006825 0.32233649 1.2018126 12
4.0143638 0.56571972 1.4036773 13.285714
4.083673 -4.5162258 1.779422 12
4.1056647 -4.5297732 2.339438 14
4.1091609 -4.5320086 2.6644406 15.5
4.1275954 -2.3837464 2.6383445 18
4.3576789 -4.5474448 2.8275783 16
4.138639 -2.299217 3.1062825 21
4.2491269 -0.33247259 3.6489906 25
4.2638235 -2.0030887 4.0640578 25
4.2861485 -1.7652476 4.1117535 25.333334
4.3989177 -0.55186731 4.7253389 28
4.6822209 1.6848555 -0.025171328 3
4.7976971 2.1534419 -0.057335973 3
4.6434131 -2.5461347 0.23985371 4.4000001
4.7345572 -2.2312441 0.22084326 4.5
4.7317758 1.334597 0.20086424 4.25
4.6857076 1.6793827 0.22909343 4.5
4.7455163 4.7714586 0.073082231 4
4.6967363 4.9653459 0.18144982 4.3333335
4.7897081 8.8956919 0.16985331 4
4.6814604 -2.5953155 0.59663606 6.5
4.7296629 -2.231472 0.57403684 6.6666665
4.7160969 1.3503813 0.59695143 6.75
4.6901751 1.6580946 0.56939757 6.5
4.7481995 4.9606161 0.55449951 5.5
4.7388 8.9806967 0.51953065 5
4.6670976 -2.5587063 0.98377085 9
4.7205415 -2.2363429 0.92490834 8.5
4.7632036 1.3093917 0.96640849 9
4.6831822 1.6731533 0.96461052 9
4.4298124 4.6554313 1.1832544 9
4.7896719 8.8879194 0.95588315 6
4.5932479 -3.2089961 1.5270385 11
4.623847 -3.0116017 1.4979211 11
4.6851664 -2.4320133 1.3375071 10.5
4.711709 -2.2402263 1.4084902 11
4.7231255 1.3207227 1.4638788 12
4.7161336 1.6466506 1.4905993 12
4.4425001 4.6837282 1.3036747 9.5
4.4765897 -4.1525979 1.7677295 11.75
4.5077643 -3.9192693 1.6970558 11.5
4.5651512 -3.4046814 1.766645 12
4.6073151 -3.066653 1.7660853 12.4
4.6385593 -2.5988894 1.80063 13
4.6987591 -2.2640867 1.7426168 13
4.7510228 1.3129677 1.7175674 13.5
4.7175198 1.7040691 1.7847922 13.666667
4.7465401 8.7619972 1.6767631 8
4.6006699 8.8372221 1.8143867 9
4.4197245 -4.4428544 2.3855712 14
4.4584999 -4.1506953 2.2491372 13.666667
4.5186353 -3.7079148 2.2009149 14
4.5496168 -3.4641902 2.2296727 14.5
4.6000161 -2.9829912 2.2057264 14.833333
4.5850701 -2.5518072 2.2905812 15.5
4.6697073 -2.3303692 2.3064189 16
4.7693954 8.6412153 2.1096821 10
4.4137325 -4.4157057 2.5575573 15
4.4300294 -4.279675 2.6137614 15.5
4.4989605 -3.8152878 2.5676682 15.666667
4.5536699 -3.3388886 2.5451007 16.333334
4.5929747 -3.0552876 2.5349388 16.333334
4.5300307 -2.6081243 2.420609 16
4.4077058 -4.478406 2.894578 16
4.430768 -4.3024659 2.8465211 16
4.4788699 -4.0199924 3.3924229 19
4.556921 -3.9050281 3.3764031 19
4.5631113 -3.4462044 3.4030666 19.4
4.5467467 -3.1394107 3.4874804 20
4.7769113 1.9704748 3.4521413 21
4.4516993 -3.8620014 3.7871158 20.333334
4.5231671 -3.2997165 3.6710701 21
4.5492687 -3.088783 3.6069498 21
4.5943289 -0.6726383 4.6210241 27
4.691174 0.78928757 4.6633992 26.5
4.6862922 0.90759838 4.6773953 26.5
4.8047767 1.2833791 0.11780463 4
4.8604989 1.985096 0.21011095 4
4.8702011 2.099937 0.20848624 4.5
4.8259964 10.217113 0.03952802 3
4.8125329 1.5469189 0.71968693 7.5
4.8564763 1.9734282 0.60114098 6.5
4.8726172 2.1091166 0.56946439 6.5
5.047442 8.7445393 0.50557429 5
4.8873262 8.8989239 0.50426346 5
4.8080478 1.5669692 0.99513882 9
4.8320127 1.8023313 0.97378659 9
4.8647113 2.1126504 0.97618771 8.8000002
5.1226668 9.0198116 0.98673964 6
4.821599 1.8688482 1.4874009 11.5
4.8169146 1.8840649 1.7520286 13.333333
4.9735541 8.8731508 1.783096 9
4.8168831 -0.62335438 4.530457 26
5.473865 4.387496 0.12163378 4
5.4543085 4.4946699 0.34563941 5
5.3555927 8.0015154 0.13924491 4
5.5035 4.5416393 0.6226908 6
5.4666123 4.4910655 1.0599926 7.6666665
5.4213042 4.5118566 1.3807441 9.333333
5.6272798 6.7956018 0.1063094 4
5.8721323 9.7570658 0.17795831 4
5.7332797 4.4071126 1.0456992 7.5
5.7491808 4.3270893 1.4489422 9.5
5.6697879 4.4075003 1.4056711 9
5.7616029 4.3122706 3.4209993 17
5.6507626 4.4373298 3.4185829 17
5.778923 4.3953171 3.7607636 17.5
5.940619 4.395575 4.0198359 18
6.2081056 4.340044 0.23709172 4.5
6.242579 4.3377738 0.76811391 6
6.2935648 4.344275 0.99211651 7
6.2150779 4.3465953 1.3290802 8.5
6.2855487 4.3448057 1.6461143 10
6.0895858 4.3808193 3.3159382 16
6.0385857 4.3852892 3.9259069 18
6.7224255 4.2838202 0.20894469 4.5
6.668426 4.2863865 0.66442025 6
6.7873926 4.28368 0.81247044 6
6.7821274 4.2858634 1.4372147 8.5
6.6803994 4.2895494 1.6074194 9
6.4724655 4.329401 2.3692331 12
6.543931 4.3205404 2.6612861 13
6.8163838 4.2708907 0.47051498 5
6.8803544 4.2731843 1.0475327 7
6.8123569 4.2807732 1.7304909 10
7.3692164 4.2116418 0.21985751 4.5
7.4876709 4.1983976 0.57443064 5.5
7.4766726 4.210824 0.98889488 6.5
7.5841165 4.1943831 1.7049738 9
7.3891654 4.2334385 2.5848129 12
7.5156231 4.2270494 2.9981196 13.5
7.5219064 4.0403838 4.3803811 18
7.7610722 4.1742325 1.4455781 8
7.7375703 4.1785493 1.8095613 9.5
7.7320628 4.1954546 2.6680171 12
7.8225088 4.1916423 3.9015555 16
7.6584101 4.0686707 4.3213429 17
8.6308661 4.0645304 0.1275847 4
8.4998703 4.0895176 1.4854935 8
8.5891752 4.0794053 1.7585413 8.666667
8.4268732 4.0956788 2.0054617 10
8.5043392 4.1012812 2.9914687 12.5
8.4978313 4.1058054 3.4614568 14
8.8507786 4.0646496 2.0806403 10
8.8617668 4.0719132 2.6716256 11
9.8768816 25.957424 19.107725 21.5
10.045286 25.915659 19.264524 22
10.440057 25.793476 19.044304 21
10.568511 25.798149 19.331413 22
11.793507 25.658295 19.416512 21.5
12.391247 25.567923 19.382849 21
12.052343 25.581642 19.828501 22
12.572175 25.565508 19.83852 22
13.466769 25.421261 20.332281 22
13.760719 25.432089 19.690493 21
13.881654 25.412039 20.080662 22
14.276515 25.367493 19.70414 21
14.185473 25.328096 20.595194 22
14.450423 25.325653 19.840422 21
14.560332 25.271631 20.240692 22
16.547104 25.049969 20.322998 21
16.783495 25.022938 20.963268 22
16.434614 25.074873 21.516838 22
