# .PCD v0.7 - Point Cloud Data file format
VERSION 0.7
FIELDS x y z intensity
SIZE 4 4 4 4
TYPE F F F F
COUNT 1 1 1 1
WIDTH 177
HEIGHT 1
VIEWPOINT 0 0 0 1 0 0 0
POINTS 177
DATA ascii
-7.7854614 -2.756707 2.277823 12
-7.6381416 -2.7859251 2.4608045 13
-6.3315167 -1.5872196 0.15239514 4
-6.3176322 -1.2577815 0.3793402 5
-6.3052111 -1.25369 0.62833762 6
-5.6342039 -3.2457399 3.0875614 17
-5.6946225 -3.211482 3.3115659 18
-5.0552759 -1.9053159 0.24224086 5
-5.0853143 -1.9268459 0.49524924 6
-4.9881887 -1.8894432 -0.083772719 3
-4.9827929 -1.8947517 0.085227236 4
-4.837101 -3.2843041 0.63343459 7
-4.7185779 2.2281649 0.25466573 5
-4.4463325 -2.3688483 0.29821381 5
-4.4168143 -3.36936 0.77737671 8
-4.4631763 -3.3637264 0.9923839 9
-4.5397754 -3.2041101 4.2893686 24
-4.3944187 -3.3692706 -0.11162717 3
-4.3484249 -3.3877034 0.38136795 5
-4.2956882 -2.1955588 0.50115991 7
-4.3905592 -3.3928051 3.6363759 22
-4.3492637 -3.4089279 3.857372 23
-4.1515203 2.6835861 0.15156354 4
-3.923002 4.2764964 0.16142158 4
-3.8999145 4.3139625 0.24841708 5
-3.9922922 -3.4564717 1.5843165 13
-3.8078229 -3.5018125 3.8482912 24
-3.6809936 -3.5207214 0.42527136 6
-3.686976 -3.5231028 1.1262728 10
-3.6745975 -3.5188935 2.4152696 18
-3.7729676 -3.5295863 3.8082898 23
-3.45153 -3.5546966 -0.041765213 3
-3.5596526 -3.543308 2.3792529 17
-3.3629694 -3.5790131 0.28922236 5
-3.370106 -3.5743196 0.83122283 9
-3.3995247 -3.5777466 1.4172291 12
-3.381768 -3.584183 1.6632266 14
-3.24084 -3.8056698 3.5892379 23
-3.176985 -3.614748 0.1371932 4
-3.1312232 -3.6305511 0.71018708 8
-2.9945252 -3.645359 0.52116334 7
-2.908551 -3.6825449 2.2631526 18
-2.837949 -3.8788545 3.2411728 22
-2.7659845 -3.7111516 2.1161294 17
-2.6932182 1.7394606 2.9164965 26
-2.6782203 2.0817072 2.8434753 25
-2.638592 -3.9427741 3.5421441 24
-2.4437745 -3.7754631 1.3240755 12
-2.0374129 -3.85374 1.6100034 15
-1.8433957 2.2895384 2.7064214 26
-1.9084398 -3.8950987 2.9989827 22
-1.809589 -3.9027777 3.1089621 23
-1.7304214 2.2028534 2.7724223 27
-1.7314947 -3.9344792 3.9699507 27
-1.4436909 -3.9771283 2.0708926 18
-1.4777247 2.7430184 2.9683936 26
-1.3837376 -4.0055618 1.5848839 15
-1.2348106 -4.0351768 1.9498543 17
-1.3103452 -4.0189843 2.9058692 22
-1.2343106 2.6903672 2.9393952 27
-1.2240106 2.631861 3.0043983 28
-1.2528615 -4.0388007 4.4008594 28
-1.0804095 -4.0743661 3.9328249 26.5
-1.1085805 -4.0209222 4.508821 29
-0.80113679 -1.9091353 -0.10663593 1
-0.95616639 -4.0805407 0.2667954 5
-0.79890007 -1.909883 -0.050136484 2.5
0.10386231 3.6028757 3.7543736 27
0.3549709 -1.7662563 0.01727304 4
0.3681941 -3.9690471 3.0571289 23
0.47867125 -3.967279 0.32313496 6
0.55791885 -3.9755268 0.6581381 8
0.62865752 -2.1864321 0.14824478 5.5
0.75256395 -3.9884534 0.73114592 9
0.70824653 -4.0013719 1.323143 13
0.74816251 -4.0047626 4.5121441 28
0.62197804 -3.8614926 4.5141473 29
0.94474143 -2.2140055 0.20423798 6
0.94107717 -4.0118537 0.9451521 10
0.95264018 -4.0156536 1.1691523 12
0.90863186 -4.0114799 1.4771509 14
0.88812774 5.7458549 1.7612329 12
0.81578326 -4.0023398 2.9851475 22
0.94866264 -4.0148506 3.1351521 23
1.0479748 -1.8492947 0.017741129 3.5
1.186119 5.6713853 0.72224677 7
1.3047316 5.6340232 0.30325326 5
1.3815182 5.5976152 0.5622586 6
1.3903763 5.6263928 0.84025645 8
1.2621095 5.7077971 1.3492459 10
1.3288504 8.8922377 7.5099993 24
1.4586924 -1.9042015 0.027224803 4
1.4525356 5.6371388 0.076257512 4
1.4540348 -4.0527692 3.3221674 23
1.641477 -1.9243491 0.030218534 3.5
2.4270914 -4.1731515 0.49868679 6.5
2.4140491 -4.1618772 1.0581868 10
2.7772403 -4.200963 1.1631923 10
2.7284539 -3.5249434 4.5292048 27
2.7241857 -3.3699722 4.5322075 28
2.821625 -4.1996727 0.52619308 6
2.9644256 -2.7827573 0.78020638 9
2.8095672 -4.2116466 0.86219245 8
2.9195278 -2.7965012 0.91120696 10
2.9562666 -2.4580507 4.2032003 28
2.9646287 -2.3914354 4.3781981 29
3.1059322 -2.7386477 0.67420465 8
3.3133564 -2.496721 0.35319728 6
3.3090365 -2.4879045 0.546197 7
3.3987999 5.1241326 0.67087686 6.5
3.2789712 -2.4727807 4.2361965 27.5
3.5869231 5.1069551 1.4723861 10
3.7840204 -1.3214278 -0.065868802 3
3.7688081 -1.5100892 0.1536445 4.5
3.7618847 -1.4750427 0.3201423 6
3.7710459 -1.4818813 0.49714264 7
3.7672827 -1.5091147 0.61714441 8
3.77391 -1.3398913 0.71713269 9
3.7725496 4.8969402 0.63641489 6
3.7633355 -1.4400373 0.88013983 10
3.7770734 -1.2737925 1.0671277 11
3.7955418 -0.97366798 1.1171033 12
3.7552762 -1.528566 1.5101457 14
3.7588332 -1.3807046 1.5841355 15
3.7685947 -1.2601684 1.7141267 16
3.7840705 -0.83290797 1.8740909 17
3.9760385 0.85587025 0.015903469 3
3.98932 1.024978 0.14688256 4
3.9867127 0.99872893 0.21388577 5
3.9895773 1.0084555 0.33288464 6
3.9958599 1.0580461 0.56787848 7
3.9574409 0.67231166 0.65492582 8
3.9288514 0.44323632 0.94645345 10.5
3.918335 0.4422603 1.1519535 12
3.818727 -0.64571619 1.5150732 15
3.8240433 -0.48957738 1.7320578 16
3.9301488 -4.5779214 2.3452013 14
3.9685819 -4.3823848 2.6522045 16
4.1618681 -1.2999641 3.4171245 23
4.1254191 -1.201692 4.1621175 26
4.1830616 -0.91031539 4.0810928 26
4.13448 -1.3086642 4.2771249 27
4.1498427 -0.78596216 4.3800831 27
4.1301074 -1.0102792 4.4201021 28
4.2926879 9.0286169 1.6750426 8
4.2114863 -1.8783841 3.3931603 22
4.3306441 -2.2650082 3.9911776 24
4.2981567 -2.1204772 4.1191707 25
4.379499 -3.2300305 4.5692039 24
4.3775911 -0.57265395 4.6580625 28
4.5166864 -1.8361534 4.0001545 24
4.7126775 -2.5860245 0.4441866 6
4.6588883 -2.4706299 0.69818288 7
4.6774855 1.2790002 1.1058642 10
4.7389083 2.0042114 1.1227796 10
4.6987147 -2.730742 1.3031914 10
4.6635656 -2.5146241 1.3641844 11
4.7244253 1.848089 1.3947978 11
4.7213783 -2.3818552 1.5531785 12
4.6848388 1.577997 1.485829 12
4.6480079 -3.251658 2.1352041 14
4.6447444 -3.4125006 2.3142068 15
4.6068563 -3.7315741 2.6152103 16
4.6190772 -3.3134825 4.2032051 23
4.6296492 0.86651891 4.6129107 26
4.6746955 -2.3994277 5.0741801 26
4.6647091 -2.4463112 5.2641816 27
4.6545596 -2.4384737 5.4641814 28
4.8555093 1.005863 4.432898 25
5.3340745 4.5086751 0.58451253 6
5.3394728 4.5352426 0.79550987 7
5.3412123 4.5844574 1.2065047 8
5.3070526 4.5067954 1.7145118 10
5.2946911 4.4822259 1.9355141 11
5.3303199 4.3818154 2.1225259 12
5.6930866 4.3340511 -0.012457231 3
5.6537175 4.2663398 1.6980487 10.5
