# .PCD v0.7 - Point Cloud Data file format
VERSION 0.7
FIELDS x y z intensity
SIZE 4 4 4 4
TYPE F F F F
COUNT 1 1 1 1
WIDTH 284
HEIGHT 1
VIEWPOINT 0 0 0 1 0 0 0
POINTS 284
DATA ascii
-6.6042423 3.9385822 1.853466 10
-6.625576 3.6675787 2.0414352 11
-6.4761348 3.8437722 2.1354735 12
-4.0303206 -1.5304765 2.1405165 17
-4.0835958 -1.4885509 2.2585068 18
-3.9249597 2.4819548 0.71068197 8
-3.9019396 2.4680057 0.88768381 9
-3.6749039 2.6874616 0.58074206 7
-3.6139431 -0.40992063 2.3395107 20
-3.4698904 -1.9965123 1.1516368 12
-3.4920602 -1.9775417 1.2746315 13
-3.5947883 -2.0221837 1.4836234 14
-3.4230838 -1.9920576 2.1886427 18
-3.5914855 -0.78234822 2.5275204 21
-3.3118753 -2.0185277 2.3406618 20
-3.2192118 -0.62800562 2.343555 22
-3.3273566 0.50927162 2.3475692 21.5
-3.3444288 -1.524013 2.5245984 21
-3.0119579 -2.343971 1.5677563 15
-3.0553267 -2.3160257 2.1437449 19
-3.0707202 0.84573603 2.3496253 22
-3.0035686 -1.6496978 2.5176549 22
-3.1166947 0.39073044 2.5545862 24
-3.1458058 0.58538657 2.4305959 23
-2.8917949 -1.96252 0.13971275 4
-2.8210235 -2.5374312 1.1088229 12
-2.8966782 -2.4737079 1.2117983 13
-2.8789403 -2.4474888 1.4447963 14
-2.8002694 -2.6363399 1.9928461 18
-2.8304808 0.82668287 2.4026542 24
-2.6683245 -1.6213162 -0.020304445 3
-2.6113687 -1.4795333 0.17268507 5
-2.6018181 -2.3017178 0.35281554 6
-2.6517005 -2.2648985 0.47830048 7.5
-2.7119448 -2.6658144 2.182868 19
-2.6279132 -2.5560193 2.3348606 20
-2.7168491 -2.117521 2.3487637 21
-2.6830678 -2.0932262 2.5237653 22
-2.5272126 -2.2461874 0.12181768 4
-2.5467944 -2.2973988 0.24582405 5
-2.4052885 2.4768853 1.1459121 13
-2.5263295 -0.87867796 2.3266394 25
-2.5520692 1.3977677 2.3857534 24
-2.4339736 -0.96148258 2.5136557 26
-2.5037811 -0.79121917 2.5086374 26
-2.4593458 0.2319857 2.5336499 27
-2.3057182 2.5161929 -0.0070668738 3
-2.2438679 2.6796231 0.17596358 5
-2.3190656 2.4340091 0.26192057 6
-2.2806544 2.5052395 0.45393586 7
-2.2217865 2.6746652 0.56196654 8
-2.3281009 2.4359961 0.63791949 9
-2.2217479 2.6856847 0.79696798 10
-2.370296 2.4328918 1.2429124 14
-2.3369794 0.71784067 2.3667057 26.5
-2.2441883 -1.2755171 2.5087082 26
-2.3152716 0.16235256 2.5476618 28
-2.2190194 0.58436519 2.5417078 28
-2.0936952 -0.14616522 0.060671508 4
-2.1016922 -0.168249 0.37017012 8.5
-2.0966899 -0.17624669 0.45467043 10
-2.1060677 2.722975 0.72599143 9
-2.0930431 2.712985 0.86499232 11
-2.1334517 2.6548219 1.3819785 15
-2.1098635 2.7830548 1.9439983 19
-2.1630599 2.2550924 2.1829231 22
-2.163661 2.6377373 2.1139715 20
-2.0341845 0.17564596 2.543694 30
-2.1523499 1.5917071 2.4938385 26
-2.0084038 1.7104229 2.5618777 26
-1.8259093 1.0698153 -0.059679713 2.5
-1.888348 -1.0533751 0.19472727 6
-1.9694105 -0.31825182 0.13468109 5
-1.8729926 1.0902144 0.11248243 5
-1.9211725 2.7172942 0.14802088 5
-1.9082767 -1.0655038 0.27172613 7
-1.8488655 -0.9728992 0.32072371 8
-1.8890181 2.7143416 0.2600258 6
-1.8583313 -0.88967723 0.40071496 9
-1.9509572 0.15370347 0.47270185 10
-1.9047803 -0.80159634 0.61070299 12
-1.8539037 -0.78527248 0.6727075 13
-1.9832112 -0.19577633 0.63968158 12.5
-1.8658752 2.7193792 0.99303025 12
-1.853866 2.70538 1.0740305 13
-1.8953363 2.6392326 1.2360158 14
-1.8468957 0.36312619 2.3727319 30
-1.8479568 1.1084679 2.3708227 28
-1.9751196 2.016118 2.3629231 24
-1.972123 0.25320673 2.5417073 31
-1.9902914 1.4418585 2.5538445 27
-1.8561242 1.6186597 2.5608904 27
-1.9361827 1.9541008 2.4079216 25
-1.7728627 -0.55515957 0.26070407 7
-1.7717113 -0.60229331 0.40170601 10
-1.6462384 0.48621508 0.40677071 10
-1.7143344 2.9037592 1.3245771 14.5
-1.6881192 2.9208009 1.458083 16
-1.6316695 2.952873 1.6400958 17
-1.734712 2.8346674 1.8150657 18
-1.6306155 -1.7459381 2.5298755 27.5
-1.7368752 1.2983118 2.5668657 29.5
-1.7014692 1.6120588 2.5619156 28
-1.5593576 0.55475634 -0.040208891 2.5
-1.5535746 -1.8060473 0.17690204 5
-1.5638229 0.57213742 0.087126084 5
-1.5185269 -1.7386713 0.28856093 7
-1.5689298 0.54270029 0.24578831 7.5
-1.5619051 0.55311602 0.51179057 12
-1.5348316 0.56092334 0.63329536 14.5
-1.4953572 2.8278553 2.171103 21
-1.4914277 -1.4735329 2.5333459 29.5
-1.4245846 -1.3939505 2.5368419 31
-1.4946722 1.5614589 2.5669439 29.5
-1.2677566 2.6298146 2.106117 22
-1.2538818 -1.5930736 2.387913 29
-1.2733731 1.5779094 2.3749852 29
-1.0489541 1.787358 2.1490533 27
-1.1945024 1.8783197 2.1440394 26
-1.0773013 1.7533122 2.3720438 29
-1.1495034 1.8133024 2.380039 28
-1.0998495 -1.5958879 2.4019439 30
-0.96773225 2.157577 2.1591122 25
-0.64448601 -0.80705327 0.32935628 12.5
-0.71461999 1.7563301 2.1441088 29
-0.73855352 1.8123611 2.149111 28
-0.78046268 -2.0123124 2.3921294 28
-0.70437348 -1.9215376 2.3841245 29.5
-0.58238685 -1.4858569 0.06203384 4
-0.44890785 -1.1514173 0.16197497 7
-0.40558517 -0.63183975 0.55085737 22
-0.42523998 -0.47801635 0.55182952 25
-0.55431962 1.5391718 1.2291119 23
-0.30873519 -1.4569163 0.077767015 5
-0.31769219 -1.0949843 0.19799161 8
-0.32650289 -0.51788384 0.10470285 8.4285717
-0.30211508 1.017803 0.076431893 5
-0.23898189 -1.8720219 0.32924974 8
-0.25282922 -1.0477316 0.24049442 10
-0.23891175 -0.99705666 0.29198325 12
-0.28204012 -0.54384589 0.27345634 15.9
-0.20544294 0.99453658 0.21911559 10
-0.30579203 1.054293 0.35960218 13
-0.27642691 -0.51154584 0.52985108 25.5
-0.21251026 1.4564472 0.94916153 20.5
-0.21065672 1.4144422 1.0051577 22
-0.16820657 0.95143569 -0.040881626 2
-0.098165236 -1.2573099 0.1611028 7
-0.080234386 0.91406804 0.061131977 5
-0.19030754 -0.57453775 0.39787653 21
-0.10379674 0.97365659 0.32563317 13
-0.096067436 1.0081241 0.25113791 11
-0.081013255 -1.9696817 0.45033458 10
-0.02726998 -0.68721354 0.51794344 23
-0.16363469 -0.56315988 0.51687837 25
-0.18215504 0.99344176 0.52212018 18
-0.14632134 1.009307 0.4531287 16
-0.044582691 -0.65591824 0.68292934 27.5
-0.11179744 1.3770932 0.98016971 22
-0.12296078 1.363133 1.0551666 23
-0.17715588 1.4543147 1.170167 24
-0.13130972 1.377476 1.2521667 25.333334
0.031328298 -1.0230694 -0.02143102 2.5
0.058238566 -1.0313357 0.095880464 6
0.083666004 0.83217901 0.047154192 5
0.071292989 0.86655778 0.27048808 12.333333
0.016050899 -0.73157758 0.46996921 20
0.15057054 0.80965984 0.46916273 19
0.062675498 -0.72529209 0.62348044 24.5
0.10535905 0.96998924 0.96116763 27
0.20762564 -1.1099277 -0.033841867 2
0.30984887 -0.86397302 0.0051111546 3
0.37742963 0.86789972 0.085521579 6
0.30455604 0.7803871 0.2941781 13
0.35379249 -0.85766816 0.48612556 17.666666
0.25266367 -0.78466552 0.54706252 21
0.34509164 0.72589087 0.49517789 20
0.38714194 0.70841366 0.69267923 24.5
0.24556682 0.96098334 1.0461836 27.5
0.5276984 -0.89108801 -0.040794015 2
0.54232049 0.63368565 -0.075824901 0
0.4972077 -0.92067039 0.074204125 5.3333335
0.49885574 0.65744412 0.10492701 6.75
0.4562932 0.80004394 0.0061869379 3
0.4431062 -1.1068826 0.3082473 11
0.52331752 0.59561497 0.72517294 26
0.4966819 0.64182085 0.68767589 24.25
0.4453063 0.90220726 1.0461935 27
0.52473843 -2.2257376 2.5596533 28
0.51283401 -2.0818357 2.5546012 29.5
0.71130574 0.52106631 0.3067283 13.25
0.75776446 0.52140689 0.51260334 18
0.64640045 0.6022889 0.55316681 20
0.76678348 -2.8410227 0.73295623 11
0.67490238 0.526757 0.72027582 24.25
0.70941472 0.60464227 0.64151847 21
0.76049888 -2.8240521 0.89194804 12
0.66068447 0.523709 0.81715757 27
0.6974256 -2.8645215 2.3519342 23
0.66621864 -2.5072882 2.3573046 25.5
0.62273437 -2.3663044 2.5537405 27
0.74342781 -2.1792314 2.5547311 28
0.96335149 -1.3439742 0.24105145 7.5
0.81477737 0.48997256 0.44965735 16
0.87377036 0.38112673 0.73275906 22.5
0.84100837 0.4508625 0.64219683 20.5
0.99219203 0.32474846 1.0488557 27
0.8857885 0.43670616 1.0273976 27
0.99310559 -2.5646417 2.2349663 24
0.9133653 -1.9430989 2.5667286 29
1.1474324 -1.0259219 -0.069141433 2
1.1188403 0.22629209 -0.083691567 1
1.1949948 -1.0246016 0.039546542 4
1.1405741 0.19926704 0.020000529 4
1.0645596 0.26524115 0.089926399 6
1.0362161 0.22784702 0.83193314 23
1.0282687 0.29122847 1.0398935 26
1.1411705 0.2971234 1.3149465 28
1.0240858 0.34218803 1.4123622 30.5
1.0229113 -2.5431747 2.1069727 23
1.1270053 -2.3932052 2.2069712 24
1.1028816 -1.6942838 2.5667322 30
1.3930477 -7.9345773e-05 -0.096776821 1
1.2180367 0.18668966 -0.02595463 3
1.3784423 0.046042409 0.12419403 6
1.2999833 -2.2626374 0.58700782 10
1.2603757 -2.227211 0.74697822 12
1.3036972 -2.1733871 0.65598059 11
1.2508612 -2.3024323 0.92099816 13.5
1.2395205 -2.2593098 1.5529794 19.5
1.2639769 0.07011015 1.4191273 28.5
1.2354286 -2.256326 1.6919763 21
1.3639617 -2.0746849 1.7399765 22
1.3780911 -2.0582309 2.1459777 24.5
1.2365929 -1.349936 2.3786776 31
1.4142904 -0.010694037 -0.041761674 2.5
1.4205874 -0.023621339 0.015247448 4
1.4858483 -0.070694424 0.50396693 13
1.5847934 -1.579541 1.0689172 17
1.42293 -0.018930722 1.1892468 24
1.4100138 -1.9958642 1.2799724 18
1.5601765 -1.6702378 1.2049358 18
1.4016526 -0.0092558032 1.2602322 25
1.4178016 0.062577799 1.3422052 26
1.4292157 -0.075053558 1.4117762 26.5
1.4728041 -1.8571631 1.7919565 23
1.5210556 -1.7439055 1.8969418 24
1.5140716 -1.7479991 2.0179396 25
1.4741035 -1.8880261 2.2559671 26
1.7653213 -0.2751143 0.307522 8
1.6477296 -1.4440187 0.70690149 12.5
1.6466665 -1.4469231 0.99890208 16
1.6228873 -1.4692976 1.3848983 20
1.6835165 -1.3848464 1.2928985 19
1.6249728 -1.476248 1.4609019 21
1.6901771 -1.3172374 1.7838786 24
1.6621023 -1.3739617 1.8928846 25
1.7697057 -1.2984391 2.1279094 26
1.7347896 -1.1906328 2.223856 28
1.7621297 0.19583161 2.386306 31
1.9826134 -0.76252615 2.323818 28
1.9691961 -0.0083198743 2.3875012 30
2.0843122 -0.3169885 2.2076898 27
2.3140395 -0.73986167 -0.013034981 3
2.3148897 -0.9151842 0.14503087 4.5
2.3281164 -0.69678295 0.1159552 4.5
2.3472333 -0.85965914 0.33202571 7
2.3414903 -0.71955335 0.28372014 6.75
2.3050163 -0.80503654 0.71598548 12
2.3473928 -0.88048834 0.90603364 13.5
2.2998986 -1.0209514 1.3380626 18
2.383158 -0.87756348 1.3050497 17.5
2.3088522 -0.86391675 1.4490094 19
2.3027749 -0.91522658 1.6120254 20
2.3724246 -1.0683402 2.1691141 24
2.2101185 -0.84043097 2.1729543 25
2.3668184 -0.38776368 2.1358516 25
2.5592904 -1.3448772 0.13529998 5
2.5665898 -1.3637764 0.22531004 6
2.5672908 -1.3555522 0.59830755 9
2.5414414 -1.1992978 0.6792407 10
2.540293 -1.3619937 0.86829704 12
2.4943297 -1.5079699 2.1473255 22
3.0071409 -1.8945611 1.9497015 18
