# .PCD v0.7 - Point Cloud Data file format
VERSION 0.7
FIELDS x y z intensity
SIZE 4 4 4 4
TYPE F F F F
COUNT 1 1 1 1
WIDTH 88
HEIGHT 1
VIEWPOINT 0 0 0 1 0 0 0
POINTS 88
DATA ascii
-11.671117 2.0904901 3.8802783 13
-11.506697 0.88687319 0.14377756 4
-11.492378 0.83186013 0.47343597 5
-11.467213 4.375803 0.89707077 5
-11.487576 1.1239122 1.1863534 6
-11.331285 3.2254536 3.1000702 11
-11.268382 3.2553043 3.5832853 12
-11.277712 3.2527907 4.0402727 13
-11.275364 3.3234906 4.2556658 14
-11.196078 1.8345991 -0.1309789 3
-11.113954 4.0706687 2.2577231 9
-11.0762 5.9917536 3.8690517 12
-11.029462 6.1584463 4.2418189 13
-10.876204 6.8964682 14.112144 28
-10.779477 3.1811247 0.250159 4
-10.788129 3.2660704 0.59862447 5
-10.77723 3.2944427 1.0467932 6
-9.7332573 5.3872957 0.57673514 5
-6.7177625 -1.1864985 3.824832 19
-3.3642075 -1.7219841 0.12743048 4
-3.3672209 -1.7185733 0.20846674 5
-2.6280086 -2.0656352 1.1438105 14
-2.5316496 -1.3368536 2.5751348 26
-2.5286033 -1.1392277 2.6700618 27
-2.4748216 3.7268038 4.1134014 26
-2.2914631 -1.69359 2.5674381 26
-2.225461 -1.6648237 2.6506889 27
-2.3755245 -1.2162453 2.7432916 28
-1.6316861 3.302289 3.9985776 28
-1.7149423 3.4841628 3.8411803 27
-1.3762512 -1.842914 0.071092755 4.5
-1.3714318 1.0813107 0.090089023 5
-1.3477731 1.0771919 0.31175876 9
-1.3094459 1.2742593 0.31439066 8
-1.2868984 1.2311317 0.54321361 12
-1.2216493 1.4939848 0.61037678 13
-1.3615264 -1.9601417 2.3544219 27
-1.3082161 -1.902254 2.4219475 28
-1.0113688 1.4811913 -0.094595514 1.5
-1.1327583 1.5308033 0.10488586 5
-0.95859939 1.8341907 -0.070332758 2
-0.87532037 1.7993635 0.10054892 5
-0.91297871 1.8121413 0.049592461 3.5
-0.95302564 1.5555974 0.56870365 12
-0.95607311 1.5591501 0.69071645 14
-0.42393902 1.6494496 0.48704848 12
-0.43178076 1.6400335 0.62202251 14
-0.36197364 1.6411043 0.26201627 8
-0.38442868 1.623849 0.6829713 15
-0.17848307 1.5754454 0.51181334 13
-0.1139373 1.542199 0.63471985 14.5
0.079152524 1.4752582 0.32753369 10
0.16205861 1.4626528 0.45599627 12.5
0.022941999 -2.4709039 2.4537108 27
0.33114687 1.4066581 -0.098138124 1.5
0.31126505 1.4244621 0.084599309 5
0.27978566 1.4277904 0.29140955 9.333333
0.24960117 2.897012 3.0642035 27.5
0.71882987 2.7464306 2.7763345 26.5
0.82527965 2.7606442 0.7647422 11
0.94078541 2.719645 0.88953084 12
0.94941813 2.6753757 3.0024345 28
1.1908878 2.5220375 1.8838874 21
1.2924836 2.5906649 0.72191453 10.5
1.3737379 2.5446332 1.7757534 20
1.4048868 2.5427687 1.7367203 19
1.5977172 2.4613371 2.8954077 27
1.6199774 2.4850028 1.2324251 15
1.667056 2.4487228 2.7983272 26
1.9555278 2.4328423 0.074064843 4
1.9002665 2.4393885 0.50611842 8
2.1172192 2.3811967 0.16687052 5
2.1558273 2.2046578 0.24962036 6
2.1292458 2.37906 0.43285906 7
2.126205 -2.0447388 3.1253688 28
2.2522786 -2.0426888 2.8770826 26
2.2076831 -2.1486642 3.0337324 27
2.5960696 2.266479 0.032419637 4
2.5800118 -1.4936816 3.2148252 28
2.844322 2.0873752 0.88512564 11
3.3354754 -1.7439032 0.087957434 4
3.5469069 1.8547249 4.2697234 28
3.956198 1.7276715 4.2875791 27
4.1422 1.7967461 4.1225328 26
9.3731785 3.9240861 0.83617437 6
31.745632 6.9126539 3.2981863 6
40.487354 1.1694489 13.030426 13
40.933968 2.8907237 11.928616 12
