# .PCD v0.7 - Point Cloud Data file format
VERSION 0.7
FIELDS x y z intensity
SIZE 4 4 4 4
TYPE F F F F
COUNT 1 1 1 1
WIDTH 1010
HEIGHT 1
VIEWPOINT 0 0 0 1 0 0 0
POINTS 1010
DATA ascii
-1.9349999 -2.25 -0.206 0
-1.653 -1.687 -0.207 0
-1.5986668 -1.6305466 -0.20408456 0
-1.539389 -1.5689554 -0.2009038 0
-2.9779999 -2.201 -0.102 0
-2.6789999 -2.223 -0.152 0
-2.7363374 -2.1571224 -0.18070908 0
-2.6374953 -2.1595025 -0.16006082 0
-2.5537901 -2.1193972 -0.16049506 0
-1.851141 -2.153224 -0.18672681 0
-2.7317014 -2.0599875 -0.17118171 0
-2.6569862 -2.0350542 -0.18207082 0
-2.5613263 -2.0424719 -0.17634213 0
-2.4501419 -2.0336351 -0.16752724 0
-1.7672821 -2.056448 -0.16745362 0
-2.5504651 -1.9510188 -0.18348992 0
-2.443068 -1.9732885 -0.1742098 0
-2.359942 -1.9323902 -0.17603379 0
-1.7113763 -1.9919306 -0.15460482 0
-1.6554704 -1.9274132 -0.14175603 0
-1.165 -1.9119999 -0.189 0
-2.5108819 -1.8927829 -0.17875439 0
-2.4433241 -1.8682028 -0.18604723 0
-2.3403587 -1.8508546 -0.18593509 0
-2.2399085 -1.8427888 -0.18242936 0
-1.916278 -1.8404264 -0.194967 0
-1.842 -1.814 -0.133 0
-1.5995644 -1.8628958 -0.12890723 0
-1.1270294 -1.8479798 -0.189 0
-0.352 -1.816 -0.112 0
-2.336803 -1.7841673 -0.18746632 0
-2.2655821 -1.7285502 -0.18879178 0
-2.1517768 -1.762056 -0.18801352 0
-2.0700986 -1.7191746 -0.19331188 0
-1.9709493 -1.7188013 -0.19789568 0
-1.8361835 -1.7856662 -0.16534364 0
-1.7618988 -1.7304714 -0.18073308 0
-1.5348293 -1.7881892 -0.11402921 0
-1.079 -1.767 -0.189 0
0.89899999 -1.744 -0.13600001 0
2.983 -1.7180001 -0.101 0
-2.6585438 -1.643741 -0.12317816 0
-2.2235208 -1.6751926 -0.18860902 0
-2.1584413 -1.6457343 -0.19134907 0
-2.0365484 -1.646516 -0.19434018 0
-1.9323902 -1.6060082 -0.19691566 0
-1.8667543 -1.6574211 -0.19530612 0
-1.7406934 -1.6501526 -0.18163936 0
-1.6481833 -1.6289355 -0.18376935 0
-1.5366665 -1.6346666 -0.17199999 0
-1.4874743 -1.6139104 -0.1740505 0
-0.81900001 -1.602 -0.138 0
0.86307156 -1.64061 -0.11997467 0
0.92169738 -1.6620716 -0.1233652 0
2.651453 -1.6334624 -0.11372557 0
-2.724 -1.551 -0.163 0
-2.6479743 -1.550405 -0.16246176 0
-2.5552895 -1.5487139 -0.13247308 0
-2.4780462 -1.5415554 -0.15893112 0
-2.0351682 -1.5306795 -0.19410726 0
-1.9450045 -1.5690546 -0.19298023 0
-1.8553905 -1.5414233 -0.1937898 0
-1.7431637 -1.5494218 -0.19368537 0
-1.6386174 -1.552062 -0.18842237 0
-1.54787 -1.5280483 -0.1846458 0
-1.4507923 -1.5434076 -0.18619101 0
-1.3708708 -1.5218757 -0.18872771 0
-0.93199998 -1.5829999 -0.13 0
-0.88778722 -1.5079612 -0.11956087 0
-0.77954996 -1.5268433 -0.12691367 0
-0.51499999 -1.513 -0.12899999 0
0.77376759 -1.5036967 -0.10688897 0
0.83449024 -1.5502896 -0.11036331 0
0.94103324 -1.5455248 -0.14472614 0
2.4639866 -1.5217036 -0.14106445 0
2.5389733 -1.5664071 -0.13012889 0
-2.5409105 -1.4653394 -0.14323872 0
-2.4431117 -1.4566222 -0.15762424 0
-2.3428335 -1.4498851 -0.15710407 0
-2.2542186 -1.4092221 -0.17817244 0
-2.069006 -1.4413941 -0.19190882 0
-1.9778067 -1.468455 -0.193883 0
-1.865641 -1.4436744 -0.19150101 0
-1.7594687 -1.4589132 -0.19347185 0
-1.6571442 -1.4491813 -0.19248524 0
-1.5488971 -1.4541857 -0.19082978 0
-1.4530635 -1.4337617 -0.19160962 0
-1.3617358 -1.4598488 -0.18603541 0
-1.285 -1.428 -0.18799999 0
-1.046 -1.467 -0.171 0
-0.97504246 -1.4626422 -0.16479993 0
-0.84357452 -1.4329222 -0.10912175 0
-0.74009991 -1.4516867 -0.11582735 0
-0.52100003 -1.405 -0.105 0
-0.48931718 -1.4390584 -0.11636571 0
0.84470469 -1.4418716 -0.11359571 0
2.2342935 -1.4134551 -0.15784566 0
2.3479891 -1.4630395 -0.15395047 0
-2.4283199 -1.3618069 -0.13786221 0
-2.3509593 -1.3507435 -0.15500504 0
-2.2605333 -1.3573356 -0.16579895 0
-2.1305363 -1.3276215 -0.18454151 0
-2.0159662 -1.3709817 -0.1948683 0
-1.9361553 -1.3523674 -0.19176923 0
-1.8609657 -1.3527535 -0.1912334 0
-1.7566723 -1.3599795 -0.1906426 0
-1.6605237 -1.3628509 -0.19114539 0
-1.5530655 -1.3611979 -0.1899676 0
-1.4709553 -1.3287286 -0.18918441 0
-1.3498946 -1.3518926 -0.18892065 0
-1.2758372 -1.3484551 -0.18704715 0
-0.94723576 -1.3584522 -0.15062715 0
-0.70064986 -1.3765301 -0.10474102 0
-0.46363437 -1.3651167 -0.10373143 0
0.82619935 -1.3581496 -0.11335689 0
2.0700352 -1.3257154 -0.13389109 0
2.1442244 -1.3683078 -0.14788456 0
2.2264247 -1.3766476 -0.15472355 0
2.3337615 -1.3168397 -0.16247755 0
2.4394786 -1.3788553 -0.16209865 0
2.5575879 -1.3563752 -0.10328905 0
-2.2398963 -1.2588863 -0.1497096 0
-2.1550272 -1.2502329 -0.17924032 0
-2.0601985 -1.249457 -0.18894507 0
-1.9652027 -1.2294229 -0.19086671 0
-1.8386978 -1.2634364 -0.19077945 0
-1.7528963 -1.2482545 -0.19031172 0
-1.6587404 -1.2503159 -0.19002463 0
-1.5552801 -1.2585365 -0.18937328 0
-1.4401135 -1.2454975 -0.18989953 0
-1.3457472 -1.2389572 -0.1881794 0
-1.2386667 -1.2573333 -0.185 0
-0.84928292 -1.2471948 -0.13022019 0
0.78026581 -1.2831995 -0.10080919 0
1.834404 -1.2563623 -0.12359142 0
1.9562186 -1.2480812 -0.14041623 0
2.0430467 -1.27648 -0.15867367 0
2.1773701 -1.2250975 -0.1630381 0
2.2679002 -1.2411783 -0.14273241 0
2.3604114 -1.2533002 -0.11709372 0
2.4405878 -1.2952127 -0.11148043 0
-2.1396267 -1.1602904 -0.15296938 0
-2.0580118 -1.1387576 -0.14221454 0
-1.9438336 -1.1398002 -0.18329152 0
-1.8417294 -1.145633 -0.18975058 0
-1.7401344 -1.1591778 -0.18950343 0
-1.647137 -1.1477911 -0.18940751 0
-1.5498223 -1.1540452 -0.18878482 0
-1.447943 -1.1460798 -0.18841538 0
-1.367414 -1.1412474 -0.18754189 0
-1.265 -1.1389999 -0.18450001 0
-0.84138316 -1.1840496 -0.1225756 0
-0.78060359 -1.1398225 -0.11328166 0
1.3456638 -1.1261656 -0.14735997 0
1.4520357 -1.1171489 -0.16495742 0
1.5342871 -1.1524498 -0.16288005 0
1.6579735 -1.1458224 -0.15901512 0
1.7562717 -1.1593583 -0.1516463 0
1.8467187 -1.1719134 -0.15086198 0
1.9197124 -1.1873238 -0.15986177 0
2.0600762 -1.156291 -0.16345851 0
2.1198821 -1.1275626 -0.13393357 0
2.2496138 -1.1447172 -0.1195149 0
2.3790307 -1.1597856 -0.10299441 0
2.4754193 -1.1429584 -0.13755389 0
-2.1551051 -1.0588179 -0.11531821 0
-2.0416481 -1.053387 -0.12393118 0
-1.9655851 -1.0698279 -0.15531194 0
-1.8548144 -1.0474781 -0.16627677 0
-1.7588495 -1.0505488 -0.18591063 0
-1.6440884 -1.0456059 -0.18854737 0
-1.5367308 -1.0605181 -0.18826583 0
-1.4564182 -1.0388541 -0.18784261 0
-1.3491555 -1.0530356 -0.1870086 0
-0.74231476 -1.096465 -0.10975234 0
1.265582 -1.0558329 -0.16267997 0
1.3615369 -1.0368817 -0.16841283 0
1.4578215 -1.0550736 -0.16648759 0
1.5409765 -1.0683136 -0.16722913 0
1.656778 -1.0564048 -0.15877901 0
1.7271872 -1.0820433 -0.16287109 0
1.8503133 -1.027146 -0.15831088 0
1.9511561 -1.065611 -0.15451953 0
2.0496452 -1.0430648 -0.13670081 0
2.1373038 -1.0255162 -0.12132742 0
2.2349646 -1.0527198 -0.12875111 0
2.3756547 -1.0973251 -0.140697 0
-2.043025 -0.9581393 -0.12446332 0
-1.9354931 -0.95429349 -0.13843299 0
-1.865562 -0.9450106 -0.16581404 0
-1.750088 -0.96138752 -0.17536348 0
-1.6698985 -0.94544995 -0.1791485 0
-1.5537511 -0.95581353 -0.18702149 0
-1.4508702 -0.95062667 -0.1871255 0
-1.36025 -0.94975001 -0.18575001 0
1.273 -0.94820005 -0.16700001 0
1.3503249 -0.95682108 -0.16555761 0
1.4483391 -0.94194329 -0.16508879 0
1.5494182 -0.97194368 -0.16494086 0
1.6281359 -0.95038009 -0.16352123 0
1.7540464 -0.96307838 -0.16036656 0
1.8511683 -0.93218535 -0.15577187 0
1.972785 -0.93481845 -0.14330734 0
2.0489633 -0.94311839 -0.13125324 0
2.1262178 -0.93856394 -0.12406319 0
2.2591248 -0.92051148 -0.12694925 0
2.320972 -0.95545846 -0.1196127 0
-2.1029999 -0.81800002 -0.106 0
-2.0340023 -0.81697547 -0.10911652 0
-1.9428394 -0.80976999 -0.11682072 0
-1.7595116 -0.87353152 -0.18061912 0
-1.6539974 -0.8497507 -0.1828732 0
-1.5541542 -0.85590333 -0.17862619 0
-1.4476234 -0.83424109 -0.18340142 0
-1.3775001 -0.86750001 -0.18450001 0
1.2756 -0.84020007 -0.1644 0
1.3431221 -0.85067302 -0.163867 0
1.4395026 -0.85025972 -0.16374244 0
1.5510672 -0.84529674 -0.16198644 0
1.6572177 -0.82463962 -0.1618522 0
1.7392421 -0.84583098 -0.1603625 0
1.8438255 -0.85300899 -0.15122324 0
1.9635372 -0.83354086 -0.13850005 0
2.053329 -0.85172528 -0.13080765 0
2.1352718 -0.83903295 -0.1377455 0
2.2377794 -0.85974973 -0.13214184 0
2.3677385 -0.89789957 -0.12801449 0
-2.0090001 -0.71899998 -0.154 0
-1.967989 -0.74767369 -0.13921438 0
-1.874 -0.787 -0.12899999 0
-1.5159863 -0.77632946 -0.17976953 0
-1.4549127 -0.75234151 -0.18588728 0
-1.3797499 -0.764 -0.18450001 0
1.2837501 -0.74650002 -0.16250001 0
1.3548855 -0.74695414 -0.16299756 0
1.4404147 -0.73924983 -0.16221626 0
1.5505415 -0.75515664 -0.16283618 0
1.6473533 -0.74209231 -0.16200159 0
1.7528404 -0.75919145 -0.15965113 0
1.8495536 -0.74956185 -0.15349603 0
1.9634517 -0.74650681 -0.14239264 0
2.0530558 -0.74438334 -0.12784144 0
2.1456819 -0.75256419 -0.10884704 0
2.2319105 -0.79364532 -0.10224666 0
-2.0075305 -0.60805905 -0.11643127 0
-1.9042027 -0.67787701 -0.17389822 0
-1.8300507 -0.63996923 -0.17672455 0
-1.7808802 -0.62184608 -0.1856318 0
1.2920001 -0.66649997 -0.162 0
1.3583854 -0.64543903 -0.16380121 0
1.4476472 -0.6553629 -0.16245808 0
1.5347071 -0.6624788 -0.16152155 0
1.6259154 -0.64012468 -0.15965816 0
1.7489773 -0.64401406 -0.15950334 0
1.8370084 -0.6521129 -0.15125431 0
1.9376205 -0.67304683 -0.13648562 0
2.0328226 -0.65539283 -0.11316723 0
2.1215286 -0.64905882 -0.11875406 0
2.2515216 -0.64415652 -0.12183914 0
2.3510001 -0.67400002 -0.115 0
-2.0642567 -0.55968791 -0.19109407 0
-1.9509577 -0.56317043 -0.15666118 0
-1.8406719 -0.56815153 -0.15223184 0
-1.7498596 -0.56117368 -0.16628045 0
-1.666039 -0.54823315 -0.17753924 0
-1.57534 -0.506486 -0.18705732 0
1.2950001 -0.57500005 -0.16 0
1.3756492 -0.55426395 -0.16189122 0
1.4581046 -0.53835362 -0.16131274 0
1.5616961 -0.54532939 -0.15933801 0
1.6557027 -0.55259544 -0.15894552 0
1.7489231 -0.53707743 -0.15620799 0
1.8337644 -0.57076961 -0.15058185 0
1.949113 -0.57261634 -0.1286338 0
2.0436287 -0.5817886 -0.13613178 0
-1.7394133 -0.48660532 -0.18663542 0
-1.64 -0.48100001 -0.186 0
-1.525 -0.47999999 -0.192 0
1.28 -0.42699999 -0.15650001 0
1.3434628 -0.46231174 -0.15954863 0
1.4446839 -0.45083651 -0.15952787 0
1.5294266 -0.45005798 -0.1584276 0
1.6512947 -0.44833302 -0.15765126 0
1.7550135 -0.45922184 -0.15670598 0
1.8513752 -0.47498551 -0.15604813 0
1.9429476 -0.41153434 -0.16782758 0
-2.3399999 -0.34 -0.1585 0
-2.2583213 -0.32885587 -0.14627402 0
-2.1567926 -0.33258656 -0.12375544 0
-2.0348682 -0.31313848 -0.10380872 0
1.289 -0.329 -0.15650001 0
1.3606058 -0.34590551 -0.15769124 0
1.4599489 -0.35474804 -0.15684332 0
1.5455284 -0.33583254 -0.15690102 0
1.6432688 -0.34539434 -0.15266386 0
1.7509301 -0.34350303 -0.15210629 0
1.8384581 -0.37182748 -0.14336206 0
-2.1558509 -0.29635426 -0.13769171 0
-2.0737762 -0.28703138 -0.12653756 0
-1.9506645 -0.27304709 -0.10980634 0
1.3436817 -0.27167755 -0.15952577 0
1.4588692 -0.28534356 -0.15551086 0
1.5342853 -0.27276677 -0.15181564 0
1.6361421 -0.25324488 -0.15552863 0
1.7233926 -0.26267621 -0.14816193 0
1.8336396 -0.29678684 -0.15799546 0
1.353 -0.161 -0.15899999 0
1.4625814 -0.17431717 -0.14035594 0
1.5721626 -0.18763435 -0.12171191 0
1.6594915 -0.18553507 -0.13862525 0
1.7542019 -0.14811943 -0.15213805 0
1.841 -0.106 -0.156 0
1.268 -0.054000001 -0.155 0
1.3683524 -0.031445976 -0.13602693 0
1.4475716 -0.033875003 -0.13504645 0
1.5423762 -0.037104025 -0.13869165 0
1.6405001 -0.056000002 -0.15549999 0
1.7287019 -0.099619426 -0.15663806 0
1.2746625 0.14292891 -0.11725114 0
1.3614218 0.14824343 -0.10948482 0
1.4412537 0.16225149 -0.12393776 0
1.5359448 0.15952738 -0.13872841 0
1.651848 0.15706275 -0.15839903 0
1.036 0.28200001 -0.116 0
1.24664 0.24803287 -0.10529031 0
1.3416766 0.27187401 -0.12311517 0
1.4576252 0.27022183 -0.14111754 0
1.5336918 0.20899205 -0.14421546 0
1.613 0.219 -0.15800001 0
0.95949996 0.33850002 -0.1085 0
1.0530486 0.34221926 -0.10183867 0
1.1067357 0.30157629 -0.10738643 0
1.455 0.30599999 -0.145 0
-1.9191412 0.48283496 -0.11503999 0
-1.8319693 0.46000195 -0.10884799 0
-1.7447976 0.43716896 -0.10265599 0
0.98444802 0.41817603 -0.10227041 0
1.04 0.44 -0.111 0
-2.355 0.597 -0.146 0
-2.2678282 0.57416701 -0.139808 0
-2.1806564 0.55133396 -0.133616 0
-2.0613165 0.5393607 -0.11947208 0
-1.9667995 0.59773266 -0.11202656 0
-1.8646247 0.5833329 -0.1113916 0
-1.7769635 0.57506454 -0.10719609 0
-1.602 0.597 -0.13600001 0
-1.1950001 0.59299999 -0.17299999 0
-2.336 0.65200001 -0.146 0
-2.2362504 0.65261877 -0.13533837 0
-2.1520004 0.62823761 -0.12517673 0
-2.0433011 0.65493524 -0.12366806 0
-1.9543786 0.65810657 -0.11209929 0
-1.8359294 0.682841 -0.1184302 0
-1.7421789 0.65282422 -0.11025984 0
-1.6799765 0.62561369 -0.1301434 0
-1.5295222 0.67646033 -0.17720544 0
-1.4393071 0.66187263 -0.17165665 0
-1.3330892 0.66343766 -0.1750192 0
-1.2484833 0.65709418 -0.17176908 0
-1.142 0.65600002 -0.169 0
-2.3050001 0.70200002 -0.145 0
-2.1565633 0.72801775 -0.14951655 0
-2.0680001 0.76800001 -0.101 0
-1.9528941 0.72576153 -0.10964531 0
-1.8419657 0.77414149 -0.18286043 0
-1.741035 0.75888795 -0.17234449 0
-1.6492087 0.74998033 -0.17259514 0
-1.5567882 0.76023275 -0.17154525 0
-1.4563082 0.73492724 -0.17331451 0
-1.3511434 0.75678205 -0.17022868 0
-1.2532458 0.75216579 -0.16864283 0
-1.1638463 0.73867524 -0.16817579 0
-1.0893334 0.75466663 -0.168 0
-1.965497 0.85196304 -0.1660583 0
-1.8307332 0.82815915 -0.16204296 0
-1.7449538 0.84602082 -0.17057166 0
-1.6534255 0.8405816 -0.17352176 0
-1.5341685 0.8380186 -0.17135042 0
-1.4439838 0.85437202 -0.16978768 0
-1.3509865 0.84534293 -0.16950762 0
-1.2379982 0.84472847 -0.16905692 0
-1.1512085 0.84464025 -0.16860422 0
-1.0618023 0.8583864 -0.16703077 0
-0.99599999 0.88499999 -0.167 0
-1.8759264 0.97181368 -0.1691359 0
-1.7453694 0.93282276 -0.17384085 0
-1.6511319 0.95507997 -0.17309903 0
-1.5725629 0.93775308 -0.17141949 0
-1.4674575 0.95716411 -0.17084937 0
-1.3501118 0.9396677 -0.17024051 0
-1.2403613 0.95527059 -0.16857024 0
-1.1420461 0.96078986 -0.16744919 0
-1.0480905 0.94835901 -0.16618957 0
-0.95825005 0.97550005 -0.16575 0
-1.8273546 1.0620691 -0.1670047 0
-1.7452713 1.0321127 -0.15976124 0
-1.6375055 1.0311831 -0.17229421 0
-1.5514187 1.0489699 -0.17249925 0
-1.4409736 1.0541435 -0.17038372 0
-1.3583072 1.0602667 -0.16974457 0
-1.257045 1.0597187 -0.16797522 0
-1.1484668 1.0500104 -0.16736919 0
-1.0475841 1.0496149 -0.16727196 0
-0.94453478 1.0533876 -0.16409321 0
-0.86400002 1.05125 -0.162 0
-1.9425116 1.1679955 -0.12420207 0
-1.8435174 1.1039932 -0.14005311 0
-1.6663487 1.1394329 -0.17246619 0
-1.5405225 1.1352198 -0.17145468 0
-1.4519831 1.1489635 -0.16977409 0
-1.335629 1.1624019 -0.16847004 0
-1.2397106 1.150581 -0.16843922 0
-1.1546839 1.1448313 -0.16758101 0
-1.0479498 1.1519121 -0.16528958 0
-0.95019078 1.145573 -0.16528653 0
-0.85658276 1.1457604 -0.1628111 0
-0.76999998 1.176 -0.164 0
-1.809 1.235 -0.17200001 0
-1.7444608 1.252399 -0.17242134 0
-1.6576729 1.2512788 -0.17252259 0
-1.5478909 1.2139263 -0.17267419 0
-1.4408139 1.219753 -0.17056085 0
-1.36024 1.2636009 -0.1692619 0
-1.2536494 1.2581915 -0.1676726 0
-1.1542441 1.257645 -0.16538347 0
-1.0552344 1.2583643 -0.16604735 0
-0.95845634 1.24663 -0.16489021 0
-0.85718995 1.2363914 -0.16369542 0
-0.48356223 1.2501752 -0.10912327 0
-0.33243999 1.2481072 -0.11028931 0
-0.24943969 1.2262697 -0.1029616 0
-0.16535766 1.2778487 -0.10440024 0
-1.841 1.3839999 -0.17299999 0
-1.7914548 1.3481313 -0.17287096 0
-1.5488353 1.3484142 -0.17233917 0
-1.4450001 1.3049999 -0.17 0
-1.3549117 1.3536056 -0.16941576 0
-1.2547286 1.3509462 -0.16646574 0
-1.1492609 1.3461872 -0.16643874 0
-1.0568634 1.3514279 -0.16486807 0
-0.9429 1.3569657 -0.16440691 0
-0.86258394 1.3257352 -0.16534005 0
-0.72828484 1.3852907 -0.13468029 0
-0.65208203 1.3413986 -0.13184857 0
-0.53548652 1.3697475 -0.11051491 0
-0.4263525 1.3638788 -0.10608444 0
-0.34932613 1.3745997 -0.12431024 0
-0.25907907 1.3366419 -0.11809599 0
-0.15294431 1.3512993 -0.112392 0
-1.6671033 1.4599456 -0.17421049 0
-1.5137558 1.4596848 -0.16991763 0
-1.4535038 1.4041233 -0.17027842 0
-1.3357579 1.4600297 -0.16639106 0
-1.2293419 1.4441228 -0.16741669 0
-1.152607 1.4468844 -0.1656574 0
-1.0394555 1.4446598 -0.16511525 0
-0.94870251 1.4423319 -0.14437868 0
-0.85449535 1.4642091 -0.16554843 0
-0.75939745 1.4514483 -0.13994849 0
-0.64078945 1.4434085 -0.13133352 0
-0.56101692 1.4538984 -0.14066358 0
-0.43927714 1.4531858 -0.1322099 0
-0.34734479 1.447522 -0.12438533 0
-0.25339124 1.4315403 -0.1125706 0
-0.1703651 1.4637911 -0.12692937 0
-1.717 1.507 -0.175 0
-1.6342597 1.5708082 -0.16919605 0
-1.5740077 1.5152466 -0.16955684 0
-1.4293895 1.5619798 -0.16697142 0
-1.2807626 1.5619375 -0.16817482 0
-1.1264999 1.5055 -0.16749999 0
-1.031755 1.53927 -0.15882686 0
-0.94626516 1.5481728 -0.14594239 0
-0.84484404 1.5478009 -0.14923461 0
-0.73925066 1.5620257 -0.13997625 0
-0.63069451 1.5494642 -0.14217131 0
-0.55805945 1.5380285 -0.12603749 0
-0.44359142 1.5377643 -0.14254093 0
-0.34831157 1.546012 -0.13659689 0
-0.25769362 1.5471507 -0.12503536 0
-0.17991006 1.5510273 -0.13795291 0
-1.7312346 1.6635847 -0.17013416 0
-1.6670001 1.601 -0.169 0
-1.3370563 1.632427 -0.16837063 0
-1.0379465 1.662694 -0.14874613 0
-0.94607383 1.659584 -0.13557065 0
-0.8623361 1.6563007 -0.14976385 0
-0.74138051 1.6521952 -0.15956908 0
-0.65152502 1.6457052 -0.15072669 0
-0.54323661 1.6427892 -0.1460292 0
-0.43856484 1.6486689 -0.1424709 0
-0.34950805 1.6462383 -0.14519309 0
-0.25693005 1.6631935 -0.14862148 0
-0.17143854 1.6513577 -0.14907287 0
-1.8597034 1.7887543 -0.17240247 0
-1.7954689 1.7261695 -0.17126831 0
-1.4496439 1.7734061 -0.16876224 0
-1.3933501 1.7029166 -0.16856644 0
-1.1063353 1.7448128 -0.14336523 0
-1.0649351 1.7386438 -0.14526151 0
-0.96303499 1.7530606 -0.14822331 0
-0.82689416 1.7541819 -0.15008204 0
-0.70981383 1.730702 -0.15918094 0
-0.66186839 1.7579001 -0.15503035 0
-0.57773739 1.7423434 -0.14926533 0
-0.4676303 1.7462803 -0.15208295 0
-0.36740541 1.7513143 -0.15745725 0
-0.26095238 1.749607 -0.15432784 0
-0.18000001 1.739 -0.16 0
-1.9239378 1.8513391 -0.17353663 0
-1.5139793 1.8539652 -0.16898601 0
-1.201 1.895 -0.164 0
-1.1368747 1.8403746 -0.1581932 0
-1.0259702 1.8694589 -0.15262514 0
-0.99134082 1.8037554 -0.16342877 0
-0.8646096 1.835654 -0.15521397 0
-0.730582 1.8347557 -0.15349059 0
-0.62819719 1.8812642 -0.15783301 0
-0.52984101 1.8562447 -0.15432191 0
-0.45199999 1.874 -0.15700001 0
-0.336 1.865 -0.156 0
-0.27648011 1.8423527 -0.1617984 0
-2.0524068 1.9765086 -0.17580494 0
-1.9881723 1.9139239 -0.17467079 0
-1.6273174 1.9953312 -0.16748521 0
-1.5726587 1.9271655 -0.1682426 0
-1.183 1.933 -0.163 0
-1.0682714 1.9474816 -0.15728408 0
-0.921 1.915 -0.16 0
-0.88365018 1.9192524 -0.16069178 0
-0.76164722 1.9160353 -0.15801428 0
-0.63827324 1.9642342 -0.15639925 0
-0.53646982 1.9587874 -0.15598169 0
-2.8359387 2.0774279 -0.15398693 0
-2.763 2.0280001 -0.167 0
-2.1166413 2.0390935 -0.1769391 0
-1.6819761 2.0634968 -0.16672781 0
-1.1059999 2.017 -0.162 0
-0.93864661 2.0427351 -0.16084002 0
-0.6705761 2.0674701 -0.15606624 0
-0.55400002 2.0239999 -0.155 0
-2.9453468 2.1515694 -0.13446733 0
-2.24511 2.164263 -0.17920741 0
-2.1808758 2.1016781 -0.17807326 0
-1.7639642 2.1657453 -0.16559172 0
-0.9958216 2.1711087 -0.16099413 0
-3.1276939 2.2751389 -0.10193467 0
-3.0547552 2.2257111 -0.11494774 0
-2.29 2.2079999 -0.18000001 0
-1.8459523 2.2679935 -0.16445562 0
-1.9258054 2.3675795 -0.16334912 0
-2.914 -2.3729999 -0.086999997 0
-2.860724 -2.3542814 -0.089879781 0
-2.9142747 -2.1571484 -0.089254968 0
-2.8505497 -2.113297 -0.07650993 0
-2.754962 -2.0475197 -0.057392381 0
-2.6830001 -1.998 -0.043000001 0
-0.52540553 -1.8643585 -0.018794958 0
-0.37900001 -1.823 -0.0029999993 0
2.9648643 -1.8191676 -0.056386255 0
3.013 -1.849 -0.061000004 0
3.1791315 -1.8248478 -0.061480951 0
3.2477543 -1.8622319 -0.047653966 0
-0.51562911 -1.7695684 -0.03870989 0
-0.46221736 -1.7588282 -0.046800271 0
-0.35183614 -1.7476451 -0.053908765 0
2.7802196 -1.7068188 -0.060046479 0
2.8537953 -1.7518172 -0.060950257 0
2.9139066 -1.789925 -0.075451143 0
3.0483773 -1.753616 -0.087826982 0
3.1137543 -1.7892319 -0.074653968 0
-0.45207262 -1.6657488 -0.053238705 0
-0.34718084 -1.6391555 -0.046528652 0
2.4605315 -1.6549884 -0.056166276 0
2.546 -1.641 -0.011 0
2.7243414 -1.6678264 -0.010027628 0
3.0529339 -1.6291361 -0.056531649 0
-2.6170001 -1.531 -0.098999999 0
-0.9224928 -1.5823752 -0.038029972 0
-0.87736237 -1.5037816 -0.038927451 0
-0.52652806 -1.5288475 -0.024259826 0
-0.45797664 -1.543112 -0.044466019 0
-0.33071932 -1.5464544 -0.055656523 0
-0.29931808 -1.5073168 -0.058494925 0
0.94800401 -1.5367186 -0.0034435391 0
2.2644136 -1.5222201 -0.062615022 0
2.335767 -1.5705252 -0.060268782 0
2.478688 -1.5968925 -0.0035208883 0
2.7560694 -1.529588 -0.0075816624 0
2.8596566 -1.5231767 -0.045626044 0
2.954149 -1.575085 -0.046394859 0
-2.655 -1.409 -0.063000001 0
-0.91442513 -1.4387326 -0.034665555 0
-0.86686957 -1.4284065 -0.029897479 0
-0.62890327 -1.4549477 -0.016709711 0
-0.55745 -1.4554517 -0.028434984 0
-0.44855508 -1.4498616 -0.038294211 0
-0.36626011 -1.4401898 -0.071270749 0
-0.29350001 -1.444 -0.042499997 0
0.75834262 -1.4417794 -0.09607219 0
0.88475704 -1.4367576 -0.0091511924 0
1.947114 -1.449816 -0.045414947 0
2.0292652 -1.4492005 -0.012661617 0
2.1573834 -1.4497626 -0.066134393 0
2.2319617 -1.4249089 -0.080025196 0
2.5350001 -1.404 -0.045000002 0
2.6470678 -1.4468298 -0.049171384 0
2.7575779 -1.4607215 -0.049084529 0
2.8114088 -1.4670732 -0.010969236 0
-2.6285458 -1.3811171 -0.041453026 0
-2.5345573 -1.3671734 -0.072448596 0
-2.4717381 -1.3116266 -0.07648249 0
-0.83768672 -1.339033 -0.027909148 0
-0.79473889 -1.3548638 -0.069672555 0
-0.6318413 -1.33253 -0.060820535 0
-0.5503267 -1.3472204 -0.03481444 0
-0.45324731 -1.3494883 -0.046300653 0
-0.3674477 -1.3534589 -0.063778087 0
0.69027936 -1.3434944 -0.087481618 0
0.73878461 -1.3522491 -0.084753223 0
0.83750606 -1.362078 -0.013415307 0
1.7785126 -1.3260996 -0.0099885762 0
1.8550202 -1.3632388 -0.043225672 0
1.9717244 -1.3639503 -0.048998106 0
2.0503533 -1.377305 -0.069653757 0
2.1490428 -1.3723937 -0.090600342 0
2.582 -1.3559999 -0.046 0
2.6584697 -1.3930243 -0.034323081 0
-2.6389463 -1.2629874 -0.039652776 0
-2.5585797 -1.2447774 -0.022034442 0
-2.4610703 -1.244307 -0.036354646 0
-2.3462405 -1.2393969 -0.076789849 0
-0.81556684 -1.2773101 -0.040887404 0
-0.75360626 -1.2432868 -0.047140982 0
-0.62174982 -1.2262168 -0.082568377 0
-0.53019685 -1.2602782 -0.039928813 0
-0.44241631 -1.2521342 -0.056656767 0
-0.35841164 -1.2592138 -0.061887074 0
0.51700002 -1.233 -0.086000003 0
0.66413718 -1.234869 -0.07308992 0
0.74926305 -1.2508597 -0.052840628 0
1.683 -1.245 -0.064000003 0
1.7575773 -1.2705288 -0.063291281 0
1.8348162 -1.2983001 -0.052665405 0
2.562377 -1.2512193 -0.085282117 0
-2.552 -1.141 -0.057 0
-2.4556739 -1.1489047 -0.062635712 0
-2.3680155 -1.1459917 -0.059100181 0
-2.2626331 -1.1692271 -0.071367532 0
-2.1665845 -1.144043 -0.090827659 0
-2.0985689 -1.1053373 -0.093009986 0
-0.71923631 -1.1651186 -0.04108591 0
-0.67144603 -1.1298172 -0.044955779 0
-0.54154646 -1.1419673 -0.057538301 0
-0.44195959 -1.1473138 -0.05471484 0
-0.36287498 -1.1665001 -0.063750006 0
-0.28999999 -1.196 -0.078000002 0
0.48651782 -1.1606307 -0.075217187 0
0.57035297 -1.1413364 -0.029542543 0
0.64975977 -1.1478759 -0.058647234 0
2.3770578 -1.1251619 -0.089224249 0
2.4582913 -1.1814597 -0.087703303 0
2.5120001 -1.189 -0.074000001 0
-2.4043772 -1.0782808 -0.073159084 0
-2.3194335 -1.0700729 -0.086066008 0
-2.23998 -1.0642269 -0.079054475 0
-2.160219 -1.0548968 -0.076494731 0
-2.081646 -1.0159311 -0.088329822 0
-0.72529209 -1.052641 -0.097481288 0
-0.64871889 -1.0539587 -0.049269747 0
-0.53330326 -1.0551224 -0.04496187 0
-0.45099097 -1.0426712 -0.054533325 0
0.33079514 -1.0482813 -0.036463547 0
0.44202653 -1.0488816 -0.036660399 0
0.55772769 -1.0625074 -0.040366415 0
0.64548361 -1.0608542 -0.046818931 0
2.290349 -1.0519724 -0.091242611 0
2.3532941 -1.0418774 -0.074062474 0
-2.1695509 -0.97851235 -0.098863631 0
-1.9852968 -0.98149085 -0.099445105 0
-0.64132375 -0.95426685 -0.06948889 0
-0.57238424 -0.95005649 -0.038955849 0
-0.44947603 -0.95971751 -0.048101082 0
-0.38150001 -0.94299996 -0.058499999 0
0.29036939 -0.93818671 -0.045563359 0
0.35356861 -0.94950974 -0.029453477 0
0.45812163 -0.93543023 -0.025899904 0
0.5399183 -0.95290244 -0.038669515 0
0.60125101 -0.98867965 -0.034735885 0
2.1799078 -0.95187068 -0.098879725 0
2.238523 -0.96126962 -0.085252419 0
2.3180001 -0.96899998 -0.068000004 0
-2.4423752 -0.81799775 -0.0074569955 0
-2.1340001 -0.87300003 -0.082999997 0
-2.0805182 -0.8553099 -0.092462152 0
-0.60800004 -0.88300002 -0.068499997 0
-0.55438924 -0.83931041 -0.051750854 0
-0.43725139 -0.8619051 -0.034214068 0
-0.38120967 -0.82604283 -0.029987887 0
0.27000001 -0.85600001 -0.039499998 0
0.34924999 -0.87300003 -0.035750002 0
0.43700001 -0.8736667 -0.030666666 0
2.1281314 -0.88869596 -0.098235935 0
2.2645602 -0.83322006 -0.085207619 0
2.3526144 -0.83412647 -0.087643877 0
-2.3269501 -0.78079909 -0.025782797 0
-2.25 -0.75599998 -0.037999999 0
-0.51848161 -0.77247703 -0.049892813 0
-0.45283404 -0.72853643 -0.031223917 0
-0.36659512 -0.75874358 -0.030513203 0
2.1945894 -0.71797723 -0.094366729 0
2.2655134 -0.76095569 -0.08788307 0
2.3210001 -0.79400003 -0.084999993 0
-0.43436205 -0.64923871 -0.036082476 0
-0.32617983 -0.65345997 -0.020074701 0
-0.28445902 -0.60685652 -0.0094786407 0
2.0949242 -0.63131851 -0.087031297 0
2.1559999 -0.648 -0.075999998 0
-2.2336047 -0.53609353 -0.01059391 0
-2.1508024 -0.51654679 -0.025796955 0
-0.3559666 -0.54291087 -0.02173561 0
-0.25803387 -0.53562981 -0.010716254 0
-2.0680001 -0.49700001 -0.041000001 0
-0.32933334 -0.495 -0.025666669 0
-0.2685 -0.49450001 -0.0074999984 0
-2.5103867 -0.37479299 -0.0019561537 0
-2.4207094 -0.36203438 -0.0085649211 0
-2.331032 -0.34927577 -0.01517369 0
-2.2413547 -0.33651718 -0.021782462 0
-2.1516774 -0.3237586 -0.028391231 0
-2.062 -0.31099999 -0.035 0
-1.9535853 -0.3001731 -0.090510882 0
1.8471457 -0.35481325 -0.052530557 0
1.9435825 -0.36925298 -0.03912222 0
2.0020001 -0.37799999 -0.030999999 0
-2.0579536 -0.26617053 -0.0424367 0
-1.931103 -0.25000334 -0.056945741 0
-1.8508813 -0.26655445 -0.081152208 0
-1.7819999 -0.23100001 -0.074000001 0
-2.0691624 -0.11090264 -0.035237312 0
-1.955453 -0.10487831 -0.049921639 0
-1.8461521 -0.065382026 -0.033448376 0
-1.7706807 -0.062953182 -0.044382025 0
-1.696 -0.029999999 -0.027000001 0
1.457 -0.078000002 -0.048999999 0
1.5570055 -0.078763403 -0.033731986 0
-1.8680851 0.028690845 -0.037406813 0
-1.7478353 0.030190846 -0.052656811 0
-1.6424999 0.031500001 -0.066 0
1.265 0.088 -0.048 0
1.3608338 0.088779129 -0.033975538 0
-1.8116076 0.19611159 -0.017586755 0
-1.7489471 0.17083921 -0.029687285 0
-1.6467094 0.16751209 -0.039145108 0
-1.5659781 0.1658109 -0.029881824 0
-1.48625 0.1725 -0.036250003 0
1.193 0.16599999 -0.085000001 0
1.2514739 0.13193357 -0.072706625 0
1.3379207 0.12331802 -0.032493699 0
1.4170001 0.134 -0.097999997 0
-1.8249999 0.227 -0.012000002 0
-1.7385981 0.22221228 -0.034722764 0
-1.6361642 0.25847724 -0.023841461 0
-1.5552912 0.235811 -0.024394164 0
-1.45222 0.22880206 -0.032009114 0
1.058156 0.28515071 -0.045322917 0
1.145677 0.23394181 -0.081586204 0
-1.945603 0.38409409 -0.038239889 0
-1.8566824 0.36787528 -0.043991916 0
-1.7508498 0.32920235 -0.025907829 0
-1.6788412 0.33543763 -0.055495959 0
-1.5429208 0.35785908 -0.06541276 0
-1.4637607 0.36355662 -0.082693331 0
0.94944251 0.36812612 -0.078860477 0
1.0409496 0.33560267 -0.049444392 0
1.1574872 0.35091147 -0.079994902 0
1.2249944 0.36529064 -0.079593644 0
1.307 0.35699999 -0.082999997 0
-2.444 0.47499999 -0.0060000005 0
-2.3495963 0.45803666 -0.009162371 0
-2.2123649 0.43275052 -0.020983826 0
-2.1234443 0.41653171 -0.026735846 0
-2.0345235 0.4003129 -0.032487869 0
-1.9493659 0.49278051 -0.025851369 0
-1.8851449 0.47386801 -0.054719113 0
-1.7533193 0.45771536 -0.06241579 0
-1.6457301 0.44303307 -0.061398804 0
-1.5510228 0.43534809 -0.053326182 0
0.78751254 0.484 -0.084355347 0
1.0577477 0.40030491 -0.084802181 0
1.1228108 0.42322868 -0.074351639 0
-2.2500203 0.5693875 -0.031631466 0
-2.1603358 0.5464344 -0.031105263 0
-2.0405006 0.53015804 -0.041946713 0
-1.9162534 0.53852201 -0.085600421 0
-1.8323042 0.5158264 -0.073520511 0
-1.7271153 0.55783725 -0.08305385 0
-1.6334318 0.55076623 -0.072747 0
-1.5732744 0.54893291 -0.051208042 0
0.75374025 0.51549721 -0.082999997 0
-1.8644445 0.65147519 -0.060584199 0
-1.7757038 0.62217456 -0.063485168 0
-1.6766438 0.61522055 -0.038533527 0
0.38550001 0.69400001 -0.057500001 0
0.53935152 0.6651504 -0.0078144316 0
-1.9505932 0.72216618 -0.082260057 0
0.13825001 0.79424995 -0.032499999 0
0.26933333 0.76799995 -0.030000001 0
0.35398018 0.74145263 -0.055291984 0
0.41382894 0.75010461 -0.060666926 0
-0.02683204 0.86769736 -0.043064531 0
0.034891289 0.84137887 -0.043359067 0
0.15526426 0.86730474 -0.023472747 0
0.27134892 0.84002185 -0.016329844 0
0.35880423 0.83643103 -0.037485503 0
0.43700001 0.82400006 -0.089333333 0
-0.23873238 0.98062342 -0.048192881 0
-0.15679175 0.96754897 -0.055108037 0
-0.06605655 0.94005376 -0.048083533 0
0.035322178 0.93546921 -0.055629794 0
0.14195009 0.90965056 -0.020616615 0
-0.44015878 1.0767125 -0.053157609 0
-0.34614047 1.0419499 -0.050255954 0
-0.24717057 1.0551479 -0.065495633 0
-0.14595708 1.0539725 -0.066535994 0
-0.071491577 1.0249244 -0.055274636 0
0.066180207 1.042148 -0.07122767 0
-1.794 1.109 -0.001 0
-0.74000001 1.186 -0.061500002 0
-0.61442363 1.1631336 -0.055204891 0
-0.55228704 1.1276016 -0.058972083 0
-0.44938734 1.1537615 -0.076301023 0
-0.34920955 1.145491 -0.070316441 0
-0.25418669 1.1491818 -0.079702124 0
-0.1507481 1.1463985 -0.076917611 0
-0.087600775 1.1312482 -0.064048104 0
0.028999999 1.128 -0.075000003 0
-0.82234132 1.2942517 -0.081460923 0
-0.76947784 1.2337153 -0.068227857 0
-0.64973021 1.2478577 -0.059990983 0
-0.54243535 1.2386955 -0.078938156 0
-0.45054838 1.2512485 -0.076960146 0
-0.32934481 1.2600739 -0.08639615 0
-0.24275355 1.2457857 -0.086019859 0
-0.15162238 1.2269641 -0.080400772 0
-0.092 1.205 -0.07 0
-0.84009087 1.3468492 -0.08397235 0
-0.7376591 1.3429981 -0.078426868 0
-0.66764915 1.3305135 -0.089527711 0
-0.53548092 1.3371267 -0.092818327 0
-0.47420824 1.3445854 -0.08840315 0
-0.36040363 1.36113 -0.096458092 0
-0.26019192 1.333087 -0.097153589 0
-0.19169253 1.3394572 -0.085752152 0
-0.90363109 1.4765148 -0.09787479 0
-0.82986504 1.4311869 -0.09009783 0
-0.68840045 1.4312646 -0.099009879 0
-0.56327635 1.4175373 -0.096672826 0
-0.49915004 1.4587256 -0.095658831 0
-2.8510001 2.2650001 -0.050000001 0
-3.237102 2.3492808 -0.082415074 0
-2.9563639 2.3478575 -0.02907059 0
-2.7049999 2.3829999 -0.014 0
-3.4247246 2.4764252 -0.048941206 0
-3.3465104 2.4234223 -0.062895477 0
-3.0617278 2.4307151 -0.0081411824 0
-2.7290144 -2.5683041 0.0469639 0
-2.6537716 -2.498456 0.038445853 0
-2.5965145 -2.4453039 0.0319639 0
-2.5392573 -2.3921521 0.02548195 0
-2.4820001 -2.339 0.018999999 0
-0.36326995 -1.745358 0.0068816994 0
0.86343157 -1.7626367 0.050475817 0
0.90799999 -1.705 0.039000001 0
-0.45544869 -1.6405079 0.013316101 0
-0.3475399 -1.6677161 0.016763398 0
0.84044397 -1.6452708 0.038686968 0
0.93526709 -1.6222622 0.028641351 0
2.6521766 -1.6225331 0.0027154647 0
2.9402938 -1.6342447 0.02360028 0
3.049 -1.696 0.041999996 0
3.1181436 -1.6155853 0.035869222 0
-0.32394481 -1.5512532 0.03158595 0
0.7551474 -1.543205 0.031213725 0
0.85386455 -1.5399424 0.02896674 0
2.154 -1.546 0.012999998 0
2.344064 -1.5086772 0.011437334 0
2.4516881 -1.5373924 0.017479111 0
2.5439296 -1.5545928 0.021830108 0
2.8588188 -1.5377741 0.0027993973 0
2.9643478 -1.541122 0.012384605 0
3.0408175 -1.5781463 0.024061527 0
-0.301 -1.438 0.046 0
0.69531792 -1.4219639 0.020570982 0
0.78126419 -1.4674077 0.028513582 0
0.83974886 -1.4557414 0.023553211 0
2.0669906 -1.4804268 0.010522052 0
2.1949999 -1.411 0.028000001 0
2.2430959 -1.4425159 0.022656003 0
2.6986306 -1.4359134 0.0074631162 0
-2.6199999 -1.3200001 2.4560403e-14 0
0.67602444 -1.3249283 0.01749276 0
0.76175338 -1.3557906 0.021674611 0
1.8858539 -1.3457059 0.019524237 0
1.9528904 -1.3957794 0.017893178 0
2.5650001 -1.363 0.030000001 0
2.6245565 -1.3954961 0.019955739 0
-2.5421202 -1.2840041 0.011909436 0
-2.4642406 -1.2480081 0.023818873 0
-2.3863609 -1.2120122 0.035728309 0
0.63491952 -1.2448425 0.012194208 0
0.7065708 -1.2235665 0.016458977 0
1.6310939 -1.2175831 0.018676188 0
1.7360436 -1.2542305 0.016156087 0
1.8188174 -1.2956324 0.021155298 0
-2.4694023 -1.1903908 0.012551725 0
-2.338963 -1.1477947 0.038522929 0
-2.2306015 -1.1400204 0.059547178 0
-2.1527219 -1.1040244 0.071456611 0
-0.56338501 -1.1674551 0.042428598 0
0.63707423 -1.1481035 0.014300027 0
-2.2390058 -1.076977 0.055379309 0
-2.1622069 -1.0391724 0.069655173 0
-2.0660837 -1.0401322 0.085432358 0
-0.52192378 -1.0809214 0.035875048 0
-0.48407751 -1.0019327 0.029892899 0
0.56964689 -1.0706879 0.011003881 0
0.61778539 -1.0687833 0.011729489 0
-2.0420001 -0.98000002 0.092 0
-0.44623125 -0.92294395 0.02391075 0
0.48500001 -0.912 0.0040000002 0
0.5432387 -0.96557856 0.0079555623 0
-2.6533751 -0.88599777 0.026043005 0
-2.5578005 -0.85519636 0.010868806 0
-0.40838498 -0.84395516 0.0179286 0
-0.37053874 -0.76496637 0.01194645 0
-2.6628079 -0.63741368 0.068210661 0
-2.5648139 -0.61428058 0.050218269 0
-0.3326925 -0.68597758 0.0059642997 0
-2.4820116 -0.59473383 0.035015225 0
-2.3578081 -0.56541371 0.012210658 0
-3.039 -0.44999999 0.036999997 0
-2.9587734 -0.43858597 0.031087693 0
-2.869096 -0.42582735 0.024478927 0
-2.7794187 -0.41306877 0.017870158 0
-2.6897414 -0.40031016 0.011261389 0
-2.600064 -0.38755158 0.0046526194 0
1.8233132 -0.30989051 0.010765279 0
1.940783 -0.32772624 0.020913195 0
2.058253 -0.34556195 0.031061113 0
2.1270001 -0.35600001 0.037 0
1.745 -0.29800001 0.0040000002 0
-2.0172229 -0.033812735 0.024471905 0
-1.9250842 -0.032719102 0.0097078551 0
-1.8378284 0.17426199 0.03160955 0
-1.7277427 0.16489299 0.013164323 0
-1.6445906 0.17670256 0.00016213115 0
-1.4561758 0.18869646 0.03750341 0
-1.8269999 0.23899999 0.035499997 0
-1.7606843 0.25164679 0.024644488 0
-1.6660295 0.24295507 0.011690311 0
-1.5745347 0.21842 0.013451887 0
-2.010488 0.39976239 0.010122343 0
-1.9237857 0.38471487 0.013346813 0
-1.8370833 0.36966735 0.01657128 0
-1.7341905 0.35180992 0.020397874 0
-2.2705953 0.44490495 0.00044893706 0
-2.183893 0.42985743 0.0036734063 0
-2.0971904 0.41480991 0.0068978742 0
-1.8441972 0.46839929 0.0047002435 0
-1.7610366 0.44767916 0.011840291 0
-1.6719379 0.4254795 0.019490169 0
0.84962738 0.48592192 0.0081897434 0
0.9187547 0.52234387 0.014879486 0
-1.707 0.66799998 0.016000001 0
-1.6476064 0.6417743 0.019085377 0
-1.811 0.75700003 0.015 0
-1.7515748 0.73153198 0.01963054 0
0.3717733 0.76225513 0.00040688785 0
0.58313471 0.75892878 0.008079228 0
0.63877136 0.74967289 0.014663046 0
-1.9299999 0.85799998 0.014 0
-1.8757449 0.83676976 0.021076743 0
0.091226451 0.86199617 0.015526163 0
0.34896821 0.85324597 0.0069592213 0
0.405 0.83099997 0.0089999996 0
-0.075483873 0.95161295 0.0096451612 0
0.051747121 0.94814169 0.0093097147 0
0.30500001 0.903 0.0089999996 0
-1.9311802 1.1889541 0.013205054 0
-1.8625901 1.148977 0.006102527 0
-2.0683603 1.2689083 0.027410109 0
-1.9997704 1.2289312 0.02030758 0
-2.132 1.306 0.034000002 0
-3.1319702 2.4859533 0.0058117583 0
-2.7706618 2.4432766 0.001966713 0
-3.237334 2.5688109 0.026741169 0
-2.9019856 2.5638299 0.033900142 0
-2.8363237 2.5035534 0.017933426 0
-3.3426979 2.6516685 0.047670577 0
-3.0333097 2.6843834 0.065833569 0
-2.9676478 2.6241066 0.049866855 0
-3.4480615 2.7345259 0.068599984 0
-3.0989716 2.7446601 0.081800282 0
-3.5697126 2.8301916 0.092764691 0
-3.1646335 2.8049369 0.097766995 0
-3.2302954 2.8652136 0.11373371 0
-3.3616195 2.9857669 0.14566714 0
-3.2959576 2.9254904 0.12970042 0
-3.4000001 3.0209999 0.155 0
