# .PCD v0.7 - Point Cloud Data file format
VERSION 0.7
FIELDS x y z intensity
SIZE 4 4 4 4
TYPE F F F F
COUNT 1 1 1 1
WIDTH 1275
HEIGHT 1
VIEWPOINT 0 0 0 1 0 0 0
POINTS 1275
DATA ascii
-5.566246 -1.8261111 -0.20071642 0
-5.480597 -1.7992889 -0.21517314 0
-5.3521233 -1.7590556 -0.23685822 0
-5.223649 -1.7188222 -0.25854328 0
-5.138 -1.692 -0.273 0
-2.102 -1.518 -0.20100001 0
-2.3291481 -1.4401624 -0.20121108 0
-2.263 -1.402 -0.20999999 0
-2.174 -1.42 -0.204 0
-2.0687177 -1.494925 -0.20078284 0
-1.996253 -1.4446844 -0.20030998 0
-2.9461408 -1.3374979 -0.20623994 0
-2.369 -1.107 -0.212 0
-2.3647668 -1.039284 -0.21180947 0
-2.2536941 -1.0541871 -0.20958 0
-2.3099999 -0.95099998 -0.205 0
-2.2641134 -0.96419787 -0.20757425 0
-2.1414759 -0.96273011 -0.20811518 0
-2.0493722 -0.96060264 -0.20529176 0
-1.9676436 -0.9231689 -0.20357646 0
-2.3499999 -0.83999997 -0.207 0
-2.2927814 -0.81987476 -0.20668431 0
-2.176686 -0.897071 -0.20424575 0
-2.0437491 -0.86222178 -0.20466661 0
-1.9417927 -0.85658586 -0.20571953 0
-1.8499819 -0.85174197 -0.20218223 0
-2.3710005 -0.74382615 -0.20814522 0
-2.2345417 -0.76010662 -0.20612179 0
-2.123281 -0.73223895 -0.20540994 0
-2.0423632 -0.73179674 -0.20530269 0
-1.9448557 -0.75002468 -0.20384844 0
-1.8488655 -0.76445901 -0.20239104 0
-1.7724034 -0.75854945 -0.20264357 0
-1.654974 -0.7326982 -0.20158994 0
-2.4530168 -0.65520424 -0.21564943 0
-2.3507788 -0.65714866 -0.21290694 0
-2.2670693 -0.66266757 -0.20898561 0
-2.180748 -0.63752162 -0.20729992 0
-2.0498507 -0.64365464 -0.20411915 0
-1.9521509 -0.64788121 -0.20370442 0
-1.8716406 -0.64661944 -0.20370497 0
-1.750209 -0.62903899 -0.2036908 0
-1.6439776 -0.68157649 -0.20123184 0
-2.3212812 -0.59078646 -0.21183099 0
-2.233361 -0.56825465 -0.20907199 0
-2.1454411 -0.54572284 -0.206313 0
-2.0498242 -0.5556798 -0.20488751 0
-1.9377233 -0.54160887 -0.20176022 0
-1.8354635 -0.53693783 -0.20055711 0
-1.7835755 -0.59244061 -0.20235221 0
-1.6464292 -0.56224006 -0.20189203 0
-1.483 -2.4319999 -0.118 0
-1.442003 -2.3598199 -0.1040705 0
-0.79283476 -2.3298802 -0.1100568 0
-2.892 -2.2249999 -0.12899999 0
-2.7780001 -2.243 -0.125 0
-0.76060247 -2.2387848 -0.11090223 0
-2.924 -2.142 -0.12899999 0
-2.8246074 -2.1717734 -0.12102291 0
-2.735218 -2.1535697 -0.11504001 0
-2.648443 -2.1341841 -0.10906839 0
-0.73053557 -2.1538086 -0.11169087 0
-2.8564255 -2.0905876 -0.1149278 0
-2.7888513 -2.0391755 -0.1008556 0
-2.6898222 -2.0653207 -0.10506875 0
-2.5836644 -2.0797763 -0.10110259 0
-0.7004686 -2.0688324 -0.11247952 0
-6.0799999 -1.987 -0.11399999 0
-5.9516678 -1.946811 -0.13566121 0
-5.8231936 -1.9065776 -0.15734628 0
-1.2727529 -1.9127942 -0.10228048 0
-0.67040169 -1.9838564 -0.11326815 0
-5.7375445 -1.8797555 -0.171803 0
-5.651895 -1.8529333 -0.18625972 0
-2.920558 -1.8002777 -0.10510834 0
-1.3496077 -1.8950651 -0.10311799 0
-1.2502004 -1.8363107 -0.1084436 0
-0.62530124 -1.8563924 -0.11445111 0
-3.6727502 -1.7362442 -0.10555732 0
-3.5955 -1.7038295 -0.11903822 0
-2.828033 -1.773139 -0.10968615 0
-2.7540951 -1.7274456 -0.12068675 0
-2.6609254 -1.7186509 -0.11347006 0
-2.5638406 -1.7216151 -0.10071981 0
-2.0748358 -1.7147641 -0.10207689 0
-1.3008555 -1.7396346 -0.10257027 0
-1.2508104 -1.7577534 -0.11149065 0
-1.1576656 -1.7488236 -0.12114342 0
-0.99049926 -1.7705712 -0.1055727 0
-0.58020085 -1.7289282 -0.11563408 0
-3.6702666 -1.6454804 -0.15765934 0
-3.51825 -1.6714147 -0.13251911 0
-3.441 -1.6390001 -0.146 0
-2.6604674 -1.6369834 -0.15193251 0
-2.5525243 -1.6427082 -0.13183224 0
-2.4637604 -1.6365269 -0.12163416 0
-2.2195828 -1.6495632 -0.10673618 0
-2.1527915 -1.6017816 -0.11786809 0
-2.0412261 -1.6515899 -0.10929786 0
-1.945938 -1.6329283 -0.11021068 0
-1.8776469 -1.6388901 -0.10445943 0
-1.2217258 -1.6619529 -0.11427695 0
-1.1496657 -1.6582961 -0.11623476 0
-1.0696312 -1.6289545 -0.12163719 0
-0.92843705 -1.661607 -0.12073293 0
-0.86501855 -1.6288866 -0.10220073 0
-0.70164204 -1.6864446 -0.10546081 0
-0.66809469 -1.6109631 -0.11230721 0
-0.55013388 -1.6439521 -0.11642272 0
-3.5632515 -1.5999653 -0.16483882 0
-3.4809701 -1.5649697 -0.17035896 0
-3.3986888 -1.529974 -0.17587912 0
-2.5418642 -1.5628833 -0.17294812 0
-2.430861 -1.552372 -0.16340831 0
-2.3535366 -1.5557804 -0.14375001 0
-2.0514486 -1.5555669 -0.13813999 0
-1.9212041 -1.5644188 -0.12359291 0
-1.8452542 -1.564218 -0.12108678 0
-1.7685 -1.5320001 -0.119 0
-1.41 -1.524 -0.104 0
-1.346 -1.523 -0.102 0
-1.291 -1.53 -0.101 0
-1.1334583 -1.5554235 -0.12425762 0
-1.0367088 -1.557549 -0.13579676 0
-0.99702924 -1.5573338 -0.11436227 0
-0.8401311 -1.5545098 -0.1170313 0
-0.63454735 -1.5354816 -0.1191536 0
-0.52006698 -1.5589761 -0.11721136 0
-0.38498306 -1.5159512 -0.1003629 0
-3.3164072 -1.4949783 -0.18139926 0
-3.2341259 -1.4599826 -0.18691941 0
-3.1518443 -1.424987 -0.19243956 0
-2.3952963 -1.4783248 -0.19242217 0
-2.2675366 -1.4762805 -0.18775001 0
-1.9558449 -1.4594412 -0.15925175 0
-1.8860099 -1.4049495 -0.16421577 0
-1.1160001 -1.495 -0.132 0
-1.0304999 -1.487 -0.12650001 0
-0.96350002 -1.4855 -0.141 0
-0.8175 -1.48 -0.13 0
-0.76800001 -1.484 -0.112 0
-0.63999999 -1.4679999 -0.11650001 0
-0.59899998 -1.479 -0.104 0
-0.49000001 -1.474 -0.118 0
-0.3725 -1.457 -0.108 0
1.6776873 -1.404114 -0.10512051 0
-3.0695629 -1.3899914 -0.19795971 0
-1.9237883 -1.3944438 -0.19983712 0
-1.8337493 -1.3473306 -0.18427204 0
1.1375833 -1.3604559 -0.14321679 0
1.2 -1.304 -0.146 0
1.3455839 -1.3459269 -0.1271351 0
1.4735668 -1.335158 -0.119931 0
1.5700358 -1.3141319 -0.12218642 0
1.6231232 -1.3403116 -0.11150724 0
1.7582268 -1.3307312 -0.11168908 0
1.857947 -1.3186865 -0.11906755 0
1.9220001 -1.342 -0.111 0
2.0400572 -1.3172907 -0.11521229 0
2.1315 -1.3264999 -0.11849999 0
2.2431569 -1.3087082 -0.12112345 0
2.448699 -1.3143905 -0.11621975 0
2.5263979 -1.3567811 -0.10143951 0
-1.7438644 -1.2778836 -0.1904846 0
-1.676505 -1.2414747 -0.17910789 0
1.0635831 -1.2734559 -0.14571679 0
1.1452392 -1.24524 -0.14630765 0
1.2403176 -1.2370975 -0.13328913 0
1.3709246 -1.2339281 -0.13048507 0
1.4559978 -1.2558472 -0.11973559 0
1.5463961 -1.2635751 -0.11951576 0
1.6503359 -1.2530007 -0.11819825 0
1.7546493 -1.2422589 -0.12499882 0
1.8642024 -1.2341242 -0.12958883 0
1.9491273 -1.2589262 -0.12756881 0
2.0500243 -1.2491006 -0.12265744 0
2.1301644 -1.2755477 -0.12083343 0
2.2549133 -1.2267213 -0.12896529 0
2.3489327 -1.2679979 -0.12845933 0
2.4243951 -1.2491782 -0.13057581 0
-1.6202996 -1.1902323 -0.19100881 0
-1.5491498 -1.1378661 -0.19325441 0
0.99599999 -1.194 -0.148 0
1.0466478 -1.1394479 -0.14686152 0
1.1544671 -1.1483414 -0.13830808 0
1.2484119 -1.1249052 -0.14233112 0
1.3391141 -1.1599214 -0.13241832 0
1.4770144 -1.1515114 -0.13056329 0
1.5666714 -1.1530889 -0.13031884 0
1.6518421 -1.1632844 -0.13209218 0
1.7454226 -1.1507431 -0.13385658 0
1.8407018 -1.1504383 -0.12755778 0
1.9507804 -1.1559571 -0.11818794 0
2.037653 -1.1575062 -0.1276848 0
2.1493282 -1.1378164 -0.13119951 0
2.2405264 -1.1713535 -0.13193063 0
2.3354454 -1.185921 -0.13353714 0
2.5648375 -1.1265084 -0.13763651 0
2.6612644 -1.131362 -0.13664944 0
2.7370374 -1.1765798 -0.13402976 0
2.8687303 -1.148743 -0.10746835 0
2.940228 -1.1493927 -0.10397296 0
3.0929351 -1.1175524 -0.10556298 0
3.176322 -1.1488628 -0.10007559 0
-1.4779999 -1.0855 -0.1955 0
1.0686167 -1.0595853 -0.14332701 0
1.1569118 -1.0444052 -0.14283115 0
1.2566886 -1.0371977 -0.14327997 0
1.3323472 -1.0603287 -0.13642564 0
1.4206654 -1.0498295 -0.13321148 0
1.5573524 -1.0593283 -0.13685989 0
1.650315 -1.0438963 -0.13441715 0
1.7485523 -1.0510495 -0.12919623 0
1.8579788 -1.0498605 -0.12475085 0
1.9591023 -1.0586964 -0.13220982 0
2.0469503 -1.0652206 -0.13384014 0
2.3513861 -1.0134685 -0.13605392 0
2.4504631 -1.0626327 -0.13648732 0
2.5190001 -1.062 -0.13600001 0
2.6497123 -1.0350119 -0.12859459 0
2.7531147 -1.0693941 -0.12003436 0
2.8284793 -1.0520629 -0.11779755 0
2.9261611 -1.0549314 -0.11653779 0
3.0095482 -1.086242 -0.11105039 0
1.063 -0.95700002 -0.145 0
1.170377 -0.95539558 -0.14405993 0
1.2707392 -0.93916821 -0.14312735 0
1.3560739 -0.97800863 -0.13853654 0
1.4942608 -0.9351638 -0.13789696 0
1.5572535 -0.94133359 -0.13689479 0
1.6647463 -0.95902264 -0.1334428 0
1.753116 -0.93086314 -0.1359631 0
1.8298202 -0.95600843 -0.13586573 0
1.9313091 -0.98707598 -0.1360165 0
2.0746911 -0.91521549 -0.13366236 0
2.144027 -0.92657387 -0.13581516 0
2.2509177 -0.96481282 -0.13625036 0
2.3450978 -0.92335486 -0.13660371 0
2.4711151 -0.97424102 -0.13618083 0
2.5250001 -0.99599999 -0.13600001 0
2.6760001 -0.96100003 -0.133 0
2.759387 -0.99231052 -0.1275126 0
-1.7224574 -0.81086755 -0.19843058 0
1.09 -0.89099997 -0.145 0
1.1403435 -0.84390092 -0.1446764 0
1.3390434 -0.8458606 -0.14214951 0
1.4433439 -0.86613846 -0.13983861 0
1.5520146 -0.84114504 -0.13768168 0
1.6319759 -0.85540116 -0.13758209 0
1.9785573 -0.85690558 -0.13543519 0
2.0494754 -0.83644223 -0.13758922 0
2.1350691 -0.83854461 -0.13730849 0
2.2227242 -0.84621036 -0.13383034 0
2.3609972 -0.84731501 -0.12809871 0
2.655458 -0.81843483 -0.13315701 0
2.7090001 -0.83499998 -0.133 0
-1.6407287 -0.7734338 -0.19671528 0
-1.559 -0.736 -0.19499999 0
1.3570856 -0.75797242 -0.1435132 0
1.4476172 -0.75589246 -0.1418995 0
1.5383633 -0.74870133 -0.14007713 0
1.609 -0.73699999 -0.138 0
1.769453 -0.73273546 -0.13852966 0
1.8816853 -0.76806533 -0.13815352 0
1.971271 -0.7503345 -0.1362602 0
2.0644891 -0.73445922 -0.13314 0
2.1482868 -0.7634511 -0.131668 0
2.2527511 -0.72390205 -0.13117634 0
2.3520787 -0.75229818 -0.12933034 0
2.445972 -0.75362325 -0.13377135 0
2.5297661 -0.77954787 -0.13352561 0
1.3626667 -0.64966661 -0.14533333 0
1.4414538 -0.64375466 -0.14410849 0
1.5513519 -0.6554383 -0.14080937 0
1.6312001 -0.65039998 -0.1392 0
1.7198179 -0.65445864 -0.13869005 0
1.8393545 -0.66498226 -0.13703269 0
1.9589945 -0.65207291 -0.13477802 0
2.0606303 -0.62632531 -0.13339783 0
2.1574128 -0.6581862 -0.13287376 0
2.2515781 -0.65396786 -0.12976268 0
2.3600307 -0.66519386 -0.12776749 0
2.402 -0.63599998 -0.127 0
2.6248696 -0.61499608 -0.13417146 0
2.7297826 -0.64035487 -0.13402656 0
-1.7571115 -0.53688407 -0.19954126 0
-1.6715558 -0.51094204 -0.19827063 0
1.3805 -0.55900002 -0.146 0
1.4375426 -0.53474331 -0.14494322 0
1.5410213 -0.54860079 -0.1414158 0
1.6396704 -0.5532425 -0.13922139 0
1.7371165 -0.54799527 -0.1388109 0
1.8233781 -0.54949522 -0.13703871 0
1.9325315 -0.56021941 -0.13562481 0
2.061156 -0.52874732 -0.13417229 0
2.1828315 -0.53633469 -0.13296546 0
2.2686803 -0.55754906 -0.1318223 0
2.3569615 -0.54004794 -0.13108206 0
2.4351594 -0.55818957 -0.13013606 0
2.5391741 -0.59428239 -0.13428982 0
-1.8816805 -0.47812733 -0.198036 0
-1.7469245 -0.45845294 -0.19533217 0
-1.6360034 -0.43644083 -0.19292989 0
-1.5764999 -0.46149999 -0.1955 0
1.3839999 -0.46599999 -0.145 0
1.4502008 -0.44992849 -0.1448243 0
1.5441161 -0.44128618 -0.14315237 0
1.6399319 -0.46096972 -0.14109795 0
1.7439419 -0.42893925 -0.14024635 0
1.8293067 -0.44973978 -0.13864683 0
1.9343019 -0.4441551 -0.13679576 0
2.0307262 -0.45995933 -0.13509122 0
2.1559269 -0.45753005 -0.13330959 0
2.2654662 -0.45859462 -0.13094413 0
2.3520517 -0.4474588 -0.12937552 0
2.4322791 -0.42469692 -0.12872241 0
-1.53 -0.38800001 -0.18700001 0
1.398 -0.39700001 -0.146 0
1.4541816 -0.34641001 -0.14613032 0
1.5644712 -0.34514618 -0.14331946 0
1.654773 -0.34960291 -0.1414067 0
1.7410594 -0.34078494 -0.14011975 0
1.8240944 -0.34336209 -0.13855012 0
1.9407074 -0.34440085 -0.13644926 0
2.0467453 -0.37304789 -0.13480592 0
2.1669292 -0.33399716 -0.13348377 0
2.2549176 -0.34799671 -0.13223107 0
2.3429058 -0.3619962 -0.13097838 0
2.4434755 -0.34845036 -0.13014203 0
1.396 -0.25400001 -0.145 0
1.4472578 -0.2549327 -0.14585546 0
1.559031 -0.26673076 -0.14242181 0
1.6423988 -0.25747767 -0.14034423 0
1.7268653 -0.24300323 -0.1400706 0
1.8211349 -0.22351532 -0.13883667 0
1.9419464 -0.24413066 -0.13708684 0
2.0423017 -0.24644087 -0.13516811 0
2.1697168 -0.25606373 -0.13430326 0
2.2583363 -0.26707435 -0.13302046 0
2.3469558 -0.27808499 -0.13173766 0
2.4512877 -0.29104781 -0.13022745 0
1.391 -0.117 -0.145 0
1.4535481 -0.14678501 -0.14547487 0
1.5546447 -0.15385503 -0.1434246 0
1.6309868 -0.15481302 -0.14185478 0
1.7496543 -0.14323775 -0.1395575 0
1.8843771 -0.12927584 -0.13750695 0
1.9735028 -0.1363678 -0.1363426 0
2.0626285 -0.14345975 -0.13517825 0
2.1517541 -0.15055169 -0.13401389 0
2.24088 -0.15764365 -0.13284954 0
2.3300056 -0.16473559 -0.1316852 0
2.4390657 -0.17341377 -0.13026042 0
1.396 -0.050000001 -0.146 0
1.4641621 -0.05599574 -0.14442217 0
1.5323242 -0.061991479 -0.14284435 0
1.6284311 -0.050022554 -0.14077239 0
1.7844765 -0.036206018 -0.13864599 0
1.8737148 -0.039309029 -0.13746899 0
1.9629531 -0.042412035 -0.13629198 0
2.0521913 -0.045515046 -0.13511498 0
2.1414297 -0.048618056 -0.13393797 0
2.2306681 -0.051721066 -0.13276097 0
2.3388665 -0.0189815 -0.13122413 0
2.4287148 -0.039642364 -0.13013566 0
1.386 0.017000001 -0.146 0
1.4708087 0.016241426 -0.14433113 0
1.5708727 0.035160948 -0.14088742 0
1.6586806 0.03556234 -0.1395846 0
1.7464886 0.035963733 -0.13828178 0
1.8494357 0.030385979 -0.13673092 0
1.938821 0.036617 -0.1353472 0
2.0250392 0.049906868 -0.13440102 0
2.1247153 0.0013104384 -0.13367826 0
2.2141678 0.00036217831 -0.13262464 0
1.3430001 0.17900001 -0.14300001 0
1.4436069 0.18685225 -0.14152771 0
1.5461068 0.19485223 -0.1400277 0
2.14856 0.10192156 -0.13229123 0
2.2823048 0.10628807 -0.13051227 0
2.383734 0.10959954 -0.12916315 0
1.3516821 0.24533056 -0.14167923 0
1.4527285 0.25832224 -0.14071688 0
1.5240464 0.2674917 -0.14003766 0
-3.4815412 0.33599046 -0.18830591 0
-3.3809018 0.32981741 -0.19017655 0
-3.2546313 0.32207218 -0.19252357 0
-3.1283607 0.31432697 -0.19487062 0
-3.0441804 0.30916348 -0.1964353 0
-2.96 0.30399999 -0.198 0
1.288 0.3335 -0.141 0
1.3535442 0.34674698 -0.14033791 0
1.466033 0.34672719 -0.13927436 0
1.5570383 0.37027884 -0.13552986 0
1.671847 0.38046321 -0.13626722 0
1.8200001 0.31400001 -0.132 0
1.9430861 0.33051473 -0.1307098 0
2.0661724 0.34702939 -0.12941958 0
2.1482296 0.3580392 -0.12855944 0
2.2636435 0.37352449 -0.12734964 0
1.4743195 0.41545856 -0.13800184 0
1.5604477 0.44609821 -0.13577554 0
1.6547247 0.44853416 -0.13400467 0
1.749503 0.43652844 -0.13385451 0
1.8452306 0.43367296 -0.13217913 0
1.9317882 0.45409119 -0.13097391 0
2.0183458 0.47450945 -0.1297687 0
2.1064641 0.48662126 -0.12943527 0
-1.266 0.579 -0.176 0
1.228 0.51599997 -0.14 0
1.3402207 0.56746757 -0.13840821 0
1.428 0.54900002 -0.139 0
1.5106865 0.58051062 -0.13750497 0
1.731523 0.50551319 -0.13185833 0
1.8167908 0.5183928 -0.1321021 0
1.9449623 0.55454004 -0.13026538 0
2.0731339 0.59068733 -0.12842867 0
2.1620884 0.51130861 -0.12746941 0
2.2616556 0.53204226 -0.12635124 0
2.325 0.54000002 -0.126 0
-1.458768 0.67307645 -0.176355 0
-1.3261204 0.6478585 -0.17571467 0
-1.2184999 0.66799998 -0.175 0
1.1719999 0.6505 -0.139 0
1.2469785 0.6702776 -0.13697302 0
1.3343097 0.67966551 -0.13472556 0
1.4588729 0.6446389 -0.13543192 0
1.5603141 0.63263404 -0.1358826 0
1.6390641 0.66554523 -0.13460448 0
1.758746 0.67504233 -0.13301989 0
2.1585817 0.61478549 -0.12720418 0
2.2408297 0.6354093 -0.12612815 0
-2.3524647 0.79260439 -0.184 0
-2.2672322 0.76280218 -0.184 0
-2.1819999 0.73299998 -0.184 0
-1.8200684 0.79703194 -0.178 0
-1.79 0.78299999 -0.178 0
-1.651536 0.76715291 -0.17671001 0
-1.5744288 0.72952235 -0.17656802 0
-1.4594003 0.76125908 -0.17586195 0
-1.3668776 0.753407 -0.17557511 0
-1.276244 0.74232066 -0.1752878 0
-1.178 0.76200002 -0.175 0
1.1523221 0.76468581 -0.13876452 0
1.2579445 0.7537269 -0.13586034 0
1.3492779 0.76053196 -0.13434218 0
1.4462233 0.75658405 -0.13260776 0
1.5227127 0.738756 -0.13234636 0
1.6419712 0.72234249 -0.13338073 0
1.7157824 0.76267713 -0.13199851 0
1.843388 0.758825 -0.13118733 0
1.9241191 0.73806345 -0.13002984 0
2.0068057 0.76957405 -0.12853481 0
-2.6081617 0.88201094 -0.184 0
-2.5229292 0.85220879 -0.184 0
-2.4376969 0.82240659 -0.184 0
-1.8165835 0.83013803 -0.17733133 0
-1.7581682 0.85809273 -0.17728424 0
-1.647234 0.86397499 -0.17658025 0
-1.5345337 0.80234545 -0.17614926 0
-1.4593544 0.85312223 -0.17600729 0
-1.329721 0.85588139 -0.17521581 0
-1.240669 0.84373838 -0.17555395 0
-1.135 0.85699999 -0.17550001 0
1.091 0.83149999 -0.139 0
1.1565498 0.86059338 -0.13761331 0
1.2549895 0.84281951 -0.1363641 0
1.3438979 0.84368944 -0.13592649 0
1.4478366 0.84579706 -0.13220659 0
1.5548404 0.84808564 -0.1318569 0
1.6446826 0.86745 -0.1310446 0
1.7503279 0.8691501 -0.12973201 0
1.8618276 0.86205477 -0.12928435 0
1.9603848 0.8299377 -0.12922975 0
2.0636115 0.8305034 -0.12753849 0
2.1259999 0.8545 -0.12650001 0
-2.8638587 0.97141755 -0.184 0
-2.7786264 0.94161534 -0.184 0
-2.6933942 0.91181314 -0.184 0
-1.7337114 0.95020795 -0.17774999 0
-1.6424649 0.96392375 -0.17672677 0
-1.5632615 0.95815331 -0.17598927 0
-1.4435117 0.92629248 -0.17537768 0
-1.3376936 0.95434004 -0.176 0
-1.2580557 0.99409986 -0.1752149 0
-1.1870279 0.94004995 -0.17510745 0
-1.036 0.99900001 -0.17399999 0
1.1773424 0.94564676 -0.13532807 0
1.2598015 0.96153486 -0.13574973 0
1.3383497 0.94438148 -0.13509066 0
1.4390199 0.95736825 -0.13295944 0
1.5510846 0.94850338 -0.13214001 0
1.6558503 0.95982903 -0.12855823 0
1.7405668 0.94441462 -0.12928188 0
1.8486822 0.95957249 -0.12714387 0
1.9411323 0.90039724 -0.12833175 0
2.0362184 0.94636983 -0.12718958 0
-3.0471616 1.035511 -0.184 0
-2.9490912 1.0012197 -0.184 0
-1.7105117 1.0482924 -0.17637768 0
-1.6411604 1.065387 -0.17666186 0
-1.5213871 1.0806801 -0.176 0
-1.4479097 1.0301441 -0.176 0
-1.3290836 1.0481498 -0.17532237 0
-1.0953557 1.0560592 -0.17364669 0
-0.98900002 1.05 -0.17299999 0
0.93699998 1.077 -0.138 0
1.0975001 1.059 -0.1345 0
1.152 1.0587001 -0.13393334 0
1.2379791 1.0576686 -0.13256726 0
1.3526694 1.054036 -0.1322464 0
1.4432005 1.0451564 -0.13228025 0
1.5636898 1.0461277 -0.13022193 0
1.6510111 1.0486337 -0.1290129 0
1.7453642 1.0351413 -0.12769973 0
1.8333673 1.0500954 -0.12637179 0
1.9451574 1.0453143 -0.12551108 0
2 1.015 -0.124 0
-3.1568172 1.1515424 -0.1905258 0
-3.0591586 1.1185212 -0.18701291 0
-1.8708721 1.1907332 -0.17598559 0
-1.7848837 1.1375256 -0.17586328 0
-1.635671 1.1703761 -0.176 0
-1.5894499 1.1409847 -0.17641686 0
-1.4356253 1.1292248 -0.17548355 0
-1.2140672 1.1701777 -0.17294008 0
-1.1285181 1.141389 -0.17297071 0
-1.0456624 1.1098298 -0.17282403 0
-0.97178149 1.1358171 -0.17190829 0
-0.89300001 1.153 -0.17 0
0.86449999 1.1525 -0.13600001 0
0.96499175 1.1425091 -0.13557364 0
1.0343333 1.1753334 -0.13433334 0
1.1596178 1.1400877 -0.13191362 0
1.2630256 1.1531277 -0.13145262 0
1.35278 1.1515838 -0.13058414 0
1.4414289 1.1496344 -0.1295265 0
1.534423 1.1381139 -0.12887867 0
1.6512893 1.1536616 -0.12700823 0
1.7504281 1.1523957 -0.12593903 0
1.8578264 1.1364919 -0.12539631 0
1.9324299 1.1269619 -0.12409329 0
2.0205803 1.177772 -0.12455978 0
-1.8241484 1.2889121 -0.176 0
-1.7418194 1.2322881 -0.176 0
-1.6131949 1.2643496 -0.17575218 0
-1.5421671 1.2102996 -0.17564473 0
-1.3327787 1.2842963 -0.17223346 0
-1.2445362 1.2582781 -0.17244145 0
-1.132338 1.2596958 -0.17196089 0
-1.0473938 1.2536857 -0.17107448 0
-0.96784234 1.2483718 -0.17010827 0
-0.727 1.284 -0.164 0
0.73799998 1.275 -0.133 0
0.8572951 1.2331856 -0.13329048 0
0.95625466 1.2634947 -0.13281325 0
1.0422046 1.2783251 -0.13132629 0
1.1293908 1.2407651 -0.13115896 0
1.2636234 1.236855 -0.13000248 0
1.3528552 1.2478712 -0.12874545 0
1.4376884 1.2436843 -0.12738504 0
1.5508854 1.2415887 -0.12578528 0
1.6371222 1.2526349 -0.12432926 0
1.7549955 1.2575525 -0.12352461 0
1.8428649 1.2437558 -0.12439903 0
1.9551445 1.2002841 -0.12571934 0
2.0575194 1.2317448 -0.12408945 0
2.1380532 1.269848 -0.12303985 0
-1.7661252 1.3807248 -0.17598355 0
-1.6842227 1.3183995 -0.17585965 0
-1.3415 1.3559999 -0.17200001 0
-1.2723117 1.349149 -0.17212015 0
-1.1496183 1.3734231 -0.17040685 0
-1.0558313 1.3587114 -0.16965704 0
-0.9859007 1.3357202 -0.16975322 0
-0.82700002 1.381 -0.167 0
-0.76325983 1.3547267 -0.15423775 0
-0.64649999 1.3599999 -0.163 0
0.56699997 1.383 -0.131 0
0.77882379 1.3508353 -0.13050906 0
0.86438406 1.323112 -0.13021129 0
0.96256292 1.3689229 -0.12952645 0
1.0456656 1.343886 -0.12999117 0
1.1358052 1.350891 -0.12793922 0
1.2451291 1.3654963 -0.12579052 0
1.3462639 1.3303119 -0.12717153 0
1.4414994 1.3562721 -0.12462804 0
1.537154 1.3458011 -0.12411173 0
1.6500801 1.3496166 -0.12254568 0
1.7222153 1.3385291 -0.12117717 0
1.845628 1.3191562 -0.12453195 0
1.9428611 1.3555994 -0.12317514 0
-1.2249074 1.4270853 -0.17104141 0
-1.1722322 1.468473 -0.16902959 0
-1.0862639 1.4310719 -0.16925189 0
-0.90035355 1.4936501 -0.1624154 0
-0.84299296 1.4638023 -0.15414916 0
-0.7645992 1.427932 -0.15885554 0
-0.67482132 1.4602792 -0.16177268 0
-0.45550001 1.467 -0.15650001 0
0.519292 1.4583464 -0.12949809 0
0.60124892 1.4615879 -0.12773143 0
0.74699998 1.428 -0.1275 0
0.82038987 1.4516478 -0.12657657 0
0.9611522 1.4653361 -0.12463388 0
1.0546978 1.454145 -0.12437056 0
1.1371508 1.4552102 -0.1252991 0
1.248504 1.4468141 -0.12321539 0
1.346828 1.4519935 -0.12164745 0
1.46491 1.447036 -0.12292944 0
1.5780799 1.4473877 -0.12046841 0
1.6399291 1.4353461 -0.12071077 0
1.754303 1.4251975 -0.12203857 0
-1.59 1.586 -0.17 0
-1.1248014 1.5164404 -0.16900644 0
-0.91964948 1.5621701 -0.15955067 0
-0.86854225 1.5408552 -0.143002 0
-0.74527717 1.5586151 -0.15924524 0
-0.6582914 1.5374514 -0.15760919 0
-0.53816509 1.5619354 -0.150517 0
-0.43821555 1.5440451 -0.14717476 0
-0.35975647 1.5370815 -0.15257773 0
0.56516802 1.5793853 -0.12499242 0
0.63549787 1.5401757 -0.12446286 0
0.75232947 1.5787427 -0.12347728 0
0.85457867 1.5449185 -0.1239324 0
0.9341476 1.5651708 -0.12351811 0
1.0095363 1.5364481 -0.12184517 0
1.1530128 1.54865 -0.12176807 0
1.2501682 1.5315777 -0.12056579 0
1.3504642 1.5508128 -0.11852935 0
1.4244646 1.559064 -0.11739231 0
1.5286165 1.5096991 -0.1206542 0
2.7490423 1.545505 -0.11117883 0
-1.6327118 1.6673656 -0.16949999 0
-1.549 1.623 -0.169 0
-0.90876633 1.6385444 -0.11506289 0
-0.83191818 1.6250167 -0.16113114 0
-0.7674253 1.661427 -0.15248644 0
-0.64567041 1.6678617 -0.1404361 0
-0.54819411 1.6651026 -0.14767578 0
-0.47526944 1.6440563 -0.13921845 0
-0.38251293 1.6316631 -0.15115544 0
0.46399999 1.625 -0.125 0
0.55091733 1.6446928 -0.12466288 0
0.65288258 1.6440908 -0.12261448 0
0.7448259 1.6755728 -0.12039784 0
0.85449922 1.6590416 -0.12037572 0
0.93168145 1.6551834 -0.11883012 0
1.0375311 1.6324238 -0.11947899 0
1.1453931 1.6525317 -0.11723721 0
1.2601635 1.6686275 -0.11740422 0
1.3403054 1.6395432 -0.1156335 0
2.863169 1.6070201 -0.10571531 0
2.9392536 1.6480303 -0.10207297 0
-1.7496634 1.7409916 -0.17 0
-1.6741164 1.750469 -0.169 0
-1.5355244 1.7705083 -0.16678511 0
-1.476 1.704 -0.167 0
-1.4 1.783 -0.16500001 0
-0.9458071 1.7011632 -0.106548 0
-0.82410437 1.7595797 -0.13461144 0
-0.7193836 1.7433565 -0.13210529 0
-0.62199998 1.733 -0.12899999 0
-0.57099998 1.7130001 -0.12899999 0
0.48562595 1.7018924 -0.12099519 0
0.54264128 1.7502621 -0.12045698 0
0.64002246 1.7601938 -0.11932577 0
0.75221461 1.7538887 -0.11725829 0
0.85195905 1.7654524 -0.1174392 0
0.95900154 1.744174 -0.11723526 0
1.0876728 1.7377108 -0.11538051 0
1.1445377 1.7703569 -0.11309581 0
1.237 1.7236667 -0.11466667 0
1.330318 1.7664505 -0.10865911 0
-1.9093268 1.8959832 -0.17 0
-1.8454614 1.8339866 -0.17 0
-1.7679536 1.8460708 -0.169 0
-1.5950487 1.8370166 -0.16657022 0
-1.4550738 1.8522456 -0.16442391 0
-0.84500003 1.808 -0.13 0
0.55460763 1.8634737 -0.11440657 0
0.65354806 1.838816 -0.11662883 0
0.77044439 1.8488121 -0.11473464 0
0.85550052 1.8605121 -0.11458453 0
0.93747205 1.854899 -0.11352662 0
1.0401639 1.8401238 -0.11165197 0
1.1459436 1.8770337 -0.10564492 0
1.2376961 1.8427849 -0.10855825 0
1.3527403 1.8554046 -0.1084158 0
1.4490294 1.8958166 -0.11144382 0
2.5320001 1.855 -0.108 0
-1.9731921 1.9579799 -0.17 0
-1.861791 1.9416726 -0.169 0
-1.7140975 1.9700332 -0.16614044 0
-1.6545731 1.9035249 -0.16635533 0
-1.5376847 1.9561139 -0.16355979 0
0.55050391 1.9325694 -0.10898076 0
0.64828587 1.9312745 -0.11315129 0
0.74144554 1.9586509 -0.11065795 0
0.82619542 1.9434395 -0.10828011 0
0.95793533 1.9616474 -0.10747144 0
1.0652046 1.9431771 -0.10437655 0
1.1427064 1.9764934 -0.10193396 0
1.2937957 1.9498955 -0.10205463 0
1.5067147 1.9703394 -0.10905326 0
1.915 1.985 -0.109 0
-2.1009226 2.0819733 -0.17 0
-2.0370574 2.0199766 -0.17 0
-1.9556283 2.0372744 -0.169 0
-1.7736218 2.0365415 -0.16592555 0
-1.6202953 2.0599823 -0.16269566 0
0.57200003 2.0090001 -0.105 0
0.65924031 2.040014 -0.10934929 0
0.74600077 2.0486751 -0.10648783 0
0.83505386 2.035743 -0.10308079 0
0.95755833 2.042094 -0.10350285 0
-2.1547029 2.1601453 -0.16975001 0
-2.0494657 2.1328759 -0.169 0
-1.8629084 2.1363039 -0.16560322 0
-1.730443 2.1984735 -0.16154349 0
-1.6753691 2.1292279 -0.16211957 0
0.66362315 2.1337941 -0.10187437 0
0.71752477 2.1299505 -0.1035561 0
0.80398124 2.1690221 -0.10437757 0
1.0336449 2.1515698 -0.1024172 0
-2.2665544 2.2448368 -0.15335694 0
-2.1546264 2.2402484 -0.16502677 0
-2.092 2.2820001 -0.168 0
-1.9521949 2.2360663 -0.16528089 0
-1.7855169 2.2677188 -0.16096739 0
0.83577752 2.2540264 -0.10125308 0
-2.3621082 2.3396738 -0.13671386 0
-2.2577577 2.3464892 -0.14516057 0
-2.1532438 2.3479404 -0.15747961 0
-2.0400915 2.3342652 -0.16190474 0
-1.8655304 2.3683214 -0.16013043 0
-2.4576626 2.4345107 -0.1200708 0
-2.3505759 2.442106 -0.12728101 0
-2.2451091 2.4468508 -0.14169902 0
-2.1472943 2.453975 -0.14010581 0
-1.92985 2.4529593 -0.14929043 0
-2.5532167 2.5293474 -0.10342772 0
-2.4433942 2.5377228 -0.10940143 0
-2.3315842 2.5589204 -0.13955577 0
-2.2468433 2.5371373 -0.1362901 0
-2.03355 2.5908775 -0.12787129 0
-1.9817001 2.5219183 -0.13858086 0
-2.4594622 2.6776419 -0.10487766 0
-2.3679469 2.6330996 -0.11951625 0
-2.0854001 2.6598368 -0.11716172 0
-2.4666772 2.7347798 -0.12117587 0
-2.1372499 2.728796 -0.10645215 0
-2.5509677 2.8323996 -0.10196553 0
-0.02297782 -2.628736 -0.062992603 0
-0.022586185 -2.5357878 -0.062862061 0
0.94 -2.516 -0.0020000001 0
1.209 -2.5369999 -0.097999997 0
-2.352 -2.484 -0.0099999998 0
-0.02221673 -2.4481039 -0.06273891 0
0.59324235 -2.4028726 -0.015069232 0
0.61400002 -2.4909999 -0.021 0
0.96600002 -2.411 -0.0049999999 0
1.1733658 -2.4608524 -0.0841012 0
-0.80199999 -2.3299999 -0.052000001 0
-0.021847274 -2.3604198 -0.06261576 0
0.25766292 -2.3516786 -0.0034151711 0
0.57248467 -2.3147449 -0.0091384649 0
0.70200002 -2.322 -0.096000001 0
1.1199145 -2.3466308 -0.063253008 0
1.259712 -2.310401 -0.016503554 0
1.3042825 -2.3875346 -0.0050047375 0
-2.312 -2.2309999 -0.003 0
-1.401006 -2.2876396 -0.090141006 0
-1.3600088 -2.2154596 -0.076211505 0
-0.78174305 -2.2709529 -0.0543705 0
-0.021477818 -2.2727358 -0.062492605 0
0.2467472 -2.2665088 -0.014061376 0
0.5483495 -2.2250779 -0.0022311099 0
0.67551851 -2.2475207 -0.071372181 0
1.0402317 -2.2277048 -0.026202405 0
1.2151413 -2.2332673 -0.028002368 0
-1.3190118 -2.1432793 -0.062282007 0
-0.73811918 -2.1437943 -0.059475414 0
-0.021108365 -2.1850519 -0.062369455 0
0.078188941 -2.1518333 -0.0089197168 0
0.23583147 -2.1813393 -0.024707586 0
0.49641725 -2.1464691 -0.0070455 0
0.52341962 -2.1359231 -0.0097818002 0
0.63819361 -2.1198568 -0.062383648 0
0.74553585 -2.1496005 -0.011276491 0
0.89899492 -2.1562364 -0.077976108 0
0.95899308 -2.1613951 -0.026052855 0
1.0308292 -2.1562617 -0.028506011 0
1.1705706 -2.1561337 -0.039501183 0
-2.6224296 -2.0120945 -0.097091667 0
-2.5188861 -2.0253682 -0.093136795 0
-2.3588035 -2.0341685 -0.053022493 0
-1.902 -2.0739999 -0.048999999 0
-1.8828422 -2.0742414 -0.02297543 0
-1.3547688 -2.0721049 -0.08524172 0
-1.2780148 -2.0710993 -0.048352502 0
-0.69449532 -2.0166354 -0.064580329 0
-0.01261674 -2.0682645 -0.039974295 0
0.063663863 -2.0210209 -0.02731871 0
0.17578106 -2.057636 -0.017352343 0
0.21763857 -2.0393898 -0.042451262 0
0.47599012 -2.0589106 -0.016539812 0
0.50186718 -2.0483079 -0.018309072 0
0.61331034 -2.0347476 -0.056391291 0
0.70097065 -2.0226121 -0.023051228 0
0.86933106 -2.0484695 -0.059918329 0
0.96613759 -2.0562031 -0.014144811 0
1.0039999 -2.0710001 -0.012000002 0
1.1266272 -2.0513942 -0.051605366 0
1.2463588 -2.0479605 -0.030005526 0
1.305845 -2.0847805 -0.0060184523 0
-3.21 -1.982 -0.053000003 0
-3.1434927 -1.9402442 -0.064973347 0
-2.9466667 -1.9203334 -0.069333337 0
-2.8542948 -1.9117686 -0.080346227 0
-2.7212768 -1.9877632 -0.086783409 0
-2.6537023 -1.9363508 -0.072711214 0
-2.555037 -1.958868 -0.089114584 0
-2.470876 -1.938301 -0.083154246 0
-2.3655703 -1.9640757 -0.051635031 0
-2.2663898 -1.9406326 -0.059142053 0
-1.8200036 -1.9823374 -0.058166251 0
-1.7639484 -1.9417439 -0.04359968 0
-1.697 -1.9220001 -0.038000003 0
-1.3060955 -1.9971836 -0.094798006 0
-1.2383655 -1.9509869 -0.055599436 0
-1.0554162 -1.9192857 -0.067453019 0
-0.99400002 -1.923 -0.082000002 0
-0.79699999 -1.901 -0.086000003 0
-0.66541278 -1.9318628 -0.067983612 0
-0.2344569 -1.9401172 -0.062637284 0
-0.011367971 -1.9510024 -0.04522616 0
0.038962062 -1.9531925 -0.030749705 0
0.16689554 -1.9662532 -0.027420171 0
0.20825472 -1.9500296 -0.04928302 0
0.46793884 -1.9660221 -0.026435236 0
0.58842707 -1.9496384 -0.050398938 0
0.6712606 -1.9379532 -0.030901052 0
0.79366326 -1.9098244 -0.085317411 0
0.8561821 -1.9435015 -0.044915251 0
0.93092889 -1.9764447 -0.026607238 0
1.0774333 -1.9455335 -0.033267461 0
1.1619544 -1.9437534 -0.038213447 0
1.2112128 -1.9326069 -0.022458795 0
1.785 -1.9220001 -0.059999999 0
-3.9277501 -1.8432443 -0.061057325 0
-3.8272502 -1.8010737 -0.078595541 0
-3.069181 -1.8935887 -0.078351676 0
-2.9539671 -1.8732702 -0.078216232 0
-2.8610134 -1.8405902 -0.083179444 0
-2.7453744 -1.840461 -0.08798632 0
-2.5523407 -1.8592324 -0.051602926 0
-2.4327507 -1.8411384 -0.06938681 0
-2.3488951 -1.8626703 -0.056211125 0
-2.2383935 -1.8569423 -0.068132266 0
-2.161026 -1.8450148 -0.075149663 0
-2.0811172 -1.8097253 -0.081148595 0
-1.7028598 -1.8513838 -0.071261615 0
-1.6584692 -1.8647078 -0.046993453 0
-1.518 -1.8150001 -0.043000001 0
-1.455 -1.823 -0.043000001 0
-1.265 -1.83 -0.044 0
-1.1718311 -1.8561721 -0.058586698 0
-1.0362363 -1.8538835 -0.076423422 0
-0.97289288 -1.8586607 -0.064367183 0
-0.76873672 -1.8374077 -0.091768011 0
-0.63633025 -1.8470902 -0.071386889 0
-0.50361216 -1.8715342 -0.045216598 0
-0.33871427 -1.852569 -0.03537634 0
-0.2385962 -1.8522296 -0.050839316 0
-0.026869087 -1.8859899 -0.025384465 0
0.031171976 -1.8363248 -0.043425336 0
0.16838463 -1.8486164 -0.04250421 0
0.44694901 -1.8784351 -0.035446029 0
0.56296015 -1.8550751 -0.092368364 0
0.64155048 -1.8532944 -0.038750876 0
0.77538669 -1.8392396 -0.071143605 0
0.84501934 -1.8178964 -0.04060768 0
0.91522157 -1.8847064 -0.031446692 0
1.0463778 -1.8583432 -0.048376046 0
1.1462488 -1.8455433 -0.046673637 0
1.3460939 -1.8552985 -0.014047004 0
1.491179 -1.8447967 -0.053146254 0
1.5247856 -1.8411344 -0.02647463 0
1.6865209 -1.8176838 -0.065272301 0
1.7471669 -1.8819244 -0.06202548 0
-3.7500002 -1.768659 -0.092076436 0
-2.7672031 -1.796828 -0.088913448 0
-2.6364541 -1.7691535 -0.095626414 0
-2.4366455 -1.7826738 -0.043945033 0
-2.3531659 -1.7451262 -0.084472366 0
-2.2395139 -1.7695082 -0.071225032 0
-2.1414475 -1.7700187 -0.091102511 0
-2.0588994 -1.7576133 -0.086043894 0
-1.9965789 -1.7097821 -0.097352162 0
-1.6300921 -1.7892413 -0.067725435 0
-1.5551654 -1.7335069 -0.071328826 0
-1.4492751 -1.7571802 -0.055283785 0
-1.3486166 -1.7427928 -0.081410974 0
-1.2218312 -1.7647972 -0.055466712 0
-1.1282649 -1.7848377 -0.068169355 0
-1.0634273 -1.7329907 -0.066564351 0
-0.93931979 -1.7680141 -0.07625027 0
-0.88201308 -1.7054678 -0.09686552 0
-0.76609468 -1.749963 -0.0838072 0
-0.60724765 -1.7623177 -0.074790165 0
-0.47142059 -1.7632952 -0.056137558 0
-0.34920967 -1.7635074 -0.074941382 0
-0.24746948 -1.7416722 -0.055418368 0
-0.16653921 -1.7592148 -0.065668203 0
-0.050937422 -1.7507832 -0.034274392 0
0.027683908 -1.7426987 -0.053156644 0
0.1537219 -1.740262 -0.055408012 0
0.39428148 -1.708676 -0.054517061 0
0.42595923 -1.790848 -0.044456825 0
0.53716809 -1.76846 -0.09169469 0
0.61184037 -1.7686355 -0.046600703 0
0.76641268 -1.7505158 -0.060980931 0
0.83981442 -1.7264709 -0.047964461 0
0.96848458 -1.7407713 -0.058629785 0
1.0493068 -1.7438122 -0.054027457 0
1.1251339 -1.749705 -0.045395602 0
1.2805746 -1.7333071 -0.034979619 0
1.3639148 -1.7418073 -0.045936842 0
1.4466447 -1.7449045 -0.041057564 0
1.6489426 -1.7507988 -0.054482114 0
1.869435 -1.717201 -0.042117134 0
1.902 -1.737 -0.056000002 0
2.03 -1.709 -0.056000002 0
-2.2863743 -1.6973448 -0.095604271 0
-2.1403427 -1.6940055 -0.091816694 0
-2.0332246 -1.6975127 -0.090557441 0
-1.9454703 -1.6958352 -0.096689157 0
-1.5271438 -1.6549536 -0.090904646 0
-1.4764775 -1.6559534 -0.079585701 0
-1.3606513 -1.6573038 -0.075739041 0
-1.2867444 -1.6015285 -0.087607309 0
-1.1367848 -1.6363416 -0.078057155 0
-1.0412064 -1.65467 -0.067944817 0
-0.95435154 -1.6751611 -0.083690241 0
-0.88744098 -1.6563021 -0.080239624 0
-0.75467044 -1.6440141 -0.082631543 0
-0.57816511 -1.6775452 -0.078193441 0
-0.42776465 -1.6367214 -0.078389183 0
-0.35760757 -1.654789 -0.088230364 0
-0.2566824 -1.6431384 -0.07647942 0
-0.1554296 -1.6501907 -0.077188447 0
-0.049249955 -1.6235904 -0.055156797 0
0.028531576 -1.6478901 -0.061857626 0
0.14972922 -1.6394253 -0.064525411 0
0.38397962 -1.615674 -0.062478412 0
0.41565737 -1.6978462 -0.052418172 0
0.54675317 -1.6829109 -0.072735772 0
0.68860996 -1.6374645 -0.076733895 0
0.74488544 -1.6713785 -0.056928027 0
0.84883827 -1.6447847 -0.065003201 0
0.96102798 -1.638104 -0.062824875 0
1.041366 -1.6412047 -0.058247402 0
1.1426548 -1.6280369 -0.044656694 0
1.254166 -1.6536942 -0.050015073 0
1.3591697 -1.6388234 -0.056470439 0
1.4591217 -1.6640536 -0.05435089 0
1.5490693 -1.6419595 -0.064985007 0
1.6474494 -1.6580194 -0.05561994 0
1.7777756 -1.6414721 -0.044020593 0
1.8226278 -1.6725841 -0.048326638 0
1.9747857 -1.6353216 -0.043933675 0
2.9925916 -1.6111245 -0.012758017 0
-1.4355164 -1.5913101 -0.092179336 0
-1.3582034 -1.5623876 -0.092815869 0
-1.24 -1.54 -0.1 0
-1.073 -1.54 -0.094999999 0
-0.95185834 -1.5494751 -0.085573576 0
-0.85399997 -1.587 -0.093000002 0
-0.70926821 -1.5432056 -0.097252622 0
-0.62330353 -1.5330949 -0.097728118 0
-0.52314401 -1.5568318 -0.08717525 0
-0.43784052 -1.5556004 -0.090134852 0
-0.37185797 -1.5528508 -0.091548532 0
-0.23986939 -1.5537876 -0.083413549 0
-0.16496201 -1.5299329 -0.084619842 0
-0.048124976 -1.5387952 -0.069078393 0
0.031077342 -1.5505484 -0.071669318 0
0.14166336 -1.5555929 -0.072167069 0
0.36298981 -1.5280869 -0.0714892 0
0.47268802 -1.5519226 -0.090010509 0
0.53756511 -1.5569882 -0.06622526 0
0.65383255 -1.5565166 -0.079005167 0
0.73420781 -1.5761585 -0.063843064 0
0.86623138 -1.543635 -0.068134584 0
0.94907105 -1.5568306 -0.069172524 0
1.0507669 -1.5430828 -0.059028786 0
1.1514448 -1.5394878 -0.060846515 0
1.2501184 -1.5499411 -0.067719445 0
1.3423361 -1.5636855 -0.061536923 0
1.455457 -1.5583491 -0.072611585 0
1.53741 -1.5476058 -0.069198705 0
1.6376612 -1.5361828 -0.064169109 0
1.7313002 -1.5856895 -0.063619658 0
1.8369057 -1.5418992 -0.082921788 0
1.928864 -1.5491401 -0.016650276 0
2.8371937 -1.5263433 -0.042318515 0
2.9148927 -1.5687339 -0.027538262 0
-0.44099998 -1.4695001 -0.096499994 0
-0.33199999 -1.471 -0.093000002 0
-0.26699999 -1.461 -0.1 0
-0.14014536 -1.464002 -0.086548693 0
-0.046999998 -1.454 -0.082999997 0
0.014333333 -1.4523333 -0.083999999 0
0.13699999 -1.4705 -0.076499999 0
0.34200001 -1.4405 -0.080499999 0
0.46349999 -1.426 -0.083499998 0
0.583 -1.4170001 -0.1 0
0.65488833 -1.456251 -0.077510908 0
0.76523453 -1.4347059 -0.079247035 0
0.84184867 -1.447395 -0.078151278 0
0.94569743 -1.4676373 -0.074122339 0
1.0586805 -1.4527818 -0.071986042 0
1.1505997 -1.4486799 -0.078974053 0
1.2476357 -1.452143 -0.0783659 0
1.3537592 -1.4572299 -0.079680935 0
1.4497393 -1.4529346 -0.080413803 0
1.5598485 -1.4369864 -0.083381012 0
1.6232899 -1.4708006 -0.082411423 0
1.7681873 -1.4516141 -0.071620509 0
1.8619319 -1.4965701 -0.031825136 0
2.6817958 -1.4415622 -0.071879014 0
2.7594948 -1.4839528 -0.057098761 0
0.88 -1.4 -0.079999998 0
0.93900001 -1.3945 -0.079499997 0
1.0505 -1.388 -0.084249996 0
1.1447499 -1.3759999 -0.086999997 0
1.2536668 -1.3733333 -0.086666666 0
1.3553333 -1.3626667 -0.092 0
1.4400001 -1.3609999 -0.093000002 0
1.5397279 -1.3518806 -0.096025504 0
1.6554999 -1.348 -0.0995 0
2.2709999 -1.3150001 -0.075999998 0
2.6478243 -1.3588454 -0.078706838 0
2.7581041 -1.3480382 -0.063508831 0
2.8488278 -1.3882786 -0.053631622 0
2.124939 -1.229637 -0.089083284 0
2.2013588 -1.2742994 -0.082238033 0
2.625 -1.289 -0.078000002 0
2.97157 -1.2322006 -0.091512144 0
3.0612311 -1.2720004 -0.078320086 0
3.1478419 -1.2260891 -0.087959424 0
3.2443228 -1.2491332 -0.071997322 0
3.3252776 -1.2455009 -0.065793455 0
3.4387417 -1.2473972 -0.082806684 0
2.0485191 -1.1849746 -0.09592852 0
2.9783688 -1.1400094 -0.094139799 0
3.0418673 -1.1749165 -0.090996146 0
3.1425531 -1.1995142 -0.074709691 0
3.2597091 -1.1801733 -0.094588175 0
3.0153382 1.6890404 -0.098430626 0
-0.98261422 1.7633263 -0.098095998 0
3.0914226 1.7300504 -0.094788283 0
3.1675072 1.7710606 -0.09114594 0
-1.0317106 1.8462446 -0.086821996 0
1.3554436 1.8631197 -0.096035346 0
1.4330788 1.8619468 -0.088619441 0
3.2592959 1.8205353 -0.086751804 0
0.55299997 1.993 -0.035 0
0.98440546 1.9662614 -0.099350877 0
1.1255567 1.9757792 -0.094589025 0
1.2368643 1.9276789 -0.095016077 0
1.3351321 1.9745325 -0.090512119 0
1.4071654 1.9366796 -0.086553015 0
1.5177258 1.967515 -0.072791107 0
2.5981293 1.9034376 -0.09614826 0
2.6642587 1.9518751 -0.084296517 0
0.57865661 2.0751774 -0.020520505 0
1.0525875 2.0487354 -0.093649484 0
1.1647348 2.059355 -0.091747753 0
1.2398307 2.0301013 -0.091934755 0
1.3508589 2.0687981 -0.080584377 0
1.4375092 2.0218143 -0.084639117 0
1.5477523 2.0540884 -0.075389959 0
1.9728972 2.0435588 -0.095435508 0
2.7634525 2.0245314 -0.06651891 0
2.8626466 2.0971878 -0.048741292 0
0.60431325 2.1573551 -0.0060410071 0
0.78363657 2.1763659 -0.09189859 0
0.86926508 2.1181767 -0.097457491 0
0.93247187 2.1529038 -0.094675183 0
1.051446 2.1285226 -0.08776357 0
1.141062 2.1370142 -0.087431565 0
1.2276464 2.1308439 -0.086304612 0
1.3337178 2.1831689 -0.078224592 0
1.4388744 2.1377857 -0.07219743 0
1.5415137 2.1689715 -0.069708668 0
1.6465151 2.1434462 -0.061883584 0
2.0597429 2.1313972 -0.075088777 0
2.9170001 2.1370001 -0.038999997 0
0.69124633 2.2175882 -0.095748723 0
0.76181197 2.2543764 -0.09389025 0
0.83997345 2.2389154 -0.087277927 0
0.9575026 2.2391052 -0.088869408 0
1.0725516 2.2565155 -0.083164684 0
1.1480644 2.2478228 -0.075377896 0
1.2437919 2.2419016 -0.076102175 0
1.3343197 2.2766075 -0.066073403 0
1.4619503 2.2484636 -0.054057419 0
1.5729795 2.2541814 -0.075863205 0
1.6140525 2.2309191 -0.048623696 0
1.7267065 2.2476594 -0.044476405 0
2.1465888 2.2192357 -0.054742046 0
2.2044861 2.2777944 -0.041177556 0
0.73268104 2.3432794 -0.086560264 0
0.83764869 2.3538551 -0.085716724 0
0.95442128 2.3491194 -0.081760004 0
1.0602384 2.3699322 -0.079009786 0
1.1583235 2.3661928 -0.071418181 0
1.2755638 2.3396788 -0.076614596 0
1.3430479 2.3698282 -0.063411422 0
1.4276049 2.3362362 -0.064514428 0
1.563929 2.3529007 -0.035564389 0
1.6455183 2.3161287 -0.054778233 0
1.759277 2.3374362 -0.031800758 0
1.8336282 2.3866105 -0.021266829 0
2.2636919 2.3376765 -0.027306538 0
0.7741158 2.4689708 -0.077371806 0
0.86736172 2.4377344 -0.07967703 0
0.96898413 2.4645643 -0.07341592 0
1.04843 2.4437535 -0.074884988 0
1.1698627 2.4474304 -0.07960169 0
1.2242926 2.4463115 -0.04962543 0
1.3390747 2.4584024 -0.069080867 0
1.4507747 2.4198854 -0.049558256 0
1.5688891 2.4603052 -0.032072339 0
1.6634552 2.4272699 -0.041702032 0
1.7636819 2.4701908 -0.031898525 0
1.8662162 2.4585028 -0.019199282 0
-2.6169195 2.5925717 -0.092332341 0
0.85393244 2.5361886 -0.066759519 0
0.93895227 2.5659549 -0.076593272 0
1.0514572 2.5459876 -0.068902709 0
1.1316512 2.5342431 -0.067346387 0
1.2388189 2.5414708 -0.063165903 0
1.3473896 2.5357819 -0.051721022 0
1.4634657 2.5327365 -0.043514032 0
1.5778631 2.5644045 -0.039644044 0
1.6620178 2.5235255 -0.011409541 0
1.7539999 2.5090001 -0.057 0
-2.6806221 2.6557965 -0.081236959 0
-2.5362124 2.6333396 -0.091521874 0
0.86201775 2.6321065 -0.065006614 0
0.9707731 2.6737313 -0.06329719 0
1.0359788 2.6290858 -0.061554566 0
1.1443727 2.6574073 -0.059836876 0
1.2682786 2.6276028 -0.039836008 0
1.3597097 2.6200695 -0.050705582 0
1.451 2.6059999 -0.071999997 0
-2.8080277 2.7822456 -0.059046201 0
-2.7443249 2.7190208 -0.070141584 0
-2.6599703 2.7608287 -0.067682445 0
-2.5207059 2.743582 -0.094357274 0
-2.4405298 2.7814121 -0.077870317 0
-2.3818829 2.7159247 -0.090317413 0
-2.1891 2.797755 -0.095742576 0
0.86599267 2.7476766 -0.056997441 0
0.94539946 2.7362015 -0.049149603 0
1.071238 2.7156734 -0.055311941 0
1.1340001 2.7005 -0.058499999 0
-2.8369999 2.8110001 -0.054000005 0
-2.7309999 2.8340001 -0.054000005 0
-2.6251771 2.886471 -0.081237569 0
-2.5819495 2.8095224 -0.083836883 0
-2.499177 2.8468995 -0.06542322 0
-2.2409501 2.8667142 -0.085033007 0
-2.7242184 2.9627013 -0.059398055 0
-2.6633546 2.9625597 -0.076351747 0
-2.553 2.9070001 -0.054000005 0
-2.2750001 2.9119999 -0.078000002 0
-2.7 3.0050001 -0.068000004 0
1.1289999 -3.029 0.079999998 0
1.0847558 -2.9089086 0.060804088 0
1.1137068 -2.9874902 0.073364913 0
1.0558046 -2.8303268 0.048243273 0
1.564 -2.8369999 0.061999999 0
0.109 -2.704 0.090000004 0
1.0268534 -2.7517452 0.035682455 0
1.5271356 -2.7732027 0.052489333 0
0.10454839 -2.6242223 0.075707987 0
0.29270506 -2.6250937 0.030761722 0
0.35600001 -2.6070001 0.0020000001 0
0.99790227 -2.6731634 0.023121636 0
1.4602797 -2.6575022 0.035241116 0
0.099755764 -2.5383334 0.060321134 0
0.27949437 -2.522018 0.01787724 0
0.34408689 -2.5260975 0.010534779 0
0.96895117 -2.5945818 0.010560818 0
1.3934238 -2.5418017 0.017992891 0
-2.2907939 -2.4211891 0.00214954 0
0.094963133 -2.4524446 0.044934276 0
0.26857865 -2.4368482 0.0072310343 0
0.33217376 -2.445195 0.019069558 0
1.3488531 -2.4646683 0.0064940751 0
-2.2295876 -2.3583784 0.01429908 0
0.090170503 -2.3665557 0.029547423 0
0.32026061 -2.3642921 0.027604336 0
0.55769897 -2.340435 0.01205397 0
0.93430477 -2.3331602 0.0033899192 0
-2.1377783 -2.2641621 0.03252339 0
0.085377879 -2.2806668 0.014160566 0
0.29643437 -2.202487 0.044673894 0
0.30834749 -2.2833896 0.036139116 0
0.51684439 -2.2340279 0.0024488121 0
0.79105043 -2.2792945 0.00074912608 0
0.90260953 -2.2553203 0.011779838 0
2.9382715 -2.2408733 0.032734469 0
3.0079999 -2.296 0.023 0
-2.2499099 -2.1699319 0.0018547857 0
-2.1878197 -2.1088638 0.0067095715 0
-2.045969 -2.1699457 0.0507477 0
-1.9847629 -2.1071351 0.062897243 0
0.289 -2.152 0.050000001 0
0.53096926 -2.13849 0.0027230699 0
0.87091428 -2.1774805 0.020169757 0
1.352 -2.1589999 0.0019999966 0
2.7988148 -2.1306198 0.052203406 0
2.8685431 -2.1857467 0.042468935 0
-2.1257296 -2.0477958 0.011564357 0
-1.9235568 -2.0443242 0.075046778 0
-1.8501712 -2.0434103 0.0010194005 0
-0.054937422 -2.0522833 0.015225608 0
0.51021159 -2.0503626 0.0086538363 0
0.82337141 -2.0607209 0.032754637 0
1.133 -2.0050001 -1.3099633e-14 0
2.6593578 -2.0203664 0.071672343 0
2.7290862 -2.0754931 0.061937876 0
-2.0325942 -1.9561936 0.018846534 0
-1.8272309 -1.9684447 0.065411709 0
-1.7525135 -1.9322308 0.025058202 0
-0.053749867 -1.9627712 0.00052960962 0
0.48945391 -1.962235 0.014584603 0
0.76891428 -1.9269805 0.047169756 0
1.4295193 -1.9724914 0.0034326129 0
2.5547652 -1.9376763 0.086274043 0
-1.9394591 -1.8645914 0.026128715 0
-1.8773689 -1.8035233 0.030983502 0
-1.704 -1.877 0.037 0
0.46869621 -1.8741076 0.020515373 0
0.56412756 -1.8739833 0.0035552047 0
1.1270137 -1.8428907 0.014156858 0
1.58 -1.895 0.0080000013 0
2.2762618 -1.8219953 0.062112011 0
-1.826 -1.753 0.035 0
0.4479385 -1.78598 0.026446139 0
0.52816582 -1.7485783 0.020521764 0
1.0582955 -1.7234219 0.032754898 0
1.6660429 -1.7438866 0.021374457 0
2.163126 -1.7331353 0.036461737 0
0.453702 -1.6356877 0.036793228 0
1.585 -1.66 0.0099999998 0
2.0627279 -1.6542802 0.013699446 0
3.0702906 -1.6535151 0.0020222366 0
3.128 -1.6849999 0.012999997 0
0.38999999 -1.54 0.043000005 0
0.62996995 2.2395325 0.0084384903 0
0.6556266 2.3217101 0.022917986 0
0.68128324 2.4038875 0.037397478 0
0.70693988 2.4860649 0.051876973 0
1.9069999 2.4530001 -2.535451e-14 0
0.73259652 2.5682425 0.066356465 0
0.755 2.6400001 0.079000011 0
2.4501727 -1.8549862 0.10087575 0
2.364722 -1.7874298 0.11280511 0
