# .PCD v0.7 - Point Cloud Data file format
VERSION 0.7
FIELDS x y z intensity
SIZE 4 4 4 4
TYPE F F F F
COUNT 1 1 1 1
WIDTH 332
HEIGHT 1
VIEWPOINT 0 0 0 1 0 0 0
POINTS 332
DATA ascii
-18.603554 -0.7425465 -0.29608551 3
-18.033892 -0.88738686 -0.07264749 3
-17.63862 -1.1933773 0.24749373 4
-17.720562 -1.0904065 0.60767341 4.5
-16.670231 -1.4104149 0.57719064 4.5
-16.576492 -1.3455786 0.94624496 5
-15.770163 -1.5811791 0.45813522 4
-15.509873 -1.8008974 0.22670363 4
-15.556073 -1.7873344 0.63578087 5
-15.588961 -1.6321471 0.89491034 5
-15.233194 -1.733917 1.2924386 6
-13.624231 -2.5024159 1.1897719 6
-13.53172 -2.5031979 -0.10920968 3
-13.489969 -2.5006518 0.21034804 4
-13.465532 -2.2646902 0.41769713 4
-13.533328 -2.4297888 0.84138733 5
-13.465241 -2.3838658 1.215801 6
-12.444681 -3.0621915 -0.26293057 3
-11.694573 3.7995069 0.21040796 4
-11.635223 4.0088816 0.27705839 4
-11.674433 3.8520477 0.52370238 5
-11.614717 4.1112008 0.52611113 4.5
-11.6922 3.8609362 1.0117496 5.5
-11.621393 4.1325965 1.0012255 5.5
-11.682827 3.8679397 1.269293 6
-11.686001 2.3781335 3.8979821 13
-11.638178 2.2065837 4.2596712 13.666667
-11.579884 4.1714878 -0.13306263 3
-11.454457 1.0931934 0.24049473 4
-11.342584 1.4125479 0.20528531 4
-11.246366 1.6916146 0.13710734 4
-11.587305 4.1350732 0.14574714 4
-11.470384 1.026352 0.55272293 5
-11.384948 1.3417212 0.63081378 5
-11.276753 1.6798987 0.5450179 5
-11.557688 4.2685547 0.52846247 5
-11.367999 1.4348506 1.0176725 6
-11.273457 1.7225949 1.0536265 6
-11.541263 4.393117 1.1031196 6
-11.45758 4.6542501 1.090488 6
-11.573235 4.2605786 1.2774222 6
-11.450214 4.6531539 1.2864853 6
-11.38735 4.9758396 2.3101292 9
-11.248148 5.3343959 2.3369243 9
-11.260247 5.3361244 2.4979248 9
-11.22364 3.4585032 3.0984201 11
-11.23912 5.444942 3.346462 11
-11.49763 2.6965494 3.9039781 13
-11.363794 3.0112755 3.8308609 13
-11.30827 3.3094215 3.9505622 13
-11.360363 3.7316306 3.886812 13
-11.309504 4.0089684 3.8963079 13
-11.253609 5.4145374 3.830318 12
-11.385148 2.9295194 4.2218933 13.75
-11.320283 3.8826122 4.179143 13.5
-11.277102 5.3626432 4.1013956 13
-11.096375 2.1895075 -0.17676245 3
-10.975529 2.5796614 -0.126379 3
-10.858355 2.9511812 -0.12518287 3
-11.174232 1.9426222 0.18470226 4
-11.068872 2.289124 0.1673571 4
-10.961657 2.6278229 0.20466177 4
-10.837679 2.9994967 0.13210991 4
-11.191209 1.873912 0.47227645 5
-11.118258 2.131958 0.47189155 4
-11.04555 2.5110085 0.60618371 5
-10.868299 2.9519835 0.53682804 4.5
-11.126812 2.1830711 0.94099522 5.5999999
-10.962854 2.6553171 0.95920581 5.5
-10.853527 3.0116222 1.0061799 5.6666665
-11.086993 5.8275628 1.9982831 8
-11.024254 4.3278127 2.2500935 9
-11.12368 5.7421436 2.289129 8.75
-10.982411 6.1622109 2.1595767 8.25
-11.06108 4.2192268 2.4265218 9
-10.997368 6.1681743 2.545186 9.333333
-11.113458 4.2375345 3.1615958 11
-11.013313 6.2323551 3.0416367 10
-11.095942 5.9863162 3.3900161 11
-10.996459 6.2444072 3.4052024 11
-11.1828 5.5879345 4.2201643 13
-11.104107 5.8913441 4.3895922 13
-11.052747 6.0914941 4.0725098 13
-10.747256 3.3207545 -0.12306073 3
-10.748849 3.2594471 0.13260761 4
-10.787925 3.138989 0.47492439 4
-10.789123 3.176121 1.1521388 6
-10.603915 6.3825922 2.2888999 9
-10.408361 6.3632488 2.9388692 10
-10.791138 7.0823226 14.094938 28
-10.092613 4.1607347 0.13073474 4
-10.277634 6.3814187 1.941967 8
-10.349462 6.2650652 2.2239528 8.5
-9.8326025 5.0755877 0.52977341 5
-9.7788858 5.2731853 0.48820153 5
-9.9132347 5.0990033 0.92535561 6
-9.4154682 5.5032887 0.56435043 5
-9.3545237 5.6695194 0.60109538 5
-9.3380671 5.5094767 0.83239979 5.5
-8.7037039 5.8373833 1.8269525 8.5
-8.7142572 5.8810668 2.5391414 10
-6.9705763 2.8656125 -0.083081767 3
-6.690896 -1.9558365 -0.099593379 3
-6.6935773 -1.2533754 3.9323184 19
-6.6689401 -1.1013288 3.8945417 19
-6.3523879 3.8447497 -0.13609754 3
-5.8691149 -2.0662131 -0.10618541 3
-5.6730938 3.7988076 -0.13310613 3
-5.9353232 -2.417618 0.21770577 4
-5.4903212 4.0535135 -0.14099585 3
-4.6574073 -1.6080129 -0.26973927 2
-4.4821839 -1.3227061 -0.25517303 2
-4.5836787 -1.1292663 -0.25756064 2
-4.4555192 -1.9533885 0.23888899 5
-4.4642587 -1.921115 0.43252397 6
-4.1818261 -1.7929569 -0.084285237 3
-4.3806696 2.3592033 -0.19217657 2
-3.9598839 2.3756773 -0.17889228 2
-3.5161927 -1.6267241 -0.17067632 2
-3.3178601 2.2251682 -0.17430618 2
-3.3386505 4.0598826 -0.093140721 3
-3.3572104 -1.7399265 0.20292835 5
-3.0577075 -1.8752038 -0.13163184 2.5
-3.1349394 1.3019679 -0.19384253 2
-3.1466298 2.3301415 -0.1697707 2
-2.8613958 2.8148777 -0.048721336 3
-2.9446905 3.9311182 -0.10072848 3
-3.1251514 -1.8067415 0.14914627 4.7142859
-2.5576937 -2.2353148 -0.085038133 3
-2.519536 -1.9032159 -0.084174559 3
-2.4244885 -1.5751092 -0.14040501 2
-2.4399211 -1.102476 -0.23171681 1
-2.4588342 -0.72557598 -0.22514217 1
-2.7227421 3.0082037 -0.061999828 3
-2.5120118 -1.256363 2.6396205 26.6
-2.5738513 -1.1667119 2.6447992 26
-2.4288342 3.7104192 4.181325 26
-2.1655209 -1.555472 -0.16386828 1.5
-2.3976867 -0.89144152 -0.22368784 1
-2.1983283 2.1513894 -0.16726306 2
-2.1667447 2.473676 -0.16051237 2
-2.2794123 -1.687047 2.548995 26
-2.2490621 -1.4713101 2.598958 27.142857
-2.3296247 3.6888807 3.9982018 26
-2.2368472 3.4813926 4.3174925 27.666666
-2.2836668 3.6664596 4.0771046 26
-1.9881791 -2.0994556 -0.041216403 3
-1.8602229 -1.5410643 -0.15299191 2
-1.6484077 -0.70210832 -0.21389762 0
-1.8631277 0.74590057 -0.18296176 1
-1.9762934 1.1064844 -0.17947955 1
-1.7399755 1.4375777 -0.17317973 1
-1.7912766 -1.8795587 0.0088557415 4
-1.6397636 3.4711523 3.8140869 27
-1.379028 -1.8089777 -0.089544624 2.5
-1.3317583 -1.5198495 -0.13950536 1.5
-1.5424008 -1.0806127 -0.21393579 0
-1.3532485 1.1063999 -0.049605306 2.5
-1.3026692 1.4114302 -0.17101011 1
-1.359219 -1.8639069 0.049833048 4.5
-1.3550121 1.0866719 0.21502045 7
-1.3056332 1.2494339 0.34169799 9
-1.2661361 1.2984028 0.51551467 11.25
-1.5971804 -2.0698516 1.4516101 19
-1.3712596 -1.9534284 2.287509 27
-1.3430164 -1.8802313 2.4152529 28
-1.5474963 3.2813053 3.9639571 28
-1.0158067 -1.8921353 -0.092457898 2.5
-0.97085828 -1.5606183 -0.11819214 2
-1.0659207 1.5202196 -0.077257127 2
-0.8948136 1.8092742 -0.083363168 2
-1.0328676 1.5437698 0.10219369 5
-0.8489219 1.7925488 0.10152519 4.5
-1.0421102 1.5346282 0.59126329 12.285714
-0.50323319 -1.6274583 -0.11621198 2
-0.5803389 -1.4711854 -0.14329885 1
-0.59150076 1.5615506 -0.15821856 0
-0.61666793 1.7194709 -0.080000222 2
-0.61896849 1.7199656 0.088558055 4.5
-0.42261362 1.6435436 0.45403102 11
-0.26787505 -2.9573171 -0.16170794 2
-0.11360321 -2.1201954 -0.050484478 3
-0.29083148 -1.9042577 -0.063760735 3
-0.20636074 -1.5022691 -0.10934694 2
-0.16751608 1.5784301 -0.078241639 1.7142857
-0.30990526 1.627005 -0.071576335 2
-0.15058903 1.5692065 0.20090027 7.090909
-0.33357617 1.62884 0.18733853 6.4285712
-0.18527246 1.5663764 0.55484384 13.3
-0.32340208 1.6120338 0.55460399 13
-0.025611322 -2.5920808 2.3495901 26
-0.0086735412 -2.4391322 2.4986129 27.5
0.32143515 -2.5664358 -0.04506458 3
0.26615635 -1.4558332 -0.11512259 1.3333334
0.14764279 1.4694515 -0.071963169 1.7142857
0.37794012 -1.6397833 0.0079927957 4
0.28091404 -1.5664531 0.012972135 4
0.17858241 1.4593737 0.18527097 7.0666666
0.18700607 1.4502805 0.48782471 12.857142
0.26013267 2.8855531 3.057915 27.5
0.58726996 -2.9190786 -0.1631459 2
0.49457124 -2.5191066 -0.06096204 3
0.64719385 -2.2974625 -0.11340263 2.3333333
0.68296683 -1.4374175 -0.1092756 2
0.59751797 1.4611981 -0.1282603 1
0.7179966 2.0046852 -0.10768085 2
0.68591708 2.750324 2.781379 26.5
1.0835426 -2.5724039 -0.1395397 2
1.0307782 -2.1740649 -0.056843828 3
1.1253587 -1.6777523 -0.055472363 3
0.96423411 -1.3997494 -0.093850359 2
0.94807887 -0.99647439 -0.17099184 0
1.0057323 0.70961004 -0.14525932 0
0.83167857 1.5805144 -0.12347307 1
0.97889298 1.8435146 -0.11146634 2
1.0492102 2.7155032 -0.054095097 3
1.0062023 2.719785 0.18686691 5.181818
0.98853827 2.7041492 0.57296789 9
0.98743886 2.709532 0.90271187 12.5
0.9843477 2.6610489 2.9843693 27.5
1.325237 -4.181459 -0.23699473 2
1.5567174 -1.8275322 -0.028441928 3
1.4604715 -1.3477117 -0.10536969 1.5
1.3994863 -0.92655724 -0.13503245 1
1.2634538 -0.6357525 -0.16909578 0
1.5356927 0.19395575 -0.13730901 1
1.3010019 0.73064983 -0.13492867 1
1.3258321 1.0058694 -0.13399474 1
1.376155 1.3698765 -0.12736331 1.5
1.2366145 1.8747823 -0.11324055 2
1.4286741 2.605068 -0.050190106 3
1.4076699 2.6018758 0.20585908 5.4166665
1.335831 2.6057034 0.5153169 8.333333
1.3255838 2.6104701 0.90091878 12.5
1.2658187 2.5682044 1.7679011 19.799999
1.5514553 2.5011523 2.7985144 26
1.8027219 -1.6798083 -0.04637105 3
1.7992846 -1.3374811 -0.070932895 2.5
1.6477336 -0.64611024 -0.1341421 1
1.9393411 1.1012335 -0.12351467 2
1.7577287 1.3223299 -0.12161628 2
1.6923664 2.5182929 -0.0055849128 3
1.7605282 2.4941366 0.19848171 5.2222223
1.7913471 2.4704916 0.4854601 7.8000002
1.6742405 2.4631679 1.2533425 15
1.6671629 2.4566772 1.7683386 19
1.6184654 2.4738178 2.7844095 26
2.2572007 -1.3227317 -0.067526944 2.6666667
2.0470104 -0.61496419 -0.13142487 1
2.213655 0.73486906 -0.12582937 2
2.0782213 0.92077839 -0.12596491 2
2.185147 2.3074365 0.14331205 4.5
2.04773 2.4117956 0.21196401 5.5
2.1194003 2.3070791 0.51134259 8
2.1803887 -2.0966213 3.0159569 26.75
2.1471448 -1.9552331 3.1068542 28
2.5819092 -1.2110609 -0.13446011 2
2.7064679 -0.98828417 -0.12949081 2
2.4715893 -0.13893579 -0.1284792 2
2.4072409 0.1160427 -0.12785612 2
2.6825855 2.1809044 -0.082713015 3
2.7099481 -1.9646678 0.13080929 4
2.5721996 2.2400925 0.14928249 4.5
2.666779 2.1751685 0.87012452 10.333333
2.6547315 -1.5983307 3.1432004 27
2.5475547 -1.5308857 3.2370424 28
3.1008139 -1.2662023 -0.070753962 3
3.0945387 0.70373112 -0.122338 2
2.9471405 2.0737162 -0.084930755 3
3.0269938 -1.7900765 0.079053722 3.5
2.8632085 2.1380036 0.1931565 5
3.1552315 2.0492215 0.71395886 9
2.8951385 2.0811837 0.94010144 11
3.0948484 2.0245278 1.5339692 15
3.4736364 -1.2389202 -0.077164955 3
3.4967728 0.36377013 -0.13543053 2
3.4486363 0.52505553 -0.13465631 2
3.3092151 1.8750174 -0.085183509 3
3.2976007 -1.7967514 0.18697895 4.5
3.4966755 1.8854016 4.3027501 28
3.6383131 1.5237839 -0.091340087 3
3.7364407 1.7691698 -0.081354439 3
3.7550533 1.916737 4.1176724 26.5
4.0243335 -1.2093425 -0.055638753 3
4.3683186 -0.51249796 -0.090302639 3
4.3092804 0.98139662 -0.092717275 3
4.1213078 1.2416465 -0.092356704 3
4.0192919 1.729322 4.2415619 26.5
4.7398157 -0.23001452 -0.097540669 3
5.2503252 0.80112511 -0.090191126 3
5.7209048 2.0428867 -0.072905712 3
6.9113727 0.71013153 -0.072340563 3
7.5686026 -1.1014881 0.20366284 4
8.3989267 4.5146613 0.22697125 4
8.7269735 -0.84485322 0.091814406 4
9.192977 3.993439 0.51427859 5
9.3069811 4.0421891 0.94424993 6
9.4380274 4.0579844 1.2031997 7
10.325013 4.2673588 0.12290672 4
10.581454 -0.0099635664 -0.079991192 3
14.290695 1.3820467 0.2867564 4
15.052737 2.2755854 0.25392193 4
14.809566 -1.2072058 1.6491797 7
15.341496 -0.66724855 0.31215945 4
15.289348 0.049549885 0.30910853 4
15.558772 1.522873 2.1374056 7
15.636196 3.1031194 0.23936273 4
15.641862 1.4819909 2.0204277 7
15.606886 1.4953792 2.4134221 8
24.665951 6.0751839 0.34027591 4
31.505108 7.424016 3.517153 6
31.432871 7.6380863 3.2821445 6
31.316141 7.4591899 4.1622019 7
31.742195 7.4170189 4.1890883 7
31.816248 7.4628239 5.1030612 8
40.667801 1.3767891 12.157166 12
40.513542 1.5607097 12.727996 12
40.778652 2.0628495 13.07643 13
40.832653 1.9576457 11.856527 12
40.816078 2.2988777 12.172193 12
41.061024 2.9702039 13.12452 13
40.855087 2.6582663 16.400845 15
41.446548 4.2165236 17.225426 15
42.222095 7.6375818 3.810344 6
42.272774 7.103756 4.3645473 6
42.284199 6.7830162 4.6656904 7
42.382027 7.0184207 5.5395608 7
42.198254 6.9465075 6.6366348 8
42.22094 6.2272387 12.52798 12
42.238209 6.7843876 12.513697 12
42.322674 7.2181268 12.558486 12
42.950508 -1.7557325 12.382754 12
