# .PCD v0.7 - Point Cloud Data file format
VERSION 0.7
FIELDS x y z intensity
SIZE 4 4 4 4
TYPE F F F F
COUNT 1 1 1 1
WIDTH 340
HEIGHT 1
VIEWPOINT 0 0 0 1 0 0 0
POINTS 340
DATA ascii
-6.7155881 3.7805834 1.4254348 9
-6.6855354 3.795171 1.8369404 10.4
-6.6484389 3.7481751 2.2156405 11.6
-4.0848022 2.7421358 -0.089311376 3
-4.0617971 -1.6129459 2.1215196 17
-3.8546486 2.9981799 -0.067747936 3
-3.7533269 2.5838728 0.28671849 5
-3.7576003 2.5785146 0.55455077 6.8333335
-3.9028211 2.5322044 0.95169091 9
-3.672272 -1.830844 1.9375899 17
-3.8094151 -1.7055422 2.1295595 17.5
-3.9669504 -1.5398474 2.2825243 18
-3.7182257 -0.75551748 2.3738391 20
-3.8363802 -1.1921626 2.5165136 20
-3.2488945 -2.1779048 1.1586936 12
-3.3710918 -2.0886984 1.3550804 13.125
-3.5288768 -2.011775 1.658631 15
-3.5001907 -1.9749526 1.9351299 17
-3.3725402 -2.085463 2.1982813 18.571428
-3.4128852 -1.8171619 2.2776217 19
-3.3640673 -1.5743235 2.3342667 20
-3.2363408 -0.59495032 2.3515525 22
-3.2593853 0.304472 2.3638153 22
-3.2287388 0.41230363 2.3515747 22
-3.361764 -1.7674457 2.4771225 20.5
-3.3019502 -1.5960509 2.5196106 21
-3.2274849 0.32077345 2.4515698 22.666666
-2.9050872 -2.3431981 -0.091976754 2.5
-2.8580952 -1.9162607 -0.16928934 2
-2.8150399 -2.0563259 0.33173871 6
-2.848402 -1.9537839 0.21111357 5
-3.0445907 -0.46384504 0.036570631 4
-2.811331 2.2972829 0.097825415 4
-2.840744 -1.9260018 0.52371472 8
-2.8653336 -2.470531 1.1378028 12
-3.0776849 -2.2956166 1.0162796 11
-2.893369 -2.4967299 1.4098701 14
-3.0699139 -2.3488538 1.364248 13.5
-2.8712919 -2.5144281 1.7741107 16.6
-2.8496156 -2.550921 2.1108203 18.5
-2.9633152 -2.2534363 2.2488732 19.5
-3.0533919 -1.8589315 2.3599789 20.75
-3.086904 0.62504452 2.3682258 22.6
-2.9110935 0.92403477 2.3621535 23
-2.9264235 -1.7605361 2.5164249 22
-2.9806073 0.3461473 2.5535989 24
-3.0287335 0.57628661 2.4844191 23.571428
-2.8614526 0.90434623 2.4061575 24
-2.5804634 -2.6173651 -0.078450464 2.6666667
-2.6210649 -2.1109307 -0.045388047 3
-2.6493626 -1.4716192 -0.07107012 2.75
-2.4511251 0.46769899 -0.0063315271 3
-2.41449 1.7982812 -0.17117579 2
-2.5992782 2.2362821 -0.16414912 2
-2.4676273 2.4446328 -0.16510201 2
-2.6435528 -2.1534767 0.16764122 4.5384617
-2.6873403 -1.8159711 0.079971358 3.75
-2.6452668 -1.5526115 0.15952308 4.6666665
-2.6268075 2.3713636 0.20353016 5
-2.7374036 -2.1406972 0.5018484 7.75
-2.7904532 -1.9769337 0.49147981 7.5
-2.61678 2.370733 0.53619838 8
-2.4624553 2.49527 0.97040528 11.5
-2.6832364 -2.6574497 1.4290662 14.111111
-2.6332121 -2.7049789 1.7908908 16.799999
-2.727268 -2.5868647 2.170099 19
-2.547024 -2.2748563 2.3534882 21.333334
-2.5285356 -0.83686715 2.3553035 25
-2.5225644 -0.59761089 2.3396273 25
-2.7371714 1.0993943 2.3623879 23.5
-2.5861361 1.3520616 2.3550851 23.5
-2.6642675 -2.4129076 2.4358263 21
-2.7285166 -2.041353 2.5194163 22
-2.7629278 -1.9924157 2.5187364 22
-2.4467957 -0.8776539 2.5102479 26
-2.4876666 -0.57349837 2.477298 26.333334
-2.4312477 -0.22068505 2.5292604 27
-2.4568257 0.19618906 2.5303149 27.333334
-2.4847381 1.3281436 2.4444218 25
-2.2668951 0.56586987 -0.031300373 3
-2.229846 2.5545688 -0.066724822 2.75
-2.0930059 3.5349982 -0.05991029 3
-2.0720313 -0.12259048 0.22511898 6.5
-2.0130391 0.84492505 0.10943037 5
-2.2510648 2.5917051 0.18591808 4.9000001
-2.0670373 -0.14891279 0.50404924 10.5
-2.2198966 2.6210632 0.59614772 8.5
-2.3662848 2.4308975 1.1759127 13
-2.2225156 2.6096277 1.293125 14.25
-2.1392205 2.7254179 1.9439862 19
-2.2793014 0.61572397 2.3685529 27
-2.3791735 1.5598613 2.3437994 24
-2.2238307 1.7855748 2.3708665 24.166666
-2.1692421 2.1781831 2.2817874 22.5
-2.1494992 2.6638052 2.0869765 20
-2.3279243 -2.2018442 2.5213435 23
-2.1635754 -1.2199162 2.5197117 27
-2.1655297 -0.96250308 2.529633 27.6
-2.2171605 -0.59412974 2.5329432 28.285715
-2.1581547 -0.22912471 2.5391991 29.142857
-2.1330504 0.1733665 2.5415163 29.333334
-2.2069368 0.63359362 2.5427144 28
-2.2225404 1.5455105 2.4828222 25.5
-2.1220381 1.7028173 2.480125 25.333334
-1.8023661 -1.757354 -0.16248551 1.3333334
-1.9156101 -1.4068234 -0.19147994 1
-1.924421 -1.0295531 -0.11727961 2
-1.6889762 0.39117068 -0.026245702 3
-1.6244359 0.47911847 -0.036852196 2.5
-1.8158734 1.0229295 -0.093352765 2
-1.8460897 2.3769553 -0.16200885 2
-1.7893827 2.5470312 -0.10272817 2.5
-1.8851154 -0.96132046 0.29946876 7.5
-1.8159373 -0.5941174 0.3172518 8.1999998
-1.9282403 -0.29202372 0.2367799 6.8333335
-1.8095136 0.26332283 0.18882921 6.4444447
-1.6812648 0.50847924 0.17406283 6.3000002
-1.9331419 0.96241647 0.15309079 5.5
-1.9435651 2.6439371 0.19195266 5
-1.8599137 -0.96591884 0.41672173 9
-1.8302802 -0.65861434 0.48820341 10.571428
-1.9266559 -0.2273065 0.57435375 11.666667
-1.8072021 0.26732564 0.56501526 12.25
-1.6610662 0.43312442 0.57503933 13
-1.8182682 2.7462268 1.1141664 13.25
-1.8221188 2.8545909 1.1027204 12.333333
-1.794607 2.8619637 1.3403922 14.666667
-1.6519866 2.9013073 1.8412533 18.333334
-1.8430367 0.31915224 2.372061 30.5
-1.874823 1.0742798 2.3711469 28
-1.8464861 1.7437247 2.3671088 25.799999
-1.9972564 2.0060441 2.3529184 24
-1.605129 2.7957523 2.1690819 21
-1.6018716 2.8568087 2.0420895 20
-1.6649367 -1.698489 2.5249596 27.5
-1.658358 -1.3842732 2.5322595 29
-1.7902795 -1.01763 2.5357766 29.875
-1.8852881 -0.64358908 2.5426254 30.6
-1.9597141 -0.25893322 2.5453644 30.666666
-1.9691476 0.20027259 2.5341198 30.666666
-1.7789315 1.4428831 2.5616493 28.25
-1.8754405 1.6852375 2.4423962 26.5
-1.5355312 -1.8024801 -0.11559506 2
-1.340072 -1.4415983 -0.18953186 0.33333334
-1.5723207 0.48923945 -0.044718985 2.5
-1.5486875 1.1354117 -0.17412595 1
-1.43002 1.3982748 -0.16890128 1
-1.5184939 1.8588368 -0.16902009 1
-1.5593579 -1.771884 0.23339392 6
-1.585757 0.52723277 0.2016034 6.8333335
-1.4692281 -1.6345381 0.47088149 9.5
-1.4305487 -1.5907546 0.59887952 11
-1.5847332 0.51440465 0.57032418 13.166667
-1.21113 -1.6202842 2.3834271 29
-1.2398448 -1.5969748 2.3829162 29
-1.2532563 1.5769404 2.3769891 29
-1.2482086 1.7855937 2.2619243 27.4
-1.3417649 2.6551237 2.166775 22
-1.5416214 2.8308287 2.1700964 21
-1.5966444 -1.6265053 2.5298576 28
-1.5101417 -1.3725934 2.5343874 30
-1.5826708 -1.1849349 2.5371838 31
-1.5488287 1.4931381 2.567925 29.5
-1.010316 -1.7230253 -0.18311127 0
-1.0222522 -1.462553 -0.11269685 1
-0.99846309 0.99293113 -0.16538273 0
-0.96340919 1.5345819 -0.1626306 0.66666669
-0.97351986 -1.4683448 0.028939852 4
-0.83545011 -0.97238952 0.56573302 15.5
-0.94344354 -1.7830554 2.386245 29.166666
-1.070628 1.7746137 2.2336829 27.857143
-1.0224171 2.1387937 2.1602118 25.333334
-1.1567848 2.5287669 2.2247901 23.333334
-0.82353628 -1.7966367 2.4108083 30
-1.144852 1.7312367 2.4170289 29
-0.4406915 -1.8184456 -0.002830222 3
-0.65356779 -1.4509035 -0.04686702 2.5
-0.52554697 -1.0430132 -0.046568234 2
-0.42599443 -0.50966293 -0.032166243 2
-0.65115571 1.1506672 -0.056955706 2
-0.66572821 1.2542096 -0.024944687 3
-0.43016896 -1.8010306 0.19540586 6.4285712
-0.50738543 -1.5282108 0.0626726 4.5
-0.58920211 -0.9045046 0.26005629 10.545455
-0.6555146 -0.7976411 0.30385292 12
-0.69245714 1.1611615 0.047037117 4
-0.49047256 -0.64033341 0.49774849 20.200001
-0.52017063 1.5342559 1.1423675 21.5
-0.50362808 1.5197692 1.2351186 23
-0.75087517 -2.0175257 2.3851397 28
-0.76642287 -1.8631276 2.3893416 29.5
-0.7709263 1.7589476 2.1479325 28.5
-0.7834419 -1.8277689 2.4235773 30
-0.3486205 -1.8154449 -0.11180296 1
-0.2108712 -1.3650864 -0.053674839 1.875
-0.21135952 -1.1002709 -0.042141117 2
-0.33979353 -0.50990295 -0.022824209 2
-0.19325502 0.97062993 -0.035647709 2.1428571
-0.23019733 1.3910345 -0.11359756 0.5
-0.2883966 1.7663807 -0.15982042 0.66666669
-0.27228028 -1.8734171 0.31671539 8.25
-0.20543236 -1.3584478 0.074890159 4.8571429
-0.20054492 -1.0704356 0.19730887 8.583333
-0.27243409 -0.5363462 0.20880717 12.947369
-0.15295692 0.9824627 0.2156622 9.434783
-0.19160348 -1.9189761 0.4579711 10
-0.17285858 -0.59271675 0.52945566 24.304348
-0.11511458 0.97851938 0.46020001 16.333334
-0.16129789 1.4110217 0.99454004 21.700001
-0.18404582 1.415013 1.2643524 25.166666
0.21048482 -0.9993692 -0.027228864 2.3333333
0.27278459 0.7383619 -0.04057252 1.8
0.16478221 0.84492993 -0.030663494 2.2
0.17720063 -1.0225276 0.059300888 5
0.30032393 0.75824535 0.35434997 15.5
0.16689165 0.87555659 0.1469633 8
0.3397204 -0.84395009 0.49844894 18.285715
0.10372389 -0.73068088 0.55092132 22.416666
0.3397015 0.7326619 0.53317177 20.666666
0.10856878 0.85164374 0.44027627 17.5
0.16964029 0.97208929 0.97137564 26.6
0.51282603 -1.2199839 -0.085685737 1
0.52019107 -0.89974761 -0.040627316 2
0.63536572 0.57500166 -0.047537118 1.5
0.43336451 0.81998146 -0.060145773 1
0.46724749 -0.98546565 0.165048 7.4444447
0.6413722 0.57966441 0.16918649 8.8965521
0.44192064 0.80680019 0.065020353 5.5
0.79493266 -2.8466072 0.68697029 10
0.41684341 -0.98962158 0.40769616 14
0.65564543 0.56473446 0.58797526 20.8125
0.78316402 -2.7936947 0.85794806 12
0.67128074 0.51403719 0.82115549 27
0.46265581 0.904217 1.0383606 27
0.73983371 -2.9054358 2.2342153 22.5
0.72380573 -2.5788145 2.3551304 25
0.74822593 -2.28982 2.3680191 26.5
0.6692977 -2.4016237 2.4837718 27
0.65292591 -2.1648166 2.5332499 28.333334
0.7453053 -1.9496298 2.5603235 30
0.91347599 -1.6767149 -0.12235961 1
1.0177609 -1.3764296 -0.089846395 1.6363636
1.1240994 -1.0942695 -0.091115341 1.5
1.0035266 0.3136819 -0.065372795 1.5
0.81655663 0.4517771 -0.054400619 1.5
0.9105494 -1.6857188 0.039642099 4
0.97944254 -1.3867934 0.15384208 6
1.1515118 -1.0748791 0.13543651 5.7142859
1.0202121 0.30922771 0.074780464 5.3076925
0.82316351 0.47358102 0.17208831 8.4444447
0.80071592 -2.8304844 0.74996763 11
0.89620435 -2.7017367 0.70271778 10.5
0.95917797 0.31024167 0.72901112 21.5
0.81078255 0.49134517 0.62898749 20.5
0.83831441 -2.7343981 0.82955301 12
0.96124846 0.3480016 1.0066028 26.166666
0.88128459 0.43344697 1.0324638 27
1.1299586 0.22944282 1.3672954 29.1
1.0411376 -2.4763865 2.2120264 24
0.99751866 -2.1924984 2.3593271 26.333334
1.0789253 -1.841542 2.3720593 28.200001
1.1680034 -1.5759599 2.3813057 30
0.87278748 -2.0923808 2.4090931 28
0.94723791 -1.8605561 2.5359323 29.5
1.2863158 -1.0429418 -0.1237383 1.1666666
1.3090878 -0.51596844 -0.16409124 0
1.4414797 -0.1386085 -0.095607296 1.25
1.3284296 0.15035588 -0.041660298 2.3333333
1.2197829 -1.0538481 0.14356822 6
1.3745313 0.0793714 0.11458544 5.7692308
1.3113769 -2.1656287 0.64650404 10.75
1.4760296 -1.8549293 0.67839986 11.5
1.5868024 -1.5395453 0.66440481 12
1.4825199 -0.053734832 0.50929087 13
1.4891986 0.0022065225 0.57176799 14
1.3418318 -2.1337135 0.99655604 14.571428
1.4962114 -1.8201718 0.9937309 15.235294
1.3059376 0.15238126 1.0397065 23
1.3123896 -2.1689258 1.4442296 18.875
1.4916253 -1.8216107 1.4223804 19.5
1.4243978 -0.022954309 1.3355826 25.5
1.3477333 0.046427496 1.3727127 26.6
1.3314402 -2.1346653 1.7679229 21.799999
1.4969357 -1.8111714 1.7823296 22.714285
1.5901481 -1.558028 1.8649127 24
1.3026894 -2.1482008 2.2054253 25
1.4514973 -1.7648084 2.24933 26.375
1.4090078 -1.4578048 2.3170841 28.583334
1.5188142 -1.0468221 2.3772874 30.4
1.2300377 -1.409228 2.4141953 30.5
1.8754112 -1.3093734 -0.060370412 2.3333333
1.7371284 -0.92445368 -0.16373794 1
1.6692908 -0.50813687 -0.15942755 0.66666669
1.7353145 -0.26669618 -0.082662404 2
1.6083547 -1.1710428 0.022789504 4
1.7759804 -0.27510491 0.16499361 6
1.6486056 -1.4128 0.61407644 11.444445
1.6515322 -1.4565172 0.97034067 15.8
1.6539327 -1.4164269 1.3550618 19.833334
1.6318858 -1.6329983 1.7964573 23
1.6596675 -1.4142479 1.8083694 24
1.6950883 -1.3503529 2.2102668 26.875
1.756707 -0.97884023 2.3118348 28.615385
1.9054078 -0.60822594 2.3325658 28.875
1.8942351 -0.15659925 2.3846452 29.75
1.8240582 0.11796215 2.3476982 30.25
1.8288975 -0.5292908 2.4051561 30
1.7493235 -0.22808807 2.4014947 31
1.7692794 0.027923752 2.40239 31
2.3274889 -0.85139495 -0.046836793 2.5
2.1393158 -0.60065037 -0.075170666 2
2.3160038 -0.85456413 0.19653681 5.5
2.3352249 -0.69649506 0.2411252 6
2.3257163 -0.87129056 0.66111976 10.8
2.3059831 -0.79711396 0.42798287 8
2.3199232 -0.92833561 0.97195476 14.166667
2.323086 -0.94502228 1.4164835 18.5
2.2839475 -0.85018146 1.7899926 22
2.2850766 -0.96879292 2.1353028 24.6
2.1374509 -0.49574789 2.1896906 26.5
2.112175 -0.26695609 2.2120979 27.25
2.4982939 -1.629406 -0.053631973 3
2.5524116 -1.3189896 -0.067212358 2.5
2.5010097 -1.1316273 -0.05730281 2.5
2.5477679 -1.2363976 0.2125483 5.5
2.5147433 -1.1360166 0.16845532 4.75
2.548964 -1.2910892 0.60741925 9.4285717
2.5314698 -1.3075657 0.94927388 13
2.5284214 -1.240449 1.3316242 16.25
2.7114518 -1.3962204 1.9903908 21
2.457402 -1.1712395 1.9641911 22
2.5820239 -1.3947258 2.1199713 21.6
2.4573278 -1.1691902 2.0521903 23
2.9601011 -1.7247372 -0.15737846 2
3.0705345 -1.5768512 -0.053375762 3
3.0369618 -1.724533 0.24065849 5.5
3.0361578 -1.7141135 0.54540467 8
3.0424492 -1.6964829 0.93340176 11.25
3.0087898 -1.9025778 1.9102049 18
2.975466 -1.8984666 2.0983543 19.333334
