# .PCD v0.7 - Point Cloud Data file format
VERSION 0.7
FIELDS x y z intensity
SIZE 4 4 4 4
TYPE F F F F
COUNT 1 1 1 1
WIDTH 99
HEIGHT 1
VIEWPOINT 0 0 0 1 0 0 0
POINTS 99
DATA ascii
-15.457583 3.8057718 16.919144 28
-14.985457 1.375742 0.5449357 4
-14.812531 3.5266335 17.275991 29
-14.19617 5.0766273 16.998421 29
-13.47348 4.3257203 17.591997 30
-6.7321877 -1.5840762 0.25926104 4
-4.0172615 -1.7591001 0.087395884 4
-4.0084453 0.85964483 0.13750158 4
-4.0258379 0.71836692 1.2192372 12
-3.9744337 0.87160587 0.23053521 5
-3.0115163 1.4390029 -0.064359345 3
-2.9160879 -1.5692369 0.14071701 5
-2.8288627 1.1980351 0.095452137 4
-2.8652458 -1.5313654 0.25186071 6
-2.8219898 1.1489489 0.24389429 5.5
-2.9652038 1.5489117 0.20774502 5
-2.8624949 0.96772796 0.47912824 8
-2.7913232 1.0028626 0.39321023 7
-2.7187684 1.1968483 0.55549216 9
-2.7396555 1.2488773 0.49054241 8
-2.478966 2.6658247 -0.0011988799 3
-2.4449258 2.6448436 0.10780175 4
-2.5171063 2.6479495 0.34082299 6
-2.5582957 2.6190209 0.54884982 8
-2.3737597 2.6288445 0.23078725 5
-2.251519 2.5838449 0.41777232 7
-2.180198 -2.0012765 2.9689095 27
-2.041584 -1.9150122 3.0291669 28
-1.6221294 2.3492448 0.34369856 7
-1.6783056 2.3436086 0.82372618 12
-1.6923383 -2.0491295 2.7108996 27
-1.612691 -1.9780885 2.7871385 28
-1.3925353 -2.360244 2.7046571 27
-1.2803464 -2.1921301 2.8033195 28
-1.1607424 2.1835473 0.42464271 8
-0.91801727 -1.8831689 0.34561154 8.5
-0.68304402 2.0007849 -0.0053936481 3
-0.6875869 1.9874431 0.10162639 4.5
-0.48104498 1.9214898 0.35860151 9
-0.51988196 1.9265316 0.51928359 11
-0.43371731 1.9027909 0.7036019 14
-0.21675141 1.8259339 0.14059195 6
-0.20671549 1.8069988 0.20761789 7
-0.33725205 1.7313311 1.9448117 28
-0.0054940451 1.7440906 0.33560485 9
-0.096014597 1.7638152 0.44562581 11
-0.10798234 1.7565244 0.80664682 16
0.081909992 1.7228628 -0.007411886 3
0.10820169 -1.7839787 0.13965894 6
0.068233304 1.7418315 0.097226277 5
0.057878464 1.7330519 0.25908449 7.5
0.022705209 1.7340748 0.41560602 10
0.063394241 1.7061293 1.5766369 26
0.39436898 -1.5375246 -0.096054174 2
0.34825259 2.0942652 -0.010426329 3
0.28595918 -1.7870922 0.12013964 5
0.27084795 -1.784826 0.23319244 7
0.33428365 2.0715756 0.31613854 7.5
0.28610411 2.082798 0.50866657 10
0.48442447 -1.8804313 -0.010793309 3
0.54591256 -1.5146868 -0.10535903 2
0.52443683 -1.8952003 0.021045296 4
0.53260851 -1.7998385 0.17744631 6
0.49636805 -1.8550671 0.32329202 8.5
0.41069111 2.0793424 0.20253816 6
0.40908596 2.1081133 0.95447874 16
0.60142815 -1.9763439 2.1975224 28
0.83396339 -1.9028074 1.8473566 25.5
1.3688462 4.112915 4.6255841 28
1.5460422 3.9521334 0.49459198 7
1.4012439 4.2708321 4.6291842 27
1.6921479 3.7158058 0.38985422 6
2.2188165 -1.4718126 2.4032886 25
2.3177481 4.1894655 4.632638 26
2.5204051 3.480001 4.5409904 28
2.6677833 3.5463738 4.2395749 26
2.992785 -0.75661105 3.1070998 27
3.0614288 -0.79058921 2.9159584 26
3.081567 -1.80791 3.6278479 27
3.4181385 -2.0316286 0.40272975 6
3.6580076 4.5112739 0.40318495 5
3.701973 4.6306396 0.49103531 6
3.6890368 4.5636849 0.81222624 7
3.6091881 4.4707189 1.0017323 8
3.9960563 4.1374478 0.84048623 7
4.2987456 4.0868282 0.67725486 6
4.6314707 3.9710772 0.43238127 5
4.7978592 3.8561633 0.66137725 6
4.73805 3.9218316 1.0700201 8
5.2088323 -1.2398232 0.77164215 8
5.2735119 3.6906085 0.83124304 7
5.4390707 8.8245106 0.88595319 6
10.333984 -0.54590964 0.62167054 5
11.099906 -1.7912872 3.1722083 12
11.226349 -1.8205228 2.450155 10
11.791184 0.30431449 3.1070933 11
12.054345 0.37418011 2.5990889 10
37.905907 -6.0790906 16.990475 16
38.275482 3.7961493 17.607811 16
