# .PCD v0.7 - Point Cloud Data file format
VERSION 0.7
FIELDS x y z intensity
SIZE 4 4 4 4
TYPE F F F F
COUNT 1 1 1 1
WIDTH 240
HEIGHT 1
VIEWPOINT 0 0 0 1 0 0 0
POINTS 240
DATA ascii
-4.1818891 1.218785 1.5443157 14
-4.1330194 1.2252728 1.7373457 15
-3.8877809 1.3151729 1.1124784 11
-3.8825541 1.4111242 1.2354515 12
-3.8790629 1.607767 1.3763925 13
-3.8819184 1.4145095 1.792451 16
-3.8003123 1.6271871 1.67344 15
-3.8381233 -1.1201482 2.3675418 20
-3.8116572 -1.9456339 2.5290644 19
-3.7942812 1.5144362 1.5274785 14
-3.7820249 1.6036918 1.9854592 17
-3.7778358 -2.2791545 2.3363137 18
-3.6116362 -0.33940288 2.3632843 21
-3.6112421 -1.7305297 2.5210574 20
-3.496855 -0.24846219 2.4213154 22
-3.2455122 -0.70256215 2.3416922 22
-3.3439128 0.39314753 2.3441489 22
-3.3959429 0.44114387 2.3420978 21
-3.2082658 -0.63988584 2.5276833 23
-3.0650339 0.86958265 2.3546662 22.5
-3.0944827 -2.0301471 2.5166087 21
-3.0211418 0.52006859 2.5393114 24
-2.6076756 -2.9397535 0.2596738 5
-2.6435318 -2.388869 0.62719882 9
-2.6991069 1.2833308 2.2472894 23
-2.6303351 -0.52226299 2.4009874 26
-2.4973567 -2.6631992 0.27352983 6
-2.5192201 -2.6154938 0.43147397 7
-2.5474541 -0.93840706 2.3252621 25
-2.5928729 -0.45874935 2.35198 25
-2.5742188 1.1235919 2.3454199 24
-2.5018361 -2.4152093 2.5263267 22
-2.4348972 -2.3529308 2.5233269 23
-2.4600358 -0.92374861 2.5113096 26
-2.2057159 0.41208991 2.3628783 28
-2.3376527 1.2989323 2.2405365 24
-2.3261907 0.20020843 2.5468721 28
-2.2758741 0.58569747 2.542778 28
-2.1969438 0.7595281 -0.052220359 3
-2.0687618 -0.58109462 0.18036801 6
-2.1515183 -0.2465656 0.11615773 5
-2.1516778 -0.24541029 0.32515711 8
-2.1153402 -0.17270908 0.44714889 10
-2.1446753 -0.23483458 0.736157 13.5
-2.1490452 -0.24395204 0.84715831 15
-2.0413158 1.3307441 2.1197371 25
-2.0279183 1.2617766 2.2727644 26.5
-1.8551447 0.27697152 0.10781661 5
-1.8958808 -1.0659133 0.29525945 7.5
-1.8899478 -0.92278802 0.23717321 6.5
-1.9632432 -0.65062803 0.37247068 9
-1.9019551 0.19548583 0.31014597 8
-1.8785547 -1.0119617 0.41573614 9
-1.9498074 0.10320011 0.50414675 11
-1.8476481 0.27143511 0.57315665 12
-1.8768175 -0.83040589 0.67162651 13
-1.9102283 0.177549 0.71664679 14
-1.8427767 0.27567729 0.68715852 14
-1.9167931 0.26973525 2.3621125 30
-1.8106086 1.2282187 2.3519285 28
-1.9907118 0.46492743 2.5500035 30.5
-1.798866 0.36036795 0.39216149 10
-1.6008148 0.8693006 0.2281654 7
-1.7185562 1.2569022 0.88648796 15.5
-1.7248597 1.2570298 1.4029834 21
-1.4809171 0.86335641 0.1642531 6
-1.5646068 0.86927533 0.27519143 8
-1.4230165 -1.4932683 2.5398965 30.5
-1.2058892 0.87856591 0.24745262 8
-1.2312078 0.87901646 0.41143352 11
-1.1713938 0.85736161 0.3054831 10
-1.1862136 -1.6742775 2.3857281 29
-0.89826769 0.84386307 -0.056104101 1.8
-0.95069486 0.83095628 0.06865751 5
-0.94078338 -1.0406759 0.36689004 11.5
-0.85664958 0.82809317 0.42473209 14
-0.95293331 0.82184857 0.6656577 18
-0.92192328 0.85089695 0.97867632 24
-0.8893767 0.89387143 1.037693 24
-0.94609398 0.81034243 1.3656656 29
-0.92467558 0.78578705 1.4136868 30
-0.60329115 0.79264975 -0.04905564 2
-0.62511659 -1.4855081 0.026025824 4
-0.798473 -0.63728607 0.10419245 6
-0.78021652 0.97722751 0.090762131 5.3333335
-0.78180736 -0.64668107 0.30154267 12.666667
-0.68134236 0.81955147 0.50154179 17
-0.66528046 0.8101545 0.67539006 20.5
-0.696491 0.82279754 1.0298622 26.666666
-0.7625702 -1.8496411 2.3962455 30
-0.4830201 0.79228085 -0.017955037 3
-0.45001668 -1.0635411 0.18178686 8
-0.40463862 -0.5333882 0.14786749 10
-0.53713155 0.79068667 0.12049995 7
-0.41683978 0.8127377 0.12809604 8
-0.41545352 -1.0833375 0.20383425 9
-0.53725386 -0.62837952 0.51835376 20.666666
-0.45838735 -0.49007291 0.55130392 25
-0.54645801 0.77772337 0.68299514 22.5
-0.56616384 0.80702692 1.0269727 28
-0.47137663 -1.9753109 2.4126387 30
-0.26389784 -0.94602442 0.092085503 6.25
-0.39206561 -0.52151436 0.077366374 7
-0.23755245 0.79606354 0.1562506 9
-0.37679532 -0.95620012 0.28024936 11.5
-0.34140217 -0.55142403 0.29727945 16.714285
-0.23397009 0.77218664 0.33292693 15
-0.21041714 -0.63307637 0.46758512 22
-0.31342086 -0.55435938 0.52427793 24.666666
-0.287094 0.75090492 0.72347122 25.5
-0.38552096 -1.9931124 2.3997412 29
-0.18966873 -0.97031081 0.11492467 7
-0.017496316 0.91829652 0.052383803 5
-0.15215133 0.7685169 0.35132924 16
-0.0743917 0.9262802 0.2826719 12
-0.13685349 -0.64923435 0.52215832 23.5
-0.1480936 0.94566 0.522277 18.5
-0.066023655 0.77487892 0.68239653 25
-0.072520822 0.80078799 0.66838288 24
-0.10566443 0.97747874 1.038299 28
-0.094819374 1.0096327 1.0402962 27
0.19332412 -0.6713506 -0.015000588 3
0.16450356 -0.67336619 0.11560613 8.3999996
0.11266223 -0.66360611 0.27402377 14.857142
0.11914621 -0.74541503 0.50049645 21
0.19638668 0.75160491 0.56059277 22
0.099781454 0.81875145 0.46250299 19
0.11778393 0.75190485 0.64903921 24.5
0.053775966 0.86640584 0.88845348 27.5
0.23897998 -0.8959657 -0.01741354 2
0.39125767 0.79178506 -0.019314168 3
0.25184265 -0.93819892 0.065053359 5
0.20120214 -0.67642987 0.042996071 5
0.31358206 0.76333046 0.17565651 9.5
0.32805783 0.74673331 0.28667051 13
0.30619642 -0.83869445 0.53075904 22.25
0.25678003 -0.79810178 0.53994912 21
0.32399011 0.72740763 0.49567658 20
0.54385281 -0.91071641 -0.041122269 2
0.53151625 0.63080662 -0.079192691 0
0.48176509 -0.98062044 0.052863639 5
0.54773968 0.63189644 0.14881286 8
0.43755707 0.87224346 0.11167756 7
0.5139007 0.61879104 0.34680513 15.5
0.51402086 0.84556437 0.21022192 9.5
0.40592471 -0.88963473 0.45389903 16.5
0.46903443 0.66818219 0.44743437 18.333334
0.59013671 0.5557074 0.7258535 25
0.49119741 0.60675544 0.72480106 26
0.40594724 0.91238731 1.0456471 27
0.59853899 -2.5778663 2.3473365 25
0.51804847 -2.577178 2.5593429 26.333334
0.52185249 -2.1189516 2.5594959 29.5
0.79270113 0.47427434 -0.086074293 0
0.74717271 -0.8225708 0.34888667 12.5
0.75922441 -0.63913 0.32193163 13
0.65170747 0.55170828 0.33437243 14.5
0.7119295 0.48387533 0.76140523 25
0.69532716 0.7548961 0.63982058 20
0.64769417 0.52562302 0.82187957 27
0.75866997 -2.3460393 2.5514054 27
0.85908133 0.43804419 -0.056055084 1
0.82994545 -0.61198193 0.10033371 6
0.81289846 0.47330552 0.13492957 7
0.9053809 -0.6180709 0.20192872 9
0.83321482 0.44953328 0.69893843 22
0.89113873 -2.8230777 0.88723934 12
0.89082515 0.4415257 1.0466151 27.333334
0.99465549 0.5067715 1.3939506 30
0.99667501 0.45436072 1.4059603 31
0.90240455 -2.0154936 2.3815095 28
0.87307924 -1.9502546 2.5700326 29.5
1.043754 -0.61909211 -0.033076886 2
1.0959026 -0.61811119 0.12225504 6
1.1312521 0.3584767 0.11598671 6
1.1390023 0.31213859 1.0409918 25
1.0305532 0.47351483 1.3679612 29.5
1.1068155 -2.6201577 2.0818019 22.5
1.0830592 -2.5494349 2.2253261 24
1.0599756 -1.7516941 2.3815923 29
1.1587402 -1.5202821 2.3826654 30.5
1.2872837 0.19101137 -0.0069946935 3
1.3488092 -0.63423455 0.0049122968 3
1.2623043 0.1859668 0.091004632 5
1.2838296 0.2586166 0.068502806 5
1.3746005 -0.67232299 0.5371533 13.5
1.3277498 0.23442914 0.52200556 14
1.2945082 -2.2235794 0.74943322 12
1.3677806 -0.9817431 0.79482478 17
1.3839346 -0.76931304 0.74388009 17
1.3288112 -2.2017286 0.97344029 14
1.3350289 -2.1776721 0.87844831 13
1.3068869 -1.5967226 0.90163964 16
1.3602297 -1.1718677 0.9197706 18
1.3667961 -0.97974026 0.87282538 18
1.3799331 -0.73406398 0.82788879 18
1.2336353 -2.4067531 1.032372 14
1.321268 -1.8125759 1.0745696 17
1.3413489 -1.1537631 1.0397761 19
1.345313 -2.1577594 1.318455 18
1.3928057 -0.97579801 1.391826 24
1.3549415 -0.95465344 1.4808325 25
1.3214253 0.25414813 1.4150047 27.5
1.221752 -2.4048235 1.6113728 19
1.2676802 -2.322901 1.6924 20
1.3030064 -1.9726319 1.6385167 21.5
1.349225 -1.7064278 1.790604 24
1.3237417 -2.231029 2.0844305 24
1.2824435 -2.1546867 2.2494564 25
1.2576784 -1.9079223 2.3695383 27
1.3119471 -1.6190754 2.2256322 28
1.3157554 -1.5016201 2.3016698 29
1.3176718 -1.3479393 2.3782177 30.5
1.4016438 -0.62112683 -0.055085696 2
1.5854224 0.028068207 -0.030493384 2.5
1.4555438 -0.63121098 0.045911267 4
1.5772382 0.046737757 0.015007677 4
1.4642835 0.067935131 1.4130074 26.333334
1.5853947 -0.63637739 1.7979085 28
1.751981 -0.63925087 0.12290633 5
1.6986481 -0.63933414 1.1764069 20.5
1.6482726 -0.63938791 1.7529073 27
1.6535714 -0.32215634 2.1844671 30.5
1.6853211 0.13965069 2.182514 30.5
1.8079526 -0.64132768 1.0969056 19
2.1833651 -0.29824269 0.015968656 3
2.0124259 -0.28013521 0.58497196 12
2.1619186 -0.34131876 0.89562827 15
2.0441685 -0.66500175 1.4518989 21.5
2.1535449 -0.66449326 1.7348987 23
2.0589013 -0.030872623 2.1680045 28
2.374218 -0.66334128 -0.014101482 3
2.2919564 -0.49291268 -0.068066172 2
2.3662264 -0.66132998 0.062898979 4
2.3052914 -0.65429831 0.34890056 8
2.3192642 -0.64068967 0.50940359 9.5
2.2983274 -0.65835917 0.82789981 13
2.294322 -0.64224142 1.1449033 17
2.2354686 -0.66550428 2.0918982 25
2.3908043 -0.44555753 2.1349428 25
