# .PCD v0.7 - Point Cloud Data file format
VERSION 0.7
FIELDS x y z intensity
SIZE 4 4 4 4
TYPE F F F F
COUNT 1 1 1 1
WIDTH 902
HEIGHT 1
VIEWPOINT 0 0 0 1 0 0 0
POINTS 902
DATA ascii
-2.112 -1.586 -0.20200001 0
-2.0645974 -1.5511038 -0.20102389 0
-2.055047 -1.3386072 -0.20975983 0
-1.9467504 -1.2683016 -0.20568416 0
-1.8714066 -1.219389 -0.20284863 0
-2.017 -1.115 -0.20100001 0
-1.7960628 -1.1704762 -0.20001312 0
-1.9822028 -1.0952387 -0.20008712 0
-3.122 -0.54799998 -0.20100001 0
-1.67 -2.1530001 -0.191 0
-1.6234415 -2.0925603 -0.19022402 0
-1.5686146 -2.0213869 -0.18931024 0
-1.5137877 -1.9502136 -0.18839647 0
-2.2667882 -1.857106 -0.16779444 0
-1.4315476 -1.8434535 -0.18702579 0
-0.55799997 -1.8275 -0.1145 0
-0.352 -1.816 -0.112 0
-2.1393137 -1.7533432 -0.17215741 0
-1.823 -1.762 -0.19400001 0
-1.7640467 -1.7039652 -0.1915784 0
-1.3493073 -1.7366935 -0.18565512 0
-1.081 -1.7079999 -0.189 0
-0.57108337 -1.7548416 -0.11078222 0
-0.4825567 -1.7584233 -0.12165208 0
-0.3353101 -1.7269871 -0.10443026 0
0.85500002 -1.7265 -0.142 0
-2.6718893 -1.6683449 -0.1006739 0
-2.594167 -1.6215086 -0.10325543 0
-2.0248706 -1.6432896 -0.18786429 0
-1.9655424 -1.6118954 -0.17810494 0
-1.7781204 -1.6383152 -0.18872428 0
-1.699342 -1.6402686 -0.18892057 0
-1.2944804 -1.6655201 -0.18474133 0
-1.0354352 -1.6367506 -0.17652048 0
-0.85350001 -1.6370001 -0.133 0
-0.54516673 -1.6726831 -0.10156445 0
-0.43583918 -1.6557233 -0.12669292 0
0.79654551 -1.643267 -0.12511238 0
0.84622383 -1.6326951 -0.1208007 0
0.9147985 -1.6613146 -0.11019849 0
-2.5164447 -1.5746725 -0.10583695 0
-2.4387224 -1.5278362 -0.10841848 0
-1.9450045 -1.5690546 -0.19298023 0
-1.8857412 -1.5335157 -0.18628874 0
-1.7537107 -1.5635008 -0.18938482 0
-1.6543846 -1.5471989 -0.18666388 0
-1.5699327 -1.5128756 -0.1836049 0
-1.2396537 -1.5943468 -0.18382756 0
-1.1848269 -1.5231733 -0.18291378 0
-0.96093524 -1.5742506 -0.14702047 0
-0.85814512 -1.5513556 -0.13356145 0
-0.76622039 -1.5448656 -0.11102577 0
-0.40067837 -1.5264467 -0.11138584 0
-0.2905786 -1.5440776 -0.1064111 0
0.77523839 -1.5653398 -0.1209835 0
-2.3517351 -1.4545288 -0.12145762 0
-2.2433519 -1.4102923 -0.13506439 0
-2.115 -1.438 -0.198 0
-2.0843484 -1.4173298 -0.19741054 0
-1.9551578 -1.4705384 -0.19877031 0
-1.8162088 -1.4765565 -0.1870349 0
-1.757017 -1.4421582 -0.18524198 0
-1.6416845 -1.4596372 -0.19051071 0
-1.5551592 -1.4243447 -0.18660909 0
-1.347 -1.443 -0.192 0
-1.13 -1.452 -0.182 0
-0.96723986 -1.4763994 -0.16073565 0
-0.8470782 -1.4440594 -0.13090169 0
-0.77063632 -1.4498165 -0.11198767 0
-0.616 -1.45 -0.1035 0
-0.37723783 -1.4402623 -0.10118113 0
0.7278288 -1.4589367 -0.10847831 0
1.0239999 -1.452 -0.163 0
-2.4648666 -1.3642474 -0.11726844 0
-2.3284481 -1.3560776 -0.13031846 0
-2.2354834 -1.3441509 -0.13664818 0
-2.1445224 -1.3416834 -0.14648019 0
-2.0094135 -1.3667967 -0.19596949 0
-1.9387393 -1.314132 -0.19276422 0
-1.8457181 -1.3899727 -0.19651672 0
-1.7545474 -1.3666494 -0.19266725 0
-1.6475723 -1.345819 -0.18926361 0
-1.5386111 -1.338835 -0.1874104 0
-1.4563705 -1.3529524 -0.18273516 0
-1.3824093 -1.337393 -0.18431568 0
-1.2601488 -1.352684 -0.17190412 0
-0.91782743 -1.3728926 -0.14829102 0
-0.84378171 -1.3400956 -0.12285759 0
-0.75538343 -1.3646724 -0.11143623 0
0.95675504 -1.3485839 -0.13937035 0
1.0482938 -1.3516672 -0.13412319 0
1.112 -1.346 -0.16599999 0
-2.3074887 -1.2766633 -0.14669126 0
-2.2282245 -1.2518152 -0.13236876 0
-2.1537087 -1.2561309 -0.14744858 0
-2.0506542 -1.2519739 -0.16458002 0
-1.9555035 -1.2442478 -0.1914693 0
-1.8549147 -1.2557164 -0.19104892 0
-1.7846091 -1.2151978 -0.19164632 0
-1.6633189 -1.2556968 -0.19276075 0
-1.5537254 -1.2570009 -0.18824776 0
-1.4508353 -1.2617627 -0.18759811 0
-1.3477687 -1.2488595 -0.18217267 0
-1.272442 -1.2415254 -0.16504058 0
-1.1443473 -1.2322628 -0.14510961 0
-0.82656658 -1.2508223 -0.12192622 0
-0.75190115 -1.236174 -0.10497297 0
0.88276482 -1.2529399 -0.13325143 0
0.97232455 -1.2489429 -0.1203114 0
1.0473846 -1.240011 -0.13007699 0
1.1109999 -1.23 -0.154 0
1.596 -1.212 -0.168 0
-2.165122 -1.1504159 -0.15042281 0
-2.0571563 -1.1659017 -0.15472811 0
-1.9501809 -1.1533979 -0.18101342 0
-1.8575153 -1.1561741 -0.18890357 0
-1.7366412 -1.1503369 -0.19113098 0
-1.6535543 -1.1213226 -0.18842971 0
-1.5538793 -1.1751312 -0.19050717 0
-1.4495578 -1.1504711 -0.1873488 0
-1.3497047 -1.1512197 -0.18455185 0
-1.237893 -1.1645453 -0.17109413 0
-1.1687942 -1.1303737 -0.1523695 0
-1.0574962 -1.1419468 -0.12501374 0
-0.74582684 -1.1619484 -0.10672677 0
0.778 -1.115 -0.114 0
0.83736372 -1.154851 -0.12079453 0
0.96131837 -1.1442852 -0.13568431 0
1.0426745 -1.1507318 -0.12270616 0
1.1308572 -1.1545714 -0.13371429 0
1.242 -1.1289999 -0.17 0
1.369 -1.131 -0.131 0
1.4293129 -1.1207907 -0.14581975 0
1.5436338 -1.1344036 -0.16233183 0
1.617 -1.168 -0.169 0
-2.1539555 -1.0979286 -0.12783483 0
-2.0416481 -1.053387 -0.12393117 0
-1.9289027 -1.0740788 -0.16910762 0
-1.8481891 -1.0594041 -0.17420503 0
-1.7379172 -1.0594357 -0.18733901 0
-1.6431658 -1.0435892 -0.18853062 0
-1.5526735 -1.0393646 -0.18845911 0
-1.4516097 -1.0302588 -0.18779485 0
-1.332932 -1.0418116 -0.1837704 0
-1.2720001 -1.0780001 -0.18349999 0
-1.117 -1.067 -0.16500001 0
-1.0828023 -1.0601568 -0.11955072 0
-0.98529768 -1.0668681 -0.10830824 0
-0.73160905 -1.0895149 -0.10255881 0
0.75144684 -1.0592624 -0.10265261 0
0.8555184 -1.0418987 -0.11734258 0
0.95727134 -1.0672821 -0.12378208 0
1.0587764 -1.0532583 -0.11800589 0
1.1586608 -1.044867 -0.14366022 0
1.2511529 -1.052128 -0.13399158 0
1.3502392 -1.0476665 -0.14028557 0
1.4658455 -1.0452136 -0.15864117 0
1.5501479 -1.0644988 -0.16244918 0
1.6232979 -1.0393355 -0.16123864 0
1.7141309 -1.0785037 -0.16301782 0
-2.034281 -0.95217419 -0.12832914 0
-1.9454596 -0.95986521 -0.13158688 0
-1.8683859 -0.9503696 -0.16383396 0
-1.755702 -0.96521294 -0.17744839 0
-1.6574287 -0.93607408 -0.17932275 0
-1.5601084 -0.94658899 -0.18456712 0
-1.45689 -0.94389802 -0.18602718 0
-1.3543586 -0.93757361 -0.17736816 0
-1.2553372 -0.94486189 -0.16616151 0
-1.168184 -0.91573894 -0.14724489 0
0.77943486 -0.97196937 -0.10315916 0
0.85150635 -0.94433957 -0.1119343 0
0.94061148 -0.94857931 -0.12184262 0
1.0345867 -0.94364142 -0.13504474 0
1.1566304 -0.95855367 -0.12625855 0
1.2692176 -0.94612217 -0.14696844 0
1.3549082 -0.95781052 -0.13772279 0
1.4593843 -0.94381779 -0.14794058 0
1.5590417 -0.95962679 -0.15439622 0
1.6100626 -0.98309863 -0.16462502 0
-2.1029999 -0.81800002 -0.106 0
-2.0340023 -0.81697547 -0.10911652 0
-1.9428394 -0.80976999 -0.11682072 0
-1.746835 -0.87529933 -0.17962833 0
-1.642591 -0.8342452 -0.1752871 0
-1.5383474 -0.85387868 -0.18453574 0
-1.4362309 -0.83445597 -0.18403468 0
-1.3516129 -0.86090529 -0.18251133 0
-1.2266146 -0.86666495 -0.1505802 0
-1.1565225 -0.81725842 -0.13596687 0
-1.0657761 -0.83510834 -0.12636735 0
0.85308456 -0.8593061 -0.10816868 0
0.97074056 -0.85598069 -0.12449795 0
1.0685371 -0.84195566 -0.12750237 0
1.1583748 -0.85222155 -0.12763399 0
1.2622591 -0.85457164 -0.14377552 0
1.340888 -0.8521015 -0.13355029 0
1.4279327 -0.874753 -0.14121823 0
1.5140507 -0.88650793 -0.15619643 0
1.6960101 -0.80231762 -0.16235723 0
1.732 -0.81999999 -0.162 0
-2.1094105 -0.79143167 -0.19395882 0
-2.0222323 -0.74557716 -0.18175124 0
-1.9550073 -0.74349725 -0.16385037 0
-1.874 -0.787 -0.12899999 0
-1.5296001 -0.78480005 -0.17196824 0
-1.4447596 -0.76024753 -0.18368705 0
-1.3650001 -0.75725001 -0.18325 0
-1.1049877 -0.76477951 -0.11306808 0
-1.0678729 -0.77092433 -0.12963906 0
-0.9812296 -0.73781657 -0.1106443 0
0.84883308 -0.75834912 -0.1046816 0
0.95044452 -0.7608127 -0.11290727 0
1.0396497 -0.74482602 -0.1155943 0
1.1424271 -0.74115264 -0.12394246 0
1.2494344 -0.74223202 -0.13376985 0
1.3663671 -0.79833859 -0.14379762 0
1.549206 -0.73019058 -0.16381434 0
1.6226081 -0.76625407 -0.16308577 0
-2.0135 -0.69400001 -0.17750001 0
-1.9593955 -0.64642686 -0.17287837 0
-1.8542742 -0.64600271 -0.18835241 0
-1.7642328 -0.60558736 -0.19023016 0
-0.9303093 -0.67138642 -0.10195858 0
0.85670614 -0.67649692 -0.10274611 0
0.93703437 -0.64897114 -0.10538936 0
1.0583438 -0.63814145 -0.11714584 0
1.1448418 -0.66608465 -0.12519941 0
1.329 -0.62199998 -0.16599999 0
1.4391031 -0.67609525 -0.16490716 0
1.6694496 -0.62120497 -0.13377853 0
1.7675018 -0.62589818 -0.15933333 0
-3.0336933 -0.53412461 -0.18980061 0
-2.9453864 -0.52024925 -0.17860121 0
-2.8570797 -0.50637388 -0.16740182 0
-2.0594773 -0.56451547 -0.19017228 0
-1.960763 -0.56097478 -0.18715024 0
-1.8562279 -0.55431247 -0.17904408 0
-1.7598853 -0.53979152 -0.1843729 0
-1.6486601 -0.53781426 -0.18599105 0
-1.5549999 -0.509 -0.192 0
1.349984 -0.50954932 -0.15259513 0
1.4522015 -0.53032506 -0.15550517 0
1.5544478 -0.54960275 -0.15066029 0
1.6543139 -0.55293328 -0.15831095 0
1.7455312 -0.52745932 -0.1525549 0
1.8418068 -0.5537383 -0.14712961 0
1.9433914 -0.54982382 -0.12568809 0
2.037447 -0.54441267 -0.12110318 0
2.1443801 -0.53815287 -0.12194726 0
2.2555301 -0.53292543 -0.1173951 0
-2.8580492 -0.49020743 -0.15500505 0
-2.7428765 -0.47967663 -0.16048874 0
-2.6565249 -0.4657535 -0.15781154 0
-2.5480669 -0.45151106 -0.14429097 0
-2.4396689 -0.43096951 -0.14685743 0
-2.3533177 -0.41704637 -0.14418022 0
-1.64 -0.48100001 -0.186 0
-1.525 -0.47999999 -0.192 0
1.2716666 -0.44266668 -0.15633333 0
1.3627548 -0.44720533 -0.15615374 0
1.4564244 -0.44576144 -0.15745236 0
1.5385097 -0.44717056 -0.15788561 0
1.6537306 -0.44004828 -0.1564524 0
1.7579066 -0.46615937 -0.1560218 0
1.8509403 -0.45538616 -0.15375653 0
1.9410638 -0.445227 -0.14741135 0
2.0470951 -0.44321471 -0.14133535 0
2.1566644 -0.43868831 -0.13628405 0
2.2470644 -0.45377606 -0.13105206 0
2.313 -0.44299999 -0.113 0
-2.3199999 -0.315 -0.16 0
-2.2664628 -0.35133857 -0.17142293 0
1.2785001 -0.315 -0.153 0
1.3392509 -0.36464593 -0.15673216 0
1.4398229 -0.35597324 -0.15424956 0
1.5441302 -0.35243645 -0.15536536 0
1.6404823 -0.33720013 -0.15533133 0
1.7497203 -0.35615602 -0.15460539 0
1.8440348 -0.34265256 -0.1530689 0
1.9439642 -0.35930702 -0.14530647 0
2.0388474 -0.37308034 -0.14084035 0
2.1300538 -0.34469029 -0.1470326 0
-2.329 -0.25099999 -0.167 0
-2.2470818 -0.24157289 -0.15237173 0
-2.1605072 -0.26425004 -0.13771759 0
-2.0527828 -0.24101388 -0.11937991 0
-1.9506645 -0.27304709 -0.10980634 0
1.3487576 -0.25018159 -0.15607744 0
1.4515094 -0.26796418 -0.15570895 0
1.5410247 -0.25306749 -0.15407744 0
1.655527 -0.24448457 -0.1562092 0
1.7488405 -0.26254269 -0.15597956 0
1.8358704 -0.2434807 -0.15468644 0
1.9517531 -0.23968387 -0.14775704 0
2.0522335 -0.26295 -0.13905323 0
1.345827 -0.14184614 -0.15482922 0
1.4460825 -0.13923572 -0.15691352 0
1.5485407 -0.14666951 -0.15459616 0
1.6455234 -0.15507266 -0.15557978 0
1.7575742 -0.15540247 -0.15362796 0
1.8291219 -0.19231494 -0.14755796 0
1.9470891 -0.13474168 -0.13108097 0
2.0506818 -0.16174169 -0.11640537 0
2.1333408 -0.14798892 -0.10610794 0
1.2739999 -0.057500001 -0.156 0
1.352865 -0.062121943 -0.15661341 0
1.4604099 -0.047391962 -0.14942338 0
1.5515146 -0.054571707 -0.14650068 0
1.6466743 -0.055464841 -0.14824004 0
1.7378232 -0.057012625 -0.14589255 0
1.8400586 -0.087421268 -0.14787361 0
1.9819901 -0.079652339 -0.1473043 0
2.071239 -0.082858883 -0.14634234 0
2.1029999 -0.083999999 -0.146 0
1.2565 0.027000001 -0.155 0
1.3369186 0.028650856 -0.14976442 0
1.4575464 0.031127138 -0.14191104 0
1.5687343 0.05080191 -0.1474724 0
1.6529766 0.046012573 -0.13907029 0
1.7422304 0.035645958 -0.15102762 0
1.8733766 0.022975147 -0.14703313 0
1.291 0.118 -0.15099999 0
1.3634186 0.14909306 -0.14081389 0
1.4429216 0.13301651 -0.15107794 0
1.5459709 0.1491726 -0.13037671 0
1.6430594 0.13157411 -0.15938112 0
1.7365119 0.1257934 -0.14172868 0
1.155 0.2775 -0.1235 0
1.2397408 0.25092784 -0.12354023 0
1.3385897 0.26399714 -0.11321016 0
1.482144 0.27052191 -0.10250629 0
1.5789754 0.20550725 -0.14378768 0
1.638 0.214 -0.14399999 0
-2.5109999 0.33700001 -0.12800001 0
-2.4347353 0.35204363 -0.1143196 0
-2.358999 0.36551338 -0.10391881 0
0.99400002 0.35699999 -0.109 0
1.033 0.33399999 -0.101 0
1.1328228 0.31333217 -0.11173403 0
1.2079581 0.30367574 -0.1109932 0
-1.1950001 0.59299999 -0.17299999 0
-1.5295222 0.67646033 -0.17720544 0
-1.4406525 0.66296101 -0.17750603 0
-1.3325737 0.66327882 -0.17492297 0
-1.2486242 0.65664357 -0.17183958 0
-1.1289999 0.667 -0.169 0
-2.3546953 0.78960609 -0.12989096 0
-2.2758477 0.76580304 -0.14344549 0
-2.197 0.74199998 -0.15700001 0
-1.906 0.75999999 -0.18000001 0
-1.8506508 0.76064527 -0.18210959 0
-1.7387338 0.75986552 -0.17913519 0
-1.6468899 0.74877226 -0.17842291 0
-1.5639032 0.75364536 -0.17773196 0
-1.4552771 0.73460943 -0.17312205 0
-1.3464668 0.75671262 -0.17220937 0
-1.2467785 0.74862605 -0.16186377 0
-1.1712909 0.74512857 -0.16637835 0
-1.098 0.722 -0.168 0
-2.5150902 0.86727333 -0.11382511 0
-2.4348903 0.84053862 -0.11333591 0
-2.0280001 0.84100002 -0.198 0
-1.9631649 0.84035224 -0.18482511 0
-1.8444986 0.82595062 -0.17880589 0
-1.7403728 0.8416903 -0.17487615 0
-1.6497518 0.85943609 -0.1707142 0
-1.544296 0.84397686 -0.171563 0
-1.4532887 0.84376651 -0.15907308 0
-1.3603858 0.86241305 -0.14022239 0
-1.2516396 0.82619047 -0.15068787 0
-2.7624476 0.98633367 -0.16846707 0
-2.6808951 0.95666724 -0.15393415 0
-2.5993423 0.92700088 -0.13940121 0
-2.2002811 0.99503976 -0.15761051 0
-2.1208248 0.96003181 -0.1608884 0
-2.0653994 0.94618511 -0.18307953 0
-1.9732933 0.90958357 -0.19039756 0
-1.7519369 0.91740841 -0.16972272 0
-1.6585205 0.93613726 -0.16173989 0
-1.5657848 0.92113173 -0.1419524 0
-1.4390273 0.92673028 -0.12486571 0
-1.3979886 0.92925382 -0.11891265 0
-1.2443107 0.944484 -0.1320208 0
-1.191 0.90399998 -0.122 0
-0.72714806 0.94743407 -0.10926499 0
-0.67193335 0.95330721 -0.11367185 0
-0.52580619 0.99268585 -0.10289213 0
-2.8440001 1.016 -0.183 0
-2.4089999 1.087 -0.149 0
-2.3591936 1.0650556 -0.15105471 0
-2.2797375 1.0300477 -0.15433261 0
-1.3658475 1.0367789 -0.15486607 0
-0.82707399 1.079717 -0.1381325 0
-0.7471779 1.0326351 -0.12718005 0
-0.64654166 1.0523821 -0.11130796 0
-0.54383957 1.0592271 -0.11217061 0
-0.45269963 1.0633421 -0.10600266 0
-1.457 1.1059999 -0.17200001 0
-0.84386772 1.1665801 -0.15462102 0
-0.76074463 1.1258497 -0.14006135 0
-0.62702614 1.1411618 -0.12230168 0
-0.55468762 1.1560231 -0.1274709 0
-0.46266422 1.1628222 -0.11942106 0
-0.39932352 1.1150118 -0.1065251 0
-0.92699999 1.212 -0.167 0
-0.86500001 1.25 -0.163 0
-0.75030392 1.2424439 -0.1346526 0
-0.64727318 1.2420526 -0.14655218 0
-0.54928195 1.2454966 -0.13853103 0
-0.47058886 1.2688822 -0.1331884 0
-0.81100595 1.3330157 -0.15237862 0
-0.72600001 1.376 -0.16 0
-0.65768284 1.3200626 -0.15556286 0
-0.55710381 1.3500085 -0.15232283 0
-0.48683086 1.360253 -0.14513128 0
-0.85550594 1.4395158 -0.15287861 0
-0.53149998 1.431 -0.1585 0
-0.90100002 1.516 -0.163 0
-3.204 -1.989 -0.082999997 0
-3.1382232 -1.9493623 -0.085184753 0
-3.0605011 -1.902526 -0.087766275 0
-2.9690328 -1.9802918 -0.0046608225 0
-2.8951535 -1.9293804 -0.01595322 0
-2.9439175 -1.8322717 -0.091638565 0
-2.8212745 -1.8784689 -0.027245618 0
-2.7473955 -1.8275573 -0.038538016 0
-0.52657264 -1.866735 -0.021227866 0
-0.48800001 -1.801 -0.045000002 0
-0.37845802 -1.8204231 -0.003069564 0
-2.8273339 -1.7620174 -0.095510848 0
-2.7496116 -1.7151811 -0.098092377 0
-2.6735163 -1.7766459 -0.049830414 0
-2.5996373 -1.7257345 -0.061122809 0
-0.51659429 -1.774016 -0.034612313 0
-0.4423452 -1.7474244 -0.032577761 0
-0.35883656 -1.7271428 -0.0055878218 0
-2.5257583 -1.6748229 -0.072415203 0
-2.451879 -1.6239115 -0.083707601 0
-0.90200001 -1.609 -0.033 0
-0.84908009 -1.622746 -0.040242452 0
-0.45743454 -1.6438918 -0.042169422 0
-0.35596716 -1.6355963 -0.039846774 0
-2.378 -1.573 -0.094999999 0
-0.92400002 -1.585 -0.037999999 0
-0.86810923 -1.5449575 -0.036180984 0
-0.7637676 -1.5276318 -0.0042753257 0
-0.52345002 -1.5413049 -0.035069339 0
-0.4637965 -1.5419531 -0.043545276 0
-0.3472476 -1.5451765 -0.038072173 0
-0.255 -1.5580001 -0.092999995 0
0.83715028 -1.5322614 -0.096825749 0
-2.5239999 -1.462 -0.074000001 0
-2.4340811 -1.4535482 -0.079608142 0
-2.3372684 -1.4411439 -0.088866316 0
-0.83811992 -1.4651877 -0.039000142 0
-0.74978966 -1.4351209 -0.056531273 0
-0.64688617 -1.4511299 -0.031162471 0
-0.5561319 -1.4584858 -0.032010444 0
-0.44276091 -1.452422 -0.040034454 0
-0.33811551 -1.4568279 -0.024095606 0
-0.2426184 -1.4422523 -0.066640608 0
-0.177 -1.4119999 -0.088 0
0.67818201 -1.4010683 -0.095449507 0
0.77626437 -1.4584523 -0.087190852 0
0.81318647 -1.4488314 -0.090786383 0
-2.558394 -1.3495269 -0.045716487 0
-2.4759607 -1.3061889 -0.054656833 0
-2.3907101 -1.3797969 -0.096756808 0
-0.81057489 -1.3854687 -0.047682628 0
-0.73724014 -1.3493159 -0.050215077 0
-0.6580466 -1.3456295 -0.047784414 0
-0.54713953 -1.3579282 -0.057672661 0
-0.44854105 -1.3551419 -0.036785845 0
-0.36957204 -1.3466643 -0.044365969 0
-0.23557602 -1.3553199 -0.056952175 0
-0.16695437 -1.3333347 -0.063308939 0
0.66832191 -1.3157622 -0.083189629 0
0.75230056 -1.3750225 -0.081151493 0
0.98443162 -1.3257203 -0.075405538 0
1.028 -1.385 -0.081 0
-2.6229999 -1.266 -0.016000003 0
-2.5581484 -1.2549832 -0.02985527 0
-2.4497843 -1.230823 -0.051496837 0
-2.3243072 -1.2264593 -0.071104556 0
-0.73679459 -1.2366278 -0.059571922 0
-0.64361489 -1.2450247 -0.056931011 0
-0.53859031 -1.2575552 -0.051441289 0
-0.44145763 -1.2471343 -0.044646308 0
-0.34596378 -1.2508677 -0.04620976 0
-0.23504168 -1.2513337 -0.05835855 0
-0.1554793 -1.2442675 -0.049219187 0
-0.088 -1.258 -0.077 0
0.59927303 -1.2396024 -0.075674266 0
0.65568632 -1.2273349 -0.071060389 0
0.72597748 -1.2927191 -0.075977311 0
0.9312641 -1.2616092 -0.07866022 0
1.035867 -1.2686046 -0.076047733 0
-2.552 -1.141 -0.057 0
-2.4488735 -1.1380895 -0.054949608 0
-2.3565979 -1.1545563 -0.060818989 0
-2.2558024 -1.1439869 -0.077716671 0
-2.1726534 -1.1467297 -0.087552279 0
-2.0968268 -1.1068648 -0.095776141 0
-0.94700003 -1.11 -0.075000003 0
-0.83737665 -1.1322576 -0.055922158 0
-0.73914719 -1.1527113 -0.056736935 0
-0.64715254 -1.1460084 -0.056040984 0
-0.55408913 -1.1405813 -0.057572048 0
-0.45543635 -1.1451344 -0.060097355 0
-0.33408344 -1.15573 -0.044893712 0
-0.23350844 -1.1485473 -0.050866615 0
-0.15580781 -1.1429502 -0.044878479 0
-0.053046469 -1.1496146 -0.042174354 0
0.161 -1.1133333 -0.059 0
0.22499999 -1.138 -0.072999999 0
0.57583427 -1.1624393 -0.068442225 0
0.64279586 -1.1288821 -0.043047104 0
0.72839046 -1.1865447 -0.0037407242 0
0.86309564 -1.1602647 -0.07244654 0
0.942954 -1.1441183 -0.076496549 0
1.0749533 -1.1311891 -0.07547833 0
1.109 -1.166 -0.082000002 0
-2.4043772 -1.0782808 -0.073159084 0
-2.3261018 -1.0450246 -0.081727266 0
-2.2526112 -1.0497649 -0.078917161 0
-2.1602612 -1.0558882 -0.083630674 0
-2.0816741 -1.0165921 -0.093087122 0
-0.85882479 -1.0586001 -0.065390006 0
-0.76321852 -1.048948 -0.057049721 0
-0.64667094 -1.0523771 -0.064352088 0
-0.56552851 -1.0562378 -0.060064733 0
-0.46941921 -1.0579841 -0.052816112 0
-0.30642289 -1.0197253 -0.02794159 0
-0.25965655 -1.0423539 -0.042001322 0
-0.15858911 -1.0515729 -0.040962882 0
-0.061631896 -1.0417534 -0.044763122 0
0.062000003 -1.0526667 -0.027333334 0
0.15659986 -1.0280733 -0.044926241 0
0.23256734 -1.0470022 -0.050396346 0
0.31200001 -1.0420001 -0.063000001 0
0.54966903 -1.0579928 -0.052862786 0
0.63689047 -1.0435447 -0.022240724 0
0.77103901 -1.0437994 -0.068879999 0
0.85716146 -1.0572368 -0.071050681 0
0.95589465 -1.0468919 -0.081575558 0
1.0410566 -1.0952098 -0.084087647 0
-2.1695509 -0.97851235 -0.098863631 0
-0.81835914 -0.97679877 -0.059837136 0
-0.73470092 -0.95350796 -0.054574814 0
-0.64807177 -0.95947284 -0.06200147 0
-0.58170992 -0.93760312 -0.047294497 0
-0.43633333 -0.98266667 -0.054000001 0
-0.24979004 -0.94789898 -0.036792465 0
-0.15398742 -0.94743669 -0.028432271 0
-0.062702842 -0.94696409 -0.033864945 0
0.050291389 -0.95007682 -0.028659731 0
0.16627696 -0.94128084 -0.038861521 0
0.25098369 -0.9551028 -0.050741684 0
0.38995138 -0.90764713 -0.027349537 0
0.45782328 -0.93835306 -0.030022806 0
0.53697109 -0.95666057 -0.035364587 0
0.76013011 -0.94641262 -0.065986685 0
0.8542577 -0.93874502 -0.064530447 0
0.94329166 -0.95705086 -0.078573316 0
1.0548503 -0.94384301 -0.094290704 0
1.1276896 -0.91304713 -0.090693951 0
-2.1340001 -0.87300003 -0.082999997 0
-2.0805182 -0.8553099 -0.092462152 0
-0.72195745 -0.86254847 -0.04128658 0
-0.64531672 -0.85066593 -0.047089353 0
-0.55598837 -0.8481462 -0.037750132 0
-0.47703052 -0.80245543 -0.038074344 0
-0.14119002 -0.8603403 -0.027918739 0
-0.057084344 -0.8491922 -0.026193986 0
0.043082777 -0.83315367 -0.01931946 0
0.15617639 -0.85184216 -0.033580299 0
0.23422584 -0.84957522 -0.038704757 0
0.373 -0.875 -0.033 0
0.43399999 -0.87599999 -0.031000003 0
0.75460309 -0.83994651 -0.064739928 0
0.83131498 -0.85742062 -0.063096575 0
0.9504844 -0.83098018 -0.075860828 0
1.0386562 -0.85932714 -0.078730933 0
1.1416965 -0.82953542 -0.085443452 0
1.2327216 -0.82748371 -0.094324261 0
1.3439898 -0.84224832 -0.095883109 0
-1.0335853 -0.71573544 -0.097681701 0
-0.89509606 -0.70072412 -0.091571413 0
-0.62284654 -0.75352222 -0.038962416 0
-0.54567033 -0.75222319 -0.0476707 0
-0.45993248 -0.72984058 -0.039945703 0
-0.12491438 -0.75804067 -0.024309767 0
-0.064000666 -0.73409045 -0.020827409 0
0.050654832 -0.73986286 -0.015316379 0
0.14230408 -0.75253266 -0.022430826 0
0.21278122 -0.74663526 -0.0238903 0
0.76265836 -0.75383902 -0.070442855 0
0.86333799 -0.7498588 -0.058395423 0
0.93580025 -0.75000161 -0.070884079 0
1.0599619 -0.73683572 -0.069170959 0
1.1594045 -0.76192605 -0.08115463 0
1.258858 -0.7797426 -0.090397827 0
-0.96218288 -0.6666913 -0.082295313 0
-0.85035533 -0.62187254 -0.075613387 0
-0.53218573 -0.6605764 -0.029204527 0
-0.45570087 -0.64470446 -0.033583991 0
-0.38708824 -0.64293808 -0.029925184 0
-0.123 -0.69400001 -0.024999999 0
-0.071999997 -0.69 -0.034000002 0
0.052500002 -0.69200003 -0.0185 0
0.14889821 -0.67842376 -0.019941125 0
0.20334785 -0.68304843 -0.013793059 0
0.77064008 -0.64095861 -0.065756932 0
0.85403293 -0.64116198 -0.058605734 0
0.95357442 -0.6467135 -0.043524604 0
1.0253471 -0.65263492 -0.052352928 0
1.1111616 -0.6853897 -0.06364163 0
2.0818753 -0.60732961 -0.094246842 0
2.1413064 -0.61732256 -0.089442961 0
2.2438564 -0.63590157 -0.079696126 0
2.342 -0.65250003 -0.071500003 0
-0.43389788 -0.55342579 -0.030228801 0
-0.36033541 -0.54070914 -0.023074936 0
2.1925638 -0.59354168 -0.098111108 0
-2.2349663 -0.40862322 -0.088503018 0
-0.33750001 -0.49699998 -0.020500002 0
-2.5101204 -0.32923859 -0.0084110629 0
-2.4214137 -0.31849238 -0.017940709 0
-2.3327067 -0.3077462 -0.027470354 0
-2.207 -0.35299999 -0.02 0
-2.171582 -0.3460429 -0.026008401 0
-2.0588636 -0.3239018 -0.045130253 0
-1.9461455 -0.30176073 -0.064252101 0
-2.4378238 -0.2423757 -0.00085538998 0
-2.347868 -0.23378177 -0.0081415437 0
-2.2486374 -0.27306262 -0.029809231 0
-2.1545994 -0.26104763 -0.03736769 0
-2.0519738 -0.23692483 -0.042231537 0
-1.9320202 -0.22904879 -0.077417046 0
-1.8472171 -0.26191986 -0.0826407 0
-1.7819999 -0.23100001 -0.074000001 0
2.1694303 -0.23550129 -0.089688279 0
-2.0691624 -0.11090264 -0.035237312 0
-1.955453 -0.10487831 -0.049921639 0
-1.8312453 -0.1937187 -0.078115225 0
-1.8461521 -0.065382026 -0.033448376 0
-1.7706807 -0.062953182 -0.044382025 0
-1.696 -0.029999999 -0.027000001 0
1.656 -0.011 -0.0060000001 0
-1.8680851 0.028690845 -0.037406813 0
-1.7478353 0.030190844 -0.052656807 0
-1.6424999 0.031500001 -0.066 0
1.3615998 0.18393329 -0.078008682 0
1.4382 0.15614444 -0.041669559 0
1.5457048 0.1234197 -0.03896115 0
1.6315 0.138 -0.071500003 0
-2.3365884 0.29592994 -0.042127706 0
-2.2498975 0.28576773 -0.036814407 0
-2.1650984 0.28285331 -0.044519663 0
-2.0819409 0.27483112 -0.059766557 0
-1.9462078 0.26138601 -0.041167624 0
-1.8313754 0.26713005 -0.034053177 0
-1.729 0.21799999 -0.071999997 0
1.199 0.249 -0.068999998 0
1.2479972 0.23819137 -0.066060103 0
1.341711 0.24529973 -0.077932447 0
1.4465281 0.26379862 -0.090227142 0
-2.4616396 0.31054604 -0.050220501 0
-2.339941 0.31717446 -0.09927839 0
-2.264205 0.33064425 -0.088877589 0
-2.1464968 0.33679688 -0.076215804 0
-2.0451088 0.35705841 -0.0480684 0
-1.9512136 0.3597731 -0.046438873 0
-1.8186383 0.34246221 -0.016699895 0
-1.7970001 0.338 -0.015000001 0
0.95618773 0.38428679 -0.07158491 0
1.0628234 0.36883986 -0.066620663 0
1.1486071 0.34756663 -0.061882 0
1.2469349 0.35278365 -0.082500085 0
1.3511852 0.33235496 -0.089964107 0
-2.431 0.47825 -0.040749997 0
-2.3433948 0.46121788 -0.035640866 0
-2.2438941 0.44555917 -0.051517557 0
-2.1464932 0.44557714 -0.044980779 0
-2.0338709 0.42089114 -0.036301263 0
0.86175001 0.44725001 -0.0305 0
0.94423735 0.46172121 -0.029495798 0
1.0445471 0.43951535 -0.057265893 0
1.1296667 0.41833332 -0.062666662 0
-2.339499 0.54701829 -0.057433799 0
-2.2359955 0.52007318 -0.049735196 0
-2.1669931 0.50210977 -0.044602796 0
0.8674981 0.53211075 -0.015149449 0
0.96632212 0.54809111 -0.0042167287 0
0.38550001 0.69400001 -0.057500001 0
0.56822962 0.63614112 -0.078126937 0
0.61872959 0.69114113 -0.088626944 0
1.0024942 0.61633223 -0.0014483463 0
-2.3556399 0.7869978 -0.039410971 0
-2.2760499 0.7622472 -0.030513711 0
-2.1837599 0.7545414 -0.04258826 0
-0.61199999 0.79500002 -0.075999998 0
-0.55000001 0.79100001 -0.071999997 0
-0.45691782 0.78881037 -0.066330433 0
-0.36241195 0.7788285 -0.059151776 0
-0.28588235 0.78334117 -0.056350064 0
-0.17200001 0.78399998 -0.003 0
-0.076000005 0.77399999 -0.043000001 0
0.017666668 0.77733332 -0.035666663 0
0.12325001 0.76150006 -0.038249999 0
0.41341853 0.74030465 -0.061746132 0
0.65899998 0.73500001 -0.097000003 0
-2.6726952 0.88560611 -0.075224303 0
-2.5668228 0.85292119 -0.070845209 0
-2.43523 0.81174833 -0.048308231 0
-2.3546848 0.83800167 -0.095802441 0
-2.2731323 0.8083353 -0.081269518 0
-0.75134057 0.84662104 -0.052614603 0
-0.65260118 0.84204847 -0.064935818 0
-0.56488538 0.83466625 -0.070300609 0
-0.4446474 0.85169142 -0.074630335 0
-0.35154998 0.8442952 -0.068295121 0
-0.084233254 0.84761965 -0.050482012 0
0.016825171 0.84805995 -0.031155339 0
0.13880955 0.85010618 -0.026545491 0
-0.82375079 0.96440578 -0.0209429 0
-0.74791652 0.96050167 -0.022910593 0
-0.66000921 0.93866873 -0.044461638 0
-0.55742025 0.95582104 -0.092164919 0
-0.45362136 0.94901925 -0.089752771 0
-0.35815915 0.93424088 -0.081511788 0
-0.104 0.96100003 -0.063000001 0
-0.085000001 0.91900003 -0.056000002 0
0.021533092 0.91420895 -0.027119538 0
0.1495 0.91125 -0.0185 0
-0.37922215 1.0257053 -0.095221005 0
-2.846 -2.6700001 0.035999998 0
-2.7892838 -2.6184256 0.033351161 0
-2.7278271 -2.5625405 0.030480929 0
-2.6663704 -2.5066555 0.027610697 0
-2.6049135 -2.4507704 0.024740465 0
-2.5434568 -2.3948851 0.021870231 0
-2.4820001 -2.339 0.018999999 0
-3.1500001 -2.105 0.023000002 0
-3.1167908 -2.0821149 0.017923981 0
-3.0429118 -2.0312033 0.0066315755 0
-0.36120749 -1.7350599 6.7677815e-05 0
-0.34341493 -1.6471198 0.0031353557 0
0.87329626 -1.6190765 0.026840955 0
-0.78081769 -1.5550182 0.012951168 0
-0.43387836 -1.5377057 0.0014706068 0
-0.32562241 -1.5591797 0.0062030335 0
0.85777444 -1.5341877 0.024609461 0
-0.72523141 -1.439968 0.0088112326 0
-0.40934795 -1.4506321 0.007088257 0
-0.30782989 -1.4712396 0.0092707109 0
-0.19 -1.404 0.0030000003 0
0.7849052 -1.4581189 0.021641485 0
0.82700276 -1.4507484 0.022458356 0
-2.5808909 -1.3856169 0.025301278 0
-0.67533457 -1.3531618 0.016955584 0
-0.35225573 -1.3644438 0.0077888211 0
-0.29003733 -1.3832995 0.012338391 0
-0.1784839 -1.3175304 0.0024631536 0
0.69921803 -1.3020849 0.01660106 0
0.7632463 -1.377086 0.019685645 0
-2.5669999 -1.294 0.025 0
-2.4512703 -1.2408388 0.039001316 0
-0.759 -1.226 0.0040000007 0
-0.61900187 -1.2417426 0.024433378 0
-0.370193 -1.2386832 0.0088991513 0
-0.27530995 -1.2603912 0.014708631 0
-0.16765633 -1.2311577 0.0065955315 0
0.67783087 -1.2223907 0.014957098 0
0.74185908 -1.2973918 0.018041683 0
-2.4694023 -1.1903908 0.012551725 0
-2.3479829 -1.1516818 0.040311221 0
-2.2583878 -1.1522367 0.06233684 0
-2.1812346 -1.1167959 0.071671046 0
-0.73972386 -1.1952273 0.0027466193 0
-0.56233454 -1.1296618 0.031955585 0
-0.33689949 -1.1418012 0.020304359 0
-0.25791383 -1.1384888 0.021385537 0
-0.15648451 -1.1447365 0.008393297 0
-0.046098333 -1.137761 0.025719315 0
0.229 -1.1440001 0.023 0
0.63512313 -1.145043 0.012592823 0
-2.2390058 -1.076977 0.055379309 0
-2.1331444 -1.0602638 0.075330213 0
-2.0617042 -1.0261838 0.086465523 0
-0.32546896 -1.0556736 0.023530418 0
-0.24780405 -1.0214652 0.030718245 0
-0.14531268 -1.0583154 0.010191062 0
-0.042157333 -1.0318177 0.015750904 0
0.028000001 -1.033 0.022999998 0
0.17731492 -1.0826665 0.044637065 0
0.21064475 -1.051204 0.01545395 0
0.57068723 -1.0680339 0.0090404246 0
0.61414361 -1.0673567 0.011416674 0
-2.0420001 -0.98000002 0.092 0
-0.30145371 -0.97083431 0.029649999 0
-0.26446787 -0.95973396 0.035292387 0
-0.14554635 -0.95879573 0.010354454 0
-0.039117999 -0.9501133 0.0080631794 0
0.038812097 -0.95553017 0.010188149 0
0.16133758 -0.96056736 0.024786839 0
0.2705 -0.91550004 0.0195 0
0.32816333 -0.97101945 0.010610459 0
0.48500001 -0.912 0.0040000002 0
0.54280514 -0.96489841 0.0075761825 0
0.75866669 -0.93299991 0.0053333342 0
-0.13024491 -0.83841008 0.013685629 0
-0.036078665 -0.86840886 0.00037545245 0
0.040639855 -0.85836554 0.0046397569 0
0.1474154 -0.8401078 0.01013019 0
0.26571262 -0.83740306 0.0091406032 0
0.31810427 -0.88315588 0.010756187 0
0.76298887 -0.83416086 0.0068111098 0
0.80199999 -0.82999998 0.013 0
-0.54540288 -0.74828106 0.0053373463 0
-0.11590314 -0.7505253 0.019001912 0
0.049405497 -0.74507093 0.016494276 0
0.13941205 -0.76190138 0.0061493129 0
0.25015652 -0.74427903 0.0044485317 0
0.76174527 -0.76493955 0.0067362059 0
0.80900002 -0.73000002 0.011 0
-0.83473325 -0.62263095 0.0099261831 0
-0.78656822 -0.6104213 0.013362818 0
-0.46750355 -0.64085126 0.014671685 0
0.12976831 -0.67531323 0.017456679 0
0.23500001 -0.67433333 0.0013333334 0
0.76792759 -0.63927019 0.0049203536 0
0.81095332 -0.64731812 0.0093811136 0
-0.44499999 -0.523 0.0040000007 0
-0.398 -0.54500002 0.022999998 0
-3.119 -0.403 0.056999996 0
-3.0423613 -0.39371577 0.048766814 0
-2.9536545 -0.38296956 0.039237164 0
-2.8649478 -0.37222338 0.029707521 0
-2.7762408 -0.36147717 0.020177875 0
-2.6875341 -0.35073099 0.010648228 0
-2.5988271 -0.33998477 0.0011185817 0
-3.0409999 -0.30000001 0.048 0
-2.9775596 -0.29393923 0.042861529 0
-2.8876035 -0.28534532 0.035575375 0
-2.7526696 -0.27245444 0.024646146 0
-2.6177359 -0.25956357 0.013716916 0
-2.5277798 -0.25096962 0.0064307619 0
-2.0172229 -0.033812735 0.024471905 0
-1.9250842 -0.032719102 0.0097078551 0
1.7361377 -0.011 0.0083169509 0
1.8563443 -0.011 0.029792376 0
1.9765508 -0.011 0.051267803 0
2.0718441 -0.011 0.068292379 0
1.4997149 0.16312714 0.0057197362 0
1.5804297 0.17025428 0.019439474 0
1.6611445 0.17738141 0.033159208 0
1.7418592 0.18450855 0.046878945 0
1.8472871 0.19381782 0.064799339 0
-2.0586841 0.28140926 0.013058517 0
-1.9504126 0.27224261 0.029306725 0
-1.8358101 0.26410064 0.035650436 0
-2.4677849 0.34379703 0.070749819 0
-2.3400297 0.33204031 0.037928414 0
-2.2558942 0.32114208 0.032936286 0
-2.1717582 0.31024387 0.027944159 0
-2.0504808 0.35224032 0.022714194 0
-1.9354956 0.38419566 0.024543285 0
-1.8393724 0.3670308 0.030316915 0
-2.3150895 0.49868655 0.019019786 0
-2.2558389 0.46305251 0.013110333 0
-2.1513379 0.43604043 0.016231062 0
-2.0436792 0.43837312 0.029539572 0
0.78100002 0.49599999 0.0060000001 0
0.85100001 0.46233332 0.0070000007 0
0.93219727 0.49301484 0.013881894 0
-2.3929999 0.51599997 0.016000001 0
0.873438 0.52728713 0.013465749 0
0.95458502 0.55837542 0.021449873 0
1.0571105 0.55277795 0.020282619 0
1.1465257 0.57144803 0.01760027 0
0.98119766 0.62283325 0.025895417 0
1.0537844 0.64148122 0.022942832 0
1.1372594 0.65372479 0.035534099 0
1.2518322 0.61843884 0.030113995 0
1.3697988 0.66262662 0.041136798 0
-0.45649999 0.79699999 0.0044999998 0
1.103 0.69999999 0.037999999 0
1.2694304 0.7333895 0.056899074 0
-0.92214602 0.88799018 0.012706462 0
-0.898 0.866 0.014 0
-0.60543025 0.86869889 0.010506546 0
-0.55013853 0.85108674 0.01225553 0
-0.47292954 0.84433925 0.012766527 0
-0.18616784 0.84923792 0.0032602078 0
0.060956649 0.85143858 0.016568229 0
-0.954 0.917 0.011 0
-0.64362329 0.95971012 0.015776606 0
-0.54653609 0.94703734 0.023207208 0
-0.20994639 0.95872992 0.013767014 0
0.051417153 0.96576422 0.0047144755 0
