# .PCD v0.7 - Point Cloud Data file format
VERSION 0.7
FIELDS x y z intensity
SIZE 4 4 4 4
TYPE F F F F
COUNT 1 1 1 1
WIDTH 1388
HEIGHT 1
VIEWPOINT 0 0 0 1 0 0 0
POINTS 1388
DATA ascii
-3.8870001 -1.49 -0.193 0
-3.424 -1.4960001 -0.17299999 0
-3.3559988 -1.4668674 -0.17700006 0
-3.2563496 -1.4635904 -0.18295002 0
-2.1576891 -1.4887488 -0.19415334 0
-2.068114 -1.4287758 -0.19505037 0
-1.7485 -1.5 -0.1645 0
-1.6479478 -1.4578624 -0.15871261 0
-1.5867108 -1.4073968 -0.16928446 0
-1.194 -1.499 -0.171 0
0.9857769 -1.4496282 -0.13424276 0
1.0695626 -1.4440808 -0.13435423 0
1.1309695 -1.4994529 -0.13247979 0
1.2395074 -1.4725485 -0.13983676 0
1.357619 -1.4468768 -0.11523139 0
1.4507722 -1.4507952 -0.11437763 0
1.5447317 -1.4419804 -0.11783997 0
1.6554272 -1.4666568 -0.11571406 0
1.7548877 -1.4551105 -0.12835036 0
1.8505402 -1.4572333 -0.12269779 0
1.9521151 -1.4512583 -0.11895704 0
2.0785718 -1.4431559 -0.12166667 0
3.6350405 -1.4089069 -0.10826905 0
3.7090812 -1.4418138 -0.10153809 0
-3.1477489 -1.3776506 -0.18925005 0
-3.0227993 -1.3241204 -0.19660003 0
-1.9567176 -1.3541929 -0.19616592 0
-1.5254738 -1.3569312 -0.17985632 0
-1.464237 -1.3064656 -0.19042815 0
0.95363152 -1.3385822 -0.14165537 0
1.0224407 -1.3806691 -0.13655216 0
1.1457613 -1.3628228 -0.13850513 0
1.2569895 -1.3359653 -0.13228948 0
1.345542 -1.3570185 -0.12101406 0
1.4375324 -1.3404514 -0.1182351 0
1.547298 -1.350334 -0.11904001 0
1.639794 -1.3489183 -0.11804171 0
1.7468132 -1.3487331 -0.12314396 0
1.8303348 -1.3548417 -0.12382271 0
1.9286563 -1.3501281 -0.12194532 0
2.0089438 -1.3723211 -0.122 0
3.5610001 -1.376 -0.115 0
-1.8453212 -1.2796099 -0.19728148 0
-1.7710569 -1.2298878 -0.19802518 0
0.92819697 -1.2538453 -0.14094797 0
1.0360897 -1.234457 -0.1369473 0
1.1484632 -1.2409743 -0.134 0
1.266682 -1.2417445 -0.12876572 0
1.3585436 -1.2423813 -0.12400229 0
1.4501166 -1.2403873 -0.12077862 0
1.5345221 -1.2458675 -0.12246726 0
1.6453171 -1.2454107 -0.12341856 0
1.7514932 -1.2390788 -0.12397184 0
1.8430258 -1.2727242 -0.12400806 0
1.9427125 -1.2201545 -0.11416015 0
2.0368426 -1.229683 -0.11054268 0
2.195492 -1.2090313 -0.11529116 0
2.2316732 -1.2284317 -0.1124922 0
-1.6596606 -1.1553049 -0.19914074 0
0.889 -1.171 -0.138 0
0.95383584 -1.1381829 -0.13577892 0
1.0642896 -1.1521089 -0.134 0
1.2652029 -1.1388129 -0.12889405 0
1.3522787 -1.1458613 -0.1248129 0
1.4509424 -1.1327159 -0.12534711 0
1.548911 -1.1472392 -0.12473486 0
1.6397389 -1.1429927 -0.12409382 0
1.7387075 -1.1403229 -0.123 0
1.8705372 -1.1429056 -0.12400109 0
1.9518583 -1.1537269 -0.11827423 0
2.0317769 -1.1524889 -0.11997052 0
2.1171427 -1.1645281 -0.11746204 0
3.563 -1.103 -0.111 0
3.6456239 -1.1296656 -0.10824149 0
3.7282479 -1.1563313 -0.10548298 0
3.8108721 -1.1829969 -0.10272446 0
0.89899999 -1.074 -0.13500001 0
0.95205796 -1.0336218 -0.134 0
1.2449999 -1.04 -0.12800001 0
1.343771 -1.0482984 -0.12551874 0
1.4524609 -1.0454457 -0.12415039 0
1.5493264 -1.0702565 -0.12375604 0
1.6555809 -1.0388594 -0.124 0
1.7472887 -1.0303956 -0.12307552 0
1.8552727 -1.0595946 -0.12428465 0
1.9259497 -1.0487853 -0.12427247 0
2.096 -1.035 -0.121 0
1.2465999 -0.95699996 -0.12640001 0
1.3364042 -0.95003724 -0.12476448 0
1.4398623 -0.94662595 -0.123 0
1.5710813 -0.93251646 -0.12590249 0
1.6558028 -0.96401978 -0.12578917 0
1.7549528 -0.94217622 -0.12894022 0
1.8411386 -0.95719552 -0.12756738 0
1.9401447 -0.97198945 -0.12551342 0
2.0542684 -0.95588315 -0.12320819 0
2.1170001 -0.92500001 -0.122 0
1.2565 -0.88199997 -0.126 0
1.3554016 -0.83627748 -0.1245836 0
1.4532578 -0.83720618 -0.1286675 0
1.5314879 -0.85522896 -0.13058043 0
1.6403093 -0.85869038 -0.13319069 0
1.7336122 -0.86775178 -0.13373779 0
1.8451264 -0.80974483 -0.12922855 0
1.9371717 -0.82216585 -0.12745607 0
2.0184503 -0.85561013 -0.12528208 0
2.119628 -0.8686586 -0.12322526 0
1.2609999 -0.77100003 -0.125 0
1.3765 -0.75400001 -0.13500001 0
1.455727 -0.75866497 -0.13940307 0
1.5545362 -0.78483069 -0.14054503 0
1.6425632 -0.72387242 -0.13461427 0
1.7509416 -0.73772448 -0.13267569 0
1.8666598 -0.76769829 -0.13003159 0
2.0322235 -0.72345805 -0.12565923 0
2.1276278 -0.75669026 -0.12330528 0
1.4495001 -0.62150002 -0.14050001 0
1.5307786 -0.6549443 -0.13832602 0
1.6220639 -0.67007929 -0.13661264 0
1.7416117 -0.62222904 -0.13282961 0
1.8661596 -0.66561288 -0.12975658 0
1.9377749 -0.64836198 -0.12775484 0
2.0157924 -0.6297766 -0.12613438 0
2.3342779 -0.60200584 -0.11938416 0
2.411 -0.62 -0.118 0
1.451 -0.52100003 -0.14 0
1.5657423 -0.52532601 -0.13594262 0
1.6483715 -0.55246973 -0.13415177 0
1.7619054 -0.55145895 -0.13086787 0
1.8444513 -0.5371626 -0.12814632 0
1.9438772 -0.52619052 -0.12648633 0
2.0250547 -0.53853178 -0.12511764 0
2.1396699 -0.57610464 -0.12347306 0
2.2564583 -0.58375442 -0.12078813 0
1.4507467 -0.42305335 -0.13611999 0
1.5495144 -0.44119745 -0.13243058 0
1.6674305 -0.4334732 -0.13162369 0
1.7506922 -0.45465198 -0.13016821 0
1.846298 -0.44271994 -0.12823538 0
1.9473354 -0.44021487 -0.12682819 0
2.0353584 -0.44414949 -0.12510118 0
2.1392527 -0.43994108 -0.12319645 0
2.2608671 -0.41836941 -0.12024499 0
2.3489754 -0.4349156 -0.11890061 0
2.408 -0.44600001 -0.118 0
1.4455369 -0.34629625 -0.13658008 0
1.5383379 -0.35598275 -0.13323556 0
1.6492317 -0.34365362 -0.13156851 0
1.7436056 -0.35122895 -0.12929603 0
1.838286 -0.35242832 -0.12795411 0
1.9411553 -0.34225833 -0.12596026 0
2.0530396 -0.34685472 -0.12453936 0
2.1307142 -0.34271106 -0.12339591 0
2.2513471 -0.33445197 -0.120574 0
2.35057 -0.34173146 -0.11834928 0
2.4057076 -0.38793465 -0.1181031 0
1.444573 -0.25117999 -0.13500676 0
1.5609013 -0.26026452 -0.13235053 0
1.6674262 -0.23723619 -0.13101129 0
1.7534572 -0.24942601 -0.12957063 0
1.8394881 -0.26161584 -0.12812996 0
1.9413348 -0.23584379 -0.12624466 0
2.0518706 -0.25945985 -0.12438776 0
2.1716437 -0.25034192 -0.12153161 0
2.2455473 -0.23230824 -0.11971348 0
2.3516984 -0.24278884 -0.11755899 0
1.3890001 -0.15700001 -0.134 0
1.4377048 -0.15959713 -0.13481119 0
1.5485941 -0.15301563 -0.13232094 0
1.6493744 -0.14699553 -0.13035132 0
1.7431951 -0.14228688 -0.12883195 0
1.8430159 -0.1455988 -0.12673636 0
1.9678549 -0.14741011 -0.12407053 0
2.0399725 -0.15853012 -0.12315039 0
2.1537561 -0.17280784 -0.1207878 0
2.2566366 -0.12789342 -0.11810948 0
2.3358397 -0.14191997 -0.11699283 0
1.3846668 -0.054999996 -0.13500001 0
1.4505006 -0.053706367 -0.13438991 0
1.5519028 -0.049130905 -0.13282911 0
1.6606004 -0.05241017 -0.13040718 0
1.7399734 -0.039785158 -0.12863858 0
1.8421119 -0.041679636 -0.12636307 0
1.9587094 -0.057154302 -0.12401298 0
2.038681 -0.053138811 -0.12284707 0
2.127943 -0.071058698 -0.1199619 0
2.2304888 -0.066314667 -0.11791605 0
2.323 -0.052000001 -0.116 0
1.3643333 0.043333333 -0.13433333 0
1.4503702 0.045670941 -0.13275106 0
1.5364069 0.04800855 -0.13116878 0
1.6415207 0.061676838 -0.12918741 0
1.7406811 0.0368427 -0.12715548 0
1.8579321 0.027635375 -0.12562279 0
1.9571412 0.04161635 -0.12291706 0
2.0427809 0.05422809 -0.12133279 0
2.1575251 0.0017431461 -0.1190505 0
2.2736404 0.00038903346 -0.11668081 0
2.3069999 1.3789525e-15 -0.116 0
1.342 0.14033334 -0.13433333 0
1.4274451 0.149073 -0.1327372 0
1.5128902 0.15781267 -0.13114105 0
1.6455127 0.15159449 -0.1288397 0
1.7775632 0.14233297 -0.12643844 0
1.8633426 0.14913289 -0.12485945 0
1.9568516 0.13479821 -0.12296071 0
2.0447512 0.14461474 -0.11989447 0
2.1651077 0.12552229 -0.11784995 0
2.2549887 0.12901485 -0.11623329 0
1.3438179 0.26866615 -0.13488485 0
1.4612305 0.27269465 -0.13269357 0
1.5693126 0.25841713 -0.13031363 0
1.669107 0.25476754 -0.12822467 0
1.7599256 0.22568217 -0.12623021 0
1.8451107 0.23641859 -0.12467626 0
1.938457 0.22688361 -0.12211623 0
2.0506766 0.2406783 -0.11807425 0
2.1260149 0.24701744 -0.11661136 0
2.2051766 0.25367829 -0.11507425 0
1.2850001 0.36000001 -0.1345 0
1.3725665 0.34571511 -0.13482372 0
1.4614182 0.34974512 -0.1327516 0
1.5496278 0.35590062 -0.13087183 0
1.6301631 0.34914863 -0.12900308 0
1.7386096 0.34258157 -0.12663139 0
1.8505154 0.35298377 -0.12342097 0
1.918189 0.36258864 -0.12282068 0
2.0519183 0.38591486 -0.11815502 0
1.252 0.45100001 -0.134 0
1.3353384 0.45118204 -0.13437228 0
1.4246837 0.44581038 -0.1331014 0
1.5323503 0.45968863 -0.13087249 0
1.6493137 0.44685453 -0.12834686 0
1.7609028 0.43505511 -0.12675758 0
1.8715254 0.43827906 -0.12507117 0
1.9594336 0.44561288 -0.12264425 0
2.0605841 0.47653222 -0.1191106 0
2.138 0.44800001 -0.1165 0
-2.0929999 0.57800001 -0.2 0
-1.4539357 0.58154589 -0.18710725 0
-1.372 0.54699999 -0.186 0
1.1720001 0.58999997 -0.132 0
1.2603477 0.55212587 -0.13317375 0
1.3837414 0.54926693 -0.13298276 0
1.4671797 0.52300102 -0.13124549 0
1.568187 0.54264063 -0.12936744 0
1.6610377 0.54627728 -0.12791194 0
1.7449843 0.54641795 -0.12564597 0
1.8404499 0.5527404 -0.1245195 0
1.9161117 0.580199 -0.12348582 0
-2.1263173 0.64079732 -0.19968452 0
-2.0661404 0.65959942 -0.19855703 0
-1.6587751 0.66791064 -0.18987533 0
-1.5358715 0.61609179 -0.18821448 0
-1.452933 0.6650455 -0.18554641 0
-1.3329999 0.60799998 -0.184 0
1.14 0.64450002 -0.13150001 0
1.2328292 0.65120381 -0.13136487 0
1.3377706 0.63999999 -0.13006051 0
1.4299577 0.64588088 -0.12959203 0
1.545557 0.66938514 -0.12764362 0
1.6309319 0.60305202 -0.12695014 0
1.7709757 0.6370855 -0.12482586 0
1.8361042 0.64831877 -0.12631571 0
1.9612254 0.64854038 -0.12124622 0
2.0501676 0.63079852 -0.11822873 0
-2.2249999 0.727 -0.2 0
-2.1603632 0.7436707 -0.1989076 0
-2.0483098 0.7522521 -0.19669876 0
-1.9508501 0.77727371 -0.19458355 0
-1.8636147 0.75427538 -0.19264343 0
-1.7572279 0.75894058 -0.19034547 0
-1.6528214 0.76012135 -0.18812378 0
-1.5728661 0.72209102 -0.18709283 0
-1.4007962 0.76692539 -0.18364452 0
-1.325 0.72399998 -0.183 0
-1.28 0.78200001 -0.18099999 0
1.0700001 0.74966669 -0.13 0
1.1700891 0.75834829 -0.12979038 0
1.2687235 0.7537998 -0.12949964 0
1.359669 0.7347073 -0.12809213 0
1.4613502 0.75850707 -0.12688696 0
1.5648626 0.75186723 -0.1252154 0
1.6583729 0.75051349 -0.12421945 0
1.7426667 0.76166672 -0.12433333 0
1.8346553 0.74842799 -0.12461483 0
1.9699619 0.74379855 -0.12037843 0
-2.1208074 0.8433044 -0.19632173 0
-2.0420115 0.86086971 -0.19443886 0
-1.9478432 0.84933633 -0.192 0
-1.8523549 0.85809863 -0.19060057 0
-1.6281847 0.89570153 -0.18557809 0
-1.5523885 0.85277617 -0.18493357 0
-1.4515557 0.84193182 -0.18304928 0
-1.3269416 0.85600388 -0.17991298 0
-1.2331213 0.85992801 -0.17676556 0
-1.1546665 0.86899996 -0.17433333 0
0.98899996 0.86650002 -0.1285 0
1.0434331 0.83769137 -0.12865001 0
1.1368265 0.85225719 -0.12814727 0
1.2471296 0.85636455 -0.12700738 0
1.3396753 0.83737999 -0.12774973 0
1.4411608 0.85350835 -0.12474284 0
1.5455511 0.85446531 -0.12507258 0
1.6523126 0.85451919 -0.12282431 0
1.7403619 0.85625315 -0.12597018 0
1.869882 0.81823444 -0.12205382 0
1.918 0.84200001 -0.12 0
2.8210001 0.87699997 -0.107 0
3.2409999 0.82300001 -0.101 0
-2.2107098 0.9666878 -0.18354478 0
-2.1308551 0.92934394 -0.18777239 0
-2.0309999 0.94 -0.193 0
-1.9489093 0.95949751 -0.19066191 0
-1.8582487 0.94443679 -0.18885002 0
-1.7429516 0.9638359 -0.18601796 0
-1.5730379 0.96602559 -0.18261899 0
-1.4708248 0.95101166 -0.18073896 0
-1.3427148 0.96177101 -0.17701751 0
-1.2506528 0.96619177 -0.17482671 0
-1.1619844 0.9657771 -0.17313293 0
-1.0613333 0.97233337 -0.17066665 0
0.93300003 0.94500005 -0.12800001 0
1.0387313 0.94419318 -0.12686756 0
1.1386107 0.9487738 -0.12616046 0
1.2393309 0.9474256 -0.1257011 0
1.3391641 0.94925928 -0.12444784 0
1.4376463 0.95127183 -0.12418596 0
1.5507848 0.96129429 -0.12378558 0
1.6305776 0.93232071 -0.12382624 0
1.7525345 0.91421717 -0.12501194 0
1.8442585 0.93672335 -0.1229523 0
1.9223877 0.97808504 -0.12092844 0
2.0158956 0.99802482 -0.11876146 0
2.9025087 0.90574396 -0.1033564 0
-2.6159902 1.0797606 -0.18858874 0
-2.5434952 1.0468804 -0.19829437 0
-2.4502742 1.0787195 -0.17086194 0
-2.3704195 1.0413756 -0.17508957 0
-2.2905645 1.0040317 -0.17931718 0
-1.9447533 1.0578901 -0.18907934 0
-1.8507 1.0483979 -0.18715946 0
-1.740445 1.0442295 -0.18422616 0
-1.6464219 1.0515646 -0.18124133 0
-1.537609 1.066431 -0.17914887 0
-1.4498842 1.0665128 -0.17713419 0
-1.3644902 1.0632974 -0.17521466 0
-1.2318846 1.0488667 -0.17334801 0
-1.1485229 1.052413 -0.1716215 0
-1.0540137 1.0630449 -0.16909643 0
-0.96066666 1.067 -0.16633333 0
0.85599995 1.052 -0.12799999 0
0.95834607 1.061361 -0.12746653 0
1.0543041 1.0489838 -0.12576416 0
1.1706133 1.0417964 -0.123534 0
1.2634876 1.0540419 -0.12306867 0
1.3678474 1.0476147 -0.12287753 0
1.46489 1.0583314 -0.12140579 0
1.5212088 1.0290654 -0.12200008 0
1.6497453 1.0415452 -0.12178831 0
1.7338009 1.0388734 -0.12188153 0
1.8279306 1.0678489 -0.11991475 0
1.9851384 1.0408688 -0.11904774 0
2.0786462 1.0608084 -0.11688074 0
2.1733432 1.0790372 -0.11464218 0
-2.8352377 1.1792006 -0.15923592 0
-2.7609804 1.1455212 -0.16917747 0
-2.6627693 1.1522664 -0.16648966 0
-2.5341949 1.1535766 -0.18071896 0
-2.4601302 1.1535449 -0.19890179 0
-2.1094337 1.1797842 -0.1913967 0
-2.0363469 1.1372274 -0.19031736 0
-1.823 1.123 -0.184 0
-1.7510239 1.1484755 -0.18183644 0
-1.6407317 1.1608638 -0.17885263 0
-1.5604125 1.14951 -0.17758307 0
-1.4557656 1.1537082 -0.17541867 0
-1.3500487 1.1408663 -0.17442326 0
-1.2448809 1.1407311 -0.17147288 0
-1.152818 1.135149 -0.17051524 0
-1.0751144 1.1369413 -0.16892998 0
-0.95887548 1.1537608 -0.16497566 0
-0.86299998 1.1670001 -0.162 0
0.7705 1.1570001 -0.1275 0
0.85097802 1.1405352 -0.12713377 0
0.93450248 1.1394752 -0.12704113 0
1.0456216 1.1459137 -0.1251398 0
1.1465306 1.1529988 -0.1228652 0
1.2504638 1.1576536 -0.11927133 0
1.3437027 1.1518167 -0.12145305 0
1.4308236 1.1218957 -0.1210139 0
1.5438247 1.1622248 -0.123 0
1.6488301 1.124668 -0.12292981 0
1.7476748 1.1335711 -0.12090909 0
1.8337886 1.160121 -0.11925593 0
1.9400816 1.1559997 -0.11754244 0
2.1402075 1.125303 -0.1150716 0
2.2349048 1.1435318 -0.11283304 0
2.3598955 1.1750247 -0.10976145 0
-2.7309999 1.21 -0.156 0
-2.6554561 1.247407 -0.18865627 0
-2.4555621 1.2992154 -0.1937267 0
-2.3777809 1.2581077 -0.19636336 0
-2.257906 1.2472562 -0.19407874 0
-2.1825204 1.2223411 -0.19247605 0
-1.7442627 1.2667698 -0.177938 0
-1.6603771 1.2402949 -0.17790633 0
-1.5454684 1.2449685 -0.17621465 0
-1.4447955 1.2621847 -0.173301 0
-1.3616467 1.2474726 -0.17226428 0
-1.2442613 1.2536252 -0.17083058 0
-1.1520884 1.2472019 -0.16884582 0
-1.062384 1.2359627 -0.16632357 0
-0.93828094 1.2659187 -0.16225693 0
-0.82368356 1.2525047 -0.15899783 0
-0.73546219 1.2463759 -0.15490836 0
-0.64600003 1.276 -0.152 0
0.84897774 1.2512302 -0.12541249 0
0.95611954 1.2481387 -0.12516619 0
1.0546756 1.2491153 -0.12325446 0
1.1394112 1.2616254 -0.12297928 0
1.2340738 1.2553861 -0.12116645 0
1.3295 1.221 -0.117 0
1.4479072 1.2572232 -0.12317376 0
1.5462527 1.2208742 -0.123 0
1.6332643 1.2598803 -0.123 0
1.7587631 1.2619677 -0.12242981 0
1.8724985 1.2479951 -0.12006632 0
1.9482294 1.2667602 -0.11841083 0
2.0514131 1.2459577 -0.11544182 0
2.1291714 1.2489809 -0.11313441 0
2.2498794 1.2520006 -0.1112674 0
2.3380001 1.233 -0.11 0
-2.9289124 1.3788141 -0.17431255 0
-2.8507822 1.3412693 -0.17841075 0
-2.7726517 1.3037243 -0.18250896 0
-2.611124 1.3814307 -0.18845342 0
-2.5333431 1.3403231 -0.19109006 0
-2.4508724 1.3720741 -0.18794489 0
-2.3732483 1.3290493 -0.18962993 0
-2.1443133 1.3412876 -0.18574183 0
-1.844394 1.3441546 -0.17840701 0
-1.5467355 1.3338981 -0.17522204 0
-1.4409313 1.3521307 -0.17148224 0
-1.3324854 1.3422587 -0.17154656 0
-1.2363259 1.369087 -0.16894065 0
-1.1422527 1.3595653 -0.16635393 0
-1.0478837 1.3424969 -0.16424105 0
-0.90120763 1.343953 -0.15964012 0
-0.85389388 1.3410754 -0.15734693 0
-0.74565119 1.3794649 -0.15211672 0
-0.64682436 1.3533876 -0.15017283 0
-0.56502879 1.3425283 -0.14762339 0
-0.479 1.3610001 -0.1445 0
-0.39700001 1.387 -0.14 0
0.13500001 1.3785 -0.12899999 0
0.23157156 1.3577563 -0.12768568 0
0.77499998 1.35 -0.127 0
0.85001791 1.3509951 -0.12645754 0
0.95326757 1.3527741 -0.12264279 0
1.044942 1.3447453 -0.12369645 0
1.1475879 1.3628653 -0.12054341 0
1.2386674 1.3426116 -0.12003069 0
1.3547081 1.3766142 -0.12020457 0
1.5478142 1.3444464 -0.12334751 0
1.6855054 1.3317485 -0.123 0
1.7741071 1.3694673 -0.123 0
1.9424901 1.3280041 -0.12078943 0
2.0430954 1.3520597 -0.11862803 0
2.1779623 1.3478616 -0.11330645 0
2.224 1.306 -0.111 0
-2.973 1.4 -0.17200001 0
-2.7666862 1.4636462 -0.18318012 0
-2.6475129 1.440331 -0.18519577 0
-2.5227482 1.4565494 -0.18912992 0
-2.3358812 1.4577256 -0.18445094 0
-2.2592542 1.4111505 -0.18496729 0
-2.0561678 1.4537897 -0.18096803 0
-1.9556313 1.4486349 -0.17871901 0
-1.6335396 1.4504304 -0.17233086 0
-1.540229 1.4459537 -0.17116013 0
-1.4536867 1.4292258 -0.17283256 0
-1.355648 1.4507025 -0.17060558 0
-1.2603469 1.4623832 -0.16762537 0
-1.1518061 1.4728279 -0.16473505 0
-1.0397729 1.4448137 -0.16101547 0
-0.96233815 1.4564954 -0.15881144 0
-0.84812516 1.4398742 -0.15417391 0
-0.75485879 1.4721022 -0.15003498 0
-0.65726286 1.4726616 -0.14607655 0
-0.55157185 1.4668515 -0.14183751 0
-0.455125 1.4495214 -0.14062092 0
-0.35046649 1.4509435 -0.13846466 0
-0.24777988 1.4661112 -0.13497847 0
-0.134 1.477 -0.13 0
-0.028000001 1.465 -0.12800001 0
0.039000001 1.428 -0.12800001 0
0.14806946 1.4587445 -0.12730162 0
0.25128627 1.4620252 -0.12374274 0
0.49599999 1.415 -0.125 0
0.5235709 1.4994843 -0.12178893 0
0.64999998 1.4809999 -0.12549999 0
0.74049491 1.4490771 -0.12571506 0
0.84772813 1.4521168 -0.12402761 0
0.95373029 1.4458309 -0.12175891 0
1.0509425 1.426975 -0.12082379 0
1.1537273 1.4502736 -0.11875757 0
1.2553967 1.4435533 -0.12008197 0
1.3421826 1.4703512 -0.11885872 0
1.4593713 1.4593705 -0.11824734 0
1.6477213 1.4316697 -0.12352125 0
1.8611473 1.4488605 -0.123 0
1.9355154 1.4600487 -0.123 0
2.0893202 1.4296722 -0.11971924 0
2.1719623 1.4630289 -0.1184677 0
2.2049999 1.437 -0.117 0
2.8740001 1.4069999 -0.101 0
-2.9356241 1.5529308 -0.17745343 0
-2.8417301 1.5459757 -0.18003158 0
-2.7613692 1.5441728 -0.18120472 0
-2.6696653 1.5418259 -0.18425253 0
-2.5760279 1.5688516 -0.18585476 0
-2.4508219 1.5275885 -0.18367641 0
-2.358 1.562 -0.185 0
-2.2459857 1.5636405 -0.18051487 0
-2.1611769 1.5510689 -0.18033521 0
-2.0427675 1.5716925 -0.1775514 0
-1.9358621 1.564229 -0.17589715 0
-1.8135803 1.5836492 -0.17236091 0
-1.7454352 1.5239868 -0.17302068 0
-1.6715493 1.5693829 -0.16975147 0
-1.5501453 1.5594363 -0.17036359 0
-1.4223531 1.5365173 -0.16951574 0
-1.3318626 1.5835233 -0.16592038 0
-1.2582351 1.5188853 -0.1669894 0
-1.1273333 1.5633334 -0.16166668 0
-1.0647893 1.5609245 -0.15945569 0
-0.99023461 1.5481884 -0.15786731 0
-0.86308765 1.5451529 -0.14961271 0
-0.7483263 1.5577806 -0.1436049 0
-0.63347292 1.5646552 -0.13890143 0
-0.53348601 1.563241 -0.13534938 0
-0.44203639 1.5351672 -0.13526833 0
-0.34918991 1.556477 -0.13199246 0
-0.25627375 1.5479022 -0.12834531 0
-0.15251116 1.5528399 -0.12579814 0
-0.070566818 1.5414739 -0.12297555 0
0.05335376 1.5406219 -0.114857 0
0.14681302 1.5513049 -0.12361018 0
0.24670674 1.5472606 -0.12132721 0
0.368 1.533 -0.123 0
0.4827255 1.5554295 -0.11935547 0
0.5700472 1.5479895 -0.12152595 0
0.68315679 1.5591568 -0.12294801 0
0.75104648 1.5516795 -0.12203053 0
0.86537659 1.5296814 -0.12076817 0
0.95647299 1.5588135 -0.11961927 0
1.0550293 1.5481035 -0.11836842 0
1.1564343 1.5305046 -0.11973578 0
1.2467047 1.569557 -0.11719725 0
1.3761271 1.5397911 -0.11726274 0
1.4353217 1.5466372 -0.11740937 0
1.5390841 1.5618501 -0.11638776 0
1.7476285 1.518893 -0.12369501 0
1.8142331 1.5770419 -0.12381084 0
1.964011 1.5534968 -0.123 0
2.04234 1.5412735 -0.123 0
2.142 1.5785 -0.1225 0
2.73 1.5375 -0.101 0
-2.9089999 1.626 -0.178 0
-2.7460225 1.6607882 -0.18117422 0
-2.6423895 1.6440265 -0.18238552 0
-2.4636402 1.63235 -0.18315476 0
-2.3510544 1.6607895 -0.18018012 0
-2.2571826 1.6499788 -0.18079829 0
-2.1495352 1.6543851 -0.17710279 0
-2.0404482 1.648916 -0.17558865 0
-1.9387732 1.6466126 -0.17859863 0
-1.8563676 1.6585894 -0.1707401 0
-1.7611047 1.6355487 -0.16852355 0
-1.6414621 1.6514621 -0.1686891 0
-1.5440595 1.6665516 -0.16754723 0
-1.4346128 1.6284177 -0.16658606 0
-1.3445303 1.6731281 -0.16251232 0
-1.2638569 1.6133283 -0.16324763 0
-1.1406336 1.6490686 -0.15701681 0
-1.037448 1.6417745 -0.15624666 0
-0.96023828 1.6434717 -0.14764589 0
-0.86203438 1.6302274 -0.14478371 0
-0.74623483 1.6456213 -0.13992289 0
-0.63197553 1.6442002 -0.13450049 0
-0.54444307 1.6544365 -0.13168035 0
-0.45516494 1.6578599 -0.12899248 0
-0.35261807 1.6554432 -0.12330297 0
-0.25542185 1.6549197 -0.11360034 0
-0.16033295 1.6502008 -0.11259645 0
-0.063267268 1.6442288 -0.10690216 0
0.082361698 1.6482339 -0.10667761 0
0.15058024 1.651859 -0.11485452 0
0.25161618 1.6334324 -0.11691377 0
0.35636523 1.6478416 -0.11681183 0
0.45565224 1.6521909 -0.1185436 0
0.56715316 1.6554356 -0.11675918 0
0.6402247 1.6458449 -0.11746708 0
0.74511909 1.6565601 -0.12000216 0
0.84798479 1.6352314 -0.11764519 0
0.93648338 1.6588882 -0.11663625 0
1.0575116 1.6566187 -0.11730033 0
1.1433936 1.6434271 -0.11696982 0
1.2567368 1.6599932 -0.11596712 0
1.3423073 1.659251 -0.11555159 0
1.4548994 1.6319602 -0.11635223 0
1.5346702 1.6374717 -0.11558645 0
1.607 1.6059999 -0.115 0
1.8808378 1.6351906 -0.12392667 0
1.923 1.6720001 -0.124 0
2.0368185 1.611467 -0.123 0
2.2445874 1.6152277 -0.11898711 0
2.3181748 1.6684552 -0.11597423 0
-2.8658216 1.7337531 -0.17734607 0
-2.7528889 1.7668383 -0.18010099 0
-2.6397071 1.7495997 -0.18007936 0
-2.5549569 1.7369304 -0.17992212 0
-2.4405098 1.7351086 -0.18021232 0
-2.3516741 1.7292082 -0.1662747 0
-2.2563028 1.7370776 -0.17665419 0
-2.1325693 1.7522941 -0.17571731 0
-2.0238321 1.7628971 -0.17267449 0
-1.9357868 1.7303551 -0.16985331 0
-1.8567855 1.7810968 -0.16781899 0
-1.7636842 1.7319266 -0.1682644 0
-1.6549362 1.758757 -0.16606452 0
-1.5517254 1.7643356 -0.16417213 0
-1.4465878 1.7225699 -0.16276115 0
-1.3755708 1.751985 -0.15974288 0
-1.2427623 1.7444489 -0.156241 0
-1.1533507 1.7405986 -0.15164071 0
-1.0308763 1.7549495 -0.14729188 0
-0.9363668 1.7639117 -0.14211287 0
-0.84642935 1.7452784 -0.13848212 0
-0.7545554 1.7423468 -0.13231269 0
-0.65093046 1.7399218 -0.12926383 0
-0.56309426 1.7436261 -0.12524527 0
-0.45242906 1.7460161 -0.11765134 0
-0.35270411 1.735406 -0.11467264 0
-0.25570527 1.7309891 -0.11066391 0
-0.16489023 1.7441539 -0.10780443 0
-0.091288224 1.7391031 -0.10308458 0
0.15566584 1.7586201 -0.10673662 0
0.24152501 1.7262958 -0.11266065 0
0.3667607 1.7538172 -0.11132983 0
0.4381012 1.7655596 -0.11179236 0
0.53375411 1.767334 -0.11251166 0
0.64598918 1.7508262 -0.11388355 0
0.76555872 1.7526627 -0.11680303 0
0.85950655 1.750874 -0.11612259 0
0.95389003 1.7607973 -0.11362406 0
1.0478351 1.7600172 -0.11327591 0
1.1450363 1.7317711 -0.11535492 0
1.2278705 1.7396617 -0.11399956 0
1.3950268 1.7460799 -0.10851227 0
1.5738087 1.7133319 -0.11440749 0
1.6342767 1.7787206 -0.11364207 0
2.3917623 1.7216829 -0.11296134 0
2.4653497 1.7749106 -0.10994846 0
-2.816 1.867 -0.177 0
-2.7805607 1.8433995 -0.17761903 0
-2.6511259 1.8489813 -0.17779216 0
-2.5430975 1.8559018 -0.16196285 0
-2.459162 1.8279136 -0.16974998 0
-2.3412075 1.847259 -0.17548576 0
-2.2496204 1.81829 -0.17497163 0
-2.1647458 1.8644309 -0.17242551 0
-2.0670471 1.8468271 -0.16891964 0
-1.9378514 1.8447995 -0.16671138 0
-1.8598366 1.8472131 -0.16612741 0
-1.7389507 1.8429852 -0.16487619 0
-1.6343962 1.8373142 -0.16327222 0
-1.5658754 1.8664112 -0.16073461 0
-1.467802 1.837718 -0.15809581 0
-1.3206198 1.8497182 -0.15338558 0
-1.2429311 1.8408023 -0.1484962 0
-1.1436887 1.8316472 -0.14847991 0
-1.0530109 1.8466527 -0.14350483 0
-0.94132537 1.8652129 -0.13135692 0
-0.84329528 1.8713728 -0.12893106 0
-0.74366295 1.8540771 -0.12442374 0
-0.65917015 1.8314334 -0.12389999 0
-0.55809659 1.8561559 -0.11110867 0
-0.44777817 1.8263724 -0.10687642 0
-0.34910274 1.8490492 -0.10644702 0
-0.21106264 1.8107984 -0.10370873 0
-0.167 1.807 -0.104 0
0.17906997 1.8469322 -0.10825568 0
0.23053819 1.8253098 -0.10709142 0
0.32692894 1.8537742 -0.10548589 0
0.45052251 1.8712655 -0.10637451 0
0.55926836 1.8495362 -0.10883977 0
0.66111666 1.8509821 -0.10945004 0
0.74674028 1.8333173 -0.11141218 0
0.85147321 1.8716431 -0.11372735 0
1.038264 1.8247849 -0.11051046 0
1.1289999 1.801 -0.111 0
1.257 1.813 -0.11 0
1.441 1.804 -0.107 0
1.6947448 1.8441092 -0.11287665 0
2.5389371 1.8281381 -0.10693558 0
2.6125245 1.8813658 -0.10392269 0
-2.7377582 1.9434237 -0.18001024 0
-2.6491342 1.9331187 -0.15234557 0
-2.5585375 1.9415144 -0.16094384 0
-2.4587927 1.9876641 -0.17435458 0
-2.3496737 1.946279 -0.17437185 0
-2.23524 1.9482399 -0.16997084 0
-2.1531711 1.94487 -0.16806993 0
-2.0746288 1.9448497 -0.16597289 0
-1.9708879 1.9457016 -0.1646076 0
-1.8371425 1.9495684 -0.16309918 0
-1.7463417 1.929347 -0.16219558 0
-1.6406565 1.9503884 -0.15778957 0
-1.5479225 1.9449078 -0.15761937 0
-1.4470019 1.9568877 -0.15339072 0
-1.3345083 1.9377304 -0.14653075 0
-1.229539 1.9547504 -0.14167608 0
-1.1266849 1.9430031 -0.14191714 0
-1.0312459 1.9319711 -0.14061809 0
-0.9699443 1.9523298 -0.12690297 0
-0.85564643 1.9624281 -0.12343024 0
-0.7570079 1.9435947 -0.11582538 0
-0.64661783 1.9602597 -0.10826755 0
-0.54191756 1.9286497 -0.10660326 0
0.18709329 1.9289097 -0.10267425 0
0.25268531 1.9293594 -0.10252952 0
0.36899766 1.9384081 -0.1014199 0
0.44908991 1.9582099 -0.10176747 0
0.53834796 1.940273 -0.10458142 0
0.6338402 1.9251006 -0.10514414 0
0.73781967 1.9384139 -0.10666728 0
0.83782184 1.9815724 -0.10686823 0
1.0821414 1.9039156 -0.1077622 0
1.1260186 1.9830465 -0.10501395 0
1.7596065 1.9142489 -0.11205561 0
2.6861119 1.9345934 -0.10090981 0
-2.750406 2.0261526 -0.10964099 0
-2.6488919 2.041142 -0.17500466 0
-2.5537584 2.0645611 -0.17407446 0
-2.4453721 2.0758026 -0.17257793 0
-2.3609304 2.0524287 -0.17035362 0
-2.261939 2.0438685 -0.16087712 0
-2.1586611 2.0342572 -0.1625421 0
-2.0649681 2.0140638 -0.16367289 0
-1.9421287 2.0595644 -0.16138394 0
-1.852949 2.0569522 -0.16066952 0
-1.7522377 2.052155 -0.15585399 0
-1.6621048 2.049417 -0.15377162 0
-1.557972 2.0602846 -0.15150268 0
-1.4447037 2.0583341 -0.14776473 0
-1.3383569 2.0323462 -0.14232692 0
-1.2531643 2.0584691 -0.14498428 0
-1.1520379 2.0443428 -0.13308673 0
-1.0423281 2.0386519 -0.12679881 0
-0.93927515 2.0491605 -0.1217073 0
-0.85020208 2.0477593 -0.11421724 0
-0.75348932 2.0177617 -0.10733099 0
-0.69400001 2.0039999 -0.104 0
0.58688807 2.0167274 -0.10172626 0
0.6613512 2.0087724 -0.10189408 0
0.76948357 2.0200968 -0.10340074 0
0.84817052 2.0780554 -0.10234632 0
1.169896 2.0621774 -0.10226569 0
-2.494 2.1170001 -0.17200001 0
-2.3519542 2.138653 -0.14507253 0
-2.2343307 2.1615384 -0.14556433 0
-2.1686211 2.1227574 -0.16156815 0
-1.9490595 2.1799619 -0.15566389 0
-1.8529357 2.1354647 -0.1562153 0
-1.7469851 2.1602705 -0.14848502 0
-1.624 2.1570001 -0.148 0
-1.5407499 2.1323547 -0.14801621 0
-1.4308553 2.1594572 -0.13565584 0
-1.3491112 2.1511643 -0.14125757 0
-1.2368463 2.166399 -0.12217356 0
-1.1532054 2.15639 -0.12766518 0
-1.0435418 2.1169112 -0.10782118 0
0.90609586 2.1454298 -0.1008243 0
-2.4593759 2.2664635 -0.10779588 0
-2.3425937 2.257092 -0.1221544 0
-2.053 2.2079999 -0.15800001 0
-1.934157 2.2444258 -0.14449568 0
-1.8500154 2.2246399 -0.14823332 0
-1.7871304 2.2197671 -0.15186195 0
-1.6468331 2.2560432 -0.14769912 0
-1.511261 2.2586186 -0.12243532 0
-1.4285351 2.2496088 -0.13015527 0
-1.2774999 2.214 -0.12800001 0
-2.4346914 2.3493764 -0.1064623 0
-1.9663827 2.3628237 -0.12156819 0
-1.553 2.322 -0.119 0
-2.0222945 2.4323699 -0.11564936 0
-2.1040001 2.5339999 -0.107 0
-2.0782063 2.5019162 -0.10973053 0
1.971 -2.721 -0.003 0
-1.975 -2.6140001 -0.064000003 0
-1.9376061 -2.5652413 -0.065466434 0
-0.55714315 -2.5609651 -0.038995381 0
-0.23800001 -2.575 -0.066 0
2.076 -2.5969999 -0.0080000004 0
2.1477492 -2.5601468 -0.00010753982 0
-1.8581905 -2.4616895 -0.068580769 0
-0.5254966 -2.4131138 -0.04820469 0
-0.46200001 -2.447 -0.061000001 0
-0.22578391 -2.4446344 -0.051231302 0
2.0878594 -2.4661632 -0.018772513 0
2.1384373 -2.4986532 -0.013090057 0
2.2290001 -2.427 -0.0070000002 0
2.342 -2.4319999 -0.0099999998 0
2.4020464 -2.4947236 -0.0014583655 0
-1.7787749 -2.3581378 -0.071695104 0
-1.358 -2.3080001 -0.093999997 0
-1.202 -2.3889999 -0.064999998 0
-1.1673847 -2.3236203 -0.065634787 0
-0.80000001 -2.3299999 -0.046999998 0
-0.50668454 -2.3252244 -0.053679105 0
-0.46673778 -2.33586 -0.06260293 0
-0.21356784 -2.3142686 -0.036462605 0
2.0250001 -2.372 -0.041999999 0
-1.7258312 -2.2891035 -0.073771328 0
-1.6728874 -2.2200689 -0.075847551 0
-1.4189768 -2.2328072 -0.079473875 0
-1.3666558 -2.2504387 -0.072209008 0
-1.1201377 -2.2361016 -0.060932983 0
-0.77454019 -2.254199 -0.050471798 0
-0.45811626 -2.2301333 -0.057667319 0
-0.20542379 -2.2273583 -0.026616808 0
1.278 -2.2130001 -0.030999999 0
1.372 -2.2550001 -0.033 0
1.4338503 -2.2388058 -0.03644494 0
1.5322102 -2.278059 -0.035468861 0
1.7144141 -2.2739916 -0.067187026 0
-2.941 -2.152 -0.077 0
-2.8794215 -2.1039414 -0.083248734 0
-1.71 -2.168 -0.082000002 0
-1.6521263 -2.1434846 -0.081226982 0
-1.503 -2.197 -0.086000003 0
-1.4456334 -2.1644731 -0.087469488 0
-1.3513563 -2.1269903 -0.07168965 0
-1.0852983 -2.1686487 -0.066919409 0
-0.74674869 -2.1714563 -0.054261539 0
-0.50876343 -2.1581349 -0.032436147 0
-0.4424611 -2.1576922 -0.058523651 0
-0.3370809 -2.151279 -0.025296539 0
-0.19727972 -2.1404479 -0.016771007 0
1.2518226 -2.1306126 -0.032661185 0
1.3473775 -2.1578059 -0.040785372 0
1.4507074 -2.1599503 -0.043447066 0
1.5948627 -2.1157866 -0.069299251 0
1.6493454 -2.1878848 -0.068336651 0
-2.8213949 -2.073689 -0.086606599 0
-2.7864113 -2.0652912 -0.090179309 0
-2.5433478 -2.0224533 -0.015127454 0
-2.2112896 -2.078722 -0.067880318 0
-2.1474633 -2.0207551 -0.079808503 0
-1.723 -2.0840001 -0.078000002 0
-1.6623819 -2.0593863 -0.085538656 0
-1.5384468 -2.0779746 -0.07712137 0
-1.4680562 -2.0468464 -0.081480809 0
-1.3137534 -2.0403504 -0.094372958 0
-1.2714527 -2.0263214 -0.063248165 0
-1.0421472 -2.0788856 -0.094483972 0
-0.71895725 -2.0887136 -0.058051281 0
-0.6911658 -2.005971 -0.061841026 0
-0.45430598 -2.0467424 -0.070126638 0
-0.33150864 -2.0619888 -0.035224445 0
-0.16623582 -2.0593493 -0.013905239 0
1.1919374 -2.0704031 -0.026294902 0
1.2395159 -2.0304675 -0.044834808 0
1.3492731 -2.058532 -0.036476284 0
1.5403798 -2.0436883 -0.070261844 0
-2.8665972 -1.9230628 -0.013842821 0
-2.7421582 -1.9968153 -0.097177669 0
-2.4431906 -1.9384868 -0.034707114 0
-2.0883474 -1.9670663 -0.090856373 0
-1.812 -1.924 -0.097999997 0
-1.755792 -1.9749819 -0.080861062 0
-1.6617047 -1.9766077 -0.091041669 0
-1.5522919 -1.9695177 -0.094224721 0
-1.4357245 -1.9547288 -0.077023968 0
-1.3884431 -1.9204503 -0.0808191 0
-1.2320328 -1.9436544 -0.086529128 0
-0.66337436 -1.9232281 -0.065630771 0
-0.43597528 -1.9613695 -0.076772191 0
-0.31624886 -1.9423324 -0.046939846 0
-0.29114294 -1.9811664 -0.045430277 0
-0.14814317 -1.977092 -0.029658753 0
-0.0041549215 -1.9724004 -0.071187735 0
0.17175987 -1.9195311 -0.048320174 0
0.2625708 -1.9288744 -0.052283876 0
1.0981426 -1.9116175 -0.053979315 0
1.1690005 -1.9708986 -0.048518755 0
1.2555606 -1.9280059 -0.051474895 0
1.3166652 -1.985599 -0.036387168 0
1.4858969 -1.9715898 -0.071224436 0
-4.0349998 -1.848 -0.072999999 0
-3.9398599 -1.8582122 -0.07734786 0
-3.8422222 -1.8658888 -0.079871535 0
-3.7199767 -1.8090643 -0.092839189 0
-2.757998 -1.8495393 -0.036776766 0
-2.3436849 -1.8550668 -0.054159321 0
-1.8549764 -1.8399782 -0.077005073 0
-1.7057508 -1.8846676 -0.086357012 0
-1.6471257 -1.8213897 -0.095130838 0
-1.3523803 -1.8558573 -0.091461264 0
-1.1554308 -1.8391042 -0.077311426 0
-0.62993586 -1.846675 -0.036526859 0
-0.43151742 -1.8807431 -0.07600005 0
-0.35109517 -1.8574718 -0.078880891 0
-0.27914348 -1.8430343 -0.058831315 0
-0.13850021 -1.8534645 -0.04746113 0
-0.061884332 -1.8665606 -0.067055285 0
0.1638158 -1.8378496 -0.058912277 0
0.24991325 -1.8391989 -0.063654199 0
0.33900186 -1.8740801 -0.025484171 0
0.79205775 -1.80688 -0.066588566 0
0.88458741 -1.8135664 -0.03352071 0
0.91000003 -1.862 -0.024999999 0
1.0527141 -1.835494 -0.059783451 0
1.1413785 -1.8366798 -0.059400927 0
1.21861 -1.8382328 -0.050424781 0
1.3769313 -1.8273933 -0.073149621 0
1.4314141 -1.8994915 -0.072187029 0
-4.9315825 -1.7438579 -0.079573326 0
-4.8448133 -1.7148584 -0.09413036 0
-4.7020001 -1.7819999 -0.078000002 0
-4.640595 -1.7599995 -0.086664557 0
-4.5568619 -1.7299995 -0.098479606 0
-3.8913064 -1.7843773 -0.093062855 0
-2.6493993 -1.7760156 -0.059710708 0
-2.5769999 -1.727 -0.075000003 0
-2.2441795 -1.7716467 -0.073611528 0
-1.7737303 -1.7800652 -0.092504226 0
-1.2878869 -1.7618415 -0.083593018 0
-1.0858176 -1.7267739 -0.085749388 0
-0.60779142 -1.7577426 -0.073210254 0
-0.59914446 -1.7704324 -0.015816599 0
-0.44623119 -1.7406526 -0.084505811 0
-0.38127068 -1.7392964 -0.090175189 0
-0.2766906 -1.7434689 -0.069746301 0
-0.12885727 -1.7298368 -0.065263502 0
-0.032721229 -1.753894 -0.078541525 0
0.15611185 -1.7586372 -0.069184214 0
0.23868494 -1.7596493 -0.073740646 0
0.31200233 -1.7487251 -0.047855213 0
0.75808662 -1.7348201 -0.076882847 0
0.84886104 -1.7257339 -0.06037572 0
1.0332288 -1.7420964 -0.063266262 0
1.145973 -1.7471197 -0.06053026 0
1.3224485 -1.7552949 -0.074112222 0
2.0563555 -1.7294196 -0.013545986 0
2.1248074 -1.7878927 -0.0027279854 0
2.21576 -1.7104071 -0.00025900081 0
-2.1446741 -1.6882267 -0.093063727 0
-1.2379246 -1.6918944 -0.091395348 0
-1.1879623 -1.6219472 -0.099197671 0
-1.0394088 -1.6518869 -0.091374695 0
-0.57700002 -1.6815 -0.052500002 0
-0.44610974 -1.640878 -0.090524398 0
-0.36446148 -1.6492007 -0.092405334 0
-0.26613396 -1.6453009 -0.080904864 0
-0.12242863 -1.6474185 -0.077131748 0
-0.057105273 -1.6459471 -0.0830414 0
0.14455593 -1.6398187 -0.084592104 0
0.24389529 -1.6393131 -0.081827581 0
0.75110233 -1.6368859 -0.078234375 0
0.84090739 -1.6539336 -0.053694922 0
0.93658203 -1.6629359 -0.053323369 0
1.0510083 -1.6337297 -0.074846298 0
1.1182841 -1.6782236 -0.075987548 0
1.2407243 -1.6471474 -0.075556114 0
1.9536778 -1.6417098 -0.029772993 0
2.0759201 -1.605469 -0.026086334 0
2.1458399 -1.657938 -0.013172669 0
2.2494977 -1.6385942 -0.022166796 0
2.3207462 -1.6878912 -0.010250196 0
2.5902963 -1.6378654 -0.020803124 0
2.6659446 -1.685798 -0.0077046864 0
-0.99299997 -1.577 -0.097000003 0
-0.43099999 -1.579 -0.097000003 0
-0.34900001 -1.5599999 -0.093000002 0
-0.2385 -1.563 -0.088500001 0
-0.116 -1.5650001 -0.089000002 0
-0.0425 -1.541 -0.091499999 0
0.049469233 -1.5632567 -0.087206729 0
0.133 -1.521 -0.1 0
0.21916291 -1.5623835 -0.084859714 0
0.69402885 -1.59894 -0.096294284 0
0.76285714 -1.5657544 -0.087081105 0
0.87099999 -1.531 -0.082999997 0
0.97249997 -1.551 -0.080499999 0
1.0225 -1.5434999 -0.078500003 0
1.159 -1.539 -0.077 0
1.438 -1.5304999 -0.093500003 0
1.5560707 -1.5216198 -0.083122596 0
1.62 -1.5319999 -0.075999998 0
1.8610001 -1.5475 -0.063500002 0
2.006 -1.553 -0.039000001 0
2.1426244 -1.5646485 -0.0400417 0
2.3789883 -1.5030822 -0.055121087 0
2.4389999 -1.5420001 -0.046999998 0
2.5283241 -1.5644664 -0.041950777 0
2.8099999 -1.531 -0.056000002 0
3.5739999 -1.5470001 -0.012 0
3.6553392 -1.5863844 -0.0030030906 0
3.857162 -1.5076276 -0.088076182 0
3.9441013 -1.5462673 -0.080172613 0
1.4426112 -1.4673213 -0.09551663 0
1.5217317 -1.4701681 -0.084985793 0
1.7370627 -1.430042 -0.091286041 0
1.8053573 -1.4866195 -0.08604119 0
2.2335629 -1.4087729 -0.074800774 0
2.3172922 -1.4295738 -0.069442019 0
2.4401355 -1.4742754 -0.061403878 0
2.5910976 -1.4164748 -0.077382863 0
2.668117 -1.4567698 -0.06985943 0
2.7451365 -1.4970648 -0.062336005 0
3.7831216 -1.4747207 -0.094807141 0
1.4678081 -1.3829061 -0.096911862 0
1.6687679 -1.3734646 -0.096530899 0
2.0881379 -1.3144637 -0.09448047 0
2.1700282 -1.3350492 -0.087628014 0
2.253757 -1.3558502 -0.082269251 0
2.4370584 -1.3358849 -0.09242972 0
2.5140781 -1.3761799 -0.084906287 0
4.1919999 -1.306 -0.090000004 0
2.1046543 -1.2611101 -0.098961554 0
2.360039 -1.2955899 -0.099953145 0
3.893496 -1.2096626 -0.099965952 0
3.97612 -1.2363281 -0.097207442 0
4.058744 -1.2629937 -0.094448924 0
4.1413679 -1.2896594 -0.091690414 0
3.9516068 -0.43378532 -0.095673665 0
4.0614276 -0.44214121 -0.091694653 0
4.1628208 -0.44985592 -0.088020995 0
3.8280001 -0.236 -0.097999997 0
3.9437366 -0.24009687 -0.09458594 0
4.059473 -0.24419375 -0.091171876 0
4.1518154 -0.2474625 -0.088447914 0
3.7509999 -0.141 -0.097000003 0
3.8296118 -0.14164086 -0.095077425 0
3.9475298 -0.14260215 -0.092193566 0
4.0654478 -0.14356343 -0.0893097 0
4.119 -0.14399999 -0.088 0
3.7521691 -0.048607148 -0.096214294 0
3.8726764 -0.047428593 -0.093857184 0
3.9530144 -0.046642888 -0.092285782 0
4.0333529 -0.045857187 -0.090714373 0
4.1173453 -0.045035742 -0.089071482 0
3.6860001 0.039999999 -0.097999997 0
3.7637115 0.042886429 -0.095779672 0
3.841423 0.045772854 -0.09355934 0
3.9579902 0.050102495 -0.090228848 0
4.0359998 0.052999999 -0.088 0
3.358 0.14300001 -0.097999997 0
3.4448638 0.1439185 -0.096687853 0
3.5317278 0.14483701 -0.095375717 0
3.6185915 0.1457555 -0.094063573 0
3.7488871 0.14713326 -0.09209536 0
3.8791828 0.14851101 -0.090127148 0
3.9660468 0.1494295 -0.088815004 0
4.02 0.15000001 -0.088 0
3.4360001 0.20299999 -0.093999997 0
3.5196574 0.20943518 -0.092873842 0
3.6451435 0.21908794 -0.091184601 0
3.7706294 0.22874072 -0.089495368 0
3.8542869 0.23517591 -0.088369213 0
3.9469721 0.24230555 -0.087121531 0
3.3789999 0.36399999 -0.093999997 0
3.4620821 0.37440556 -0.092699297 0
3.5451641 0.38481116 -0.091398604 0
3.6282463 0.39521673 -0.090097904 0
3.3529999 0.44299999 -0.094999999 0
3.4387529 0.45293644 -0.091733225 0
3.5245056 0.46287286 -0.088466451 0
3.6531351 0.47777754 -0.083566278 0
3.762501 0.43811083 -0.08498662 0
3.8837461 0.42721677 -0.086097911 0
3.293 0.59899998 -0.094999999 0
3.8675172 0.50261867 -0.075399347 0
3.9681351 0.51427752 -0.071566284 0
3.3785524 0.61106682 -0.092288353 0
3.4641049 0.62313366 -0.089576706 0
3.5496573 0.63520044 -0.08686506 0
3.6352096 0.64726728 -0.084153421 0
3.720762 0.65933412 -0.081441775 0
3.8490906 0.67743438 -0.077374309 0
3.924 0.68800002 -0.075000003 0
3.3244467 0.83939129 -0.097870752 0
3.4496164 0.86397827 -0.093176886 0
3.5747864 0.88856524 -0.088483006 0
2.9840174 0.93448788 -0.099712804 0
3.065526 0.96323186 -0.096069202 0
3.1470346 0.99197578 -0.092425607 0
3.6582332 0.90495652 -0.085353762 0
3.7416797 0.9213478 -0.082224511 0
3.8010001 0.93300003 -0.079999998 0
3.2285433 1.0207198 -0.088782005 0
3.3508062 1.0638357 -0.083316609 0
3.425 1.09 -0.079999998 0
3.0669999 1.1160001 -0.096000001 0
3.1629372 1.1576331 -0.090117067 0
3.2588742 1.1992661 -0.084234126 0
3.279 1.2079999 -0.082999997 0
2.967 1.331 -0.094999999 0
3.0458806 1.3673559 -0.093162514 0
3.128 1.3150001 -0.085000001 0
3.2421677 1.3646935 -0.084235489 0
2.8570001 1.451 -0.093999997 0
2.9449625 1.4670879 -0.095493704 0
3.0355263 1.4778737 -0.096290782 0
3.1247613 1.4037119 -0.09132503 0
3.243082 1.4582459 -0.088568807 0
3.3563352 1.414387 -0.08347097 0
3.432447 1.447516 -0.082961291 0
3.5085588 1.4806449 -0.082451619 0
2.5480001 1.5829999 -0.093000002 0
2.8371539 1.5288934 -0.094867036 0
2.9429855 1.5772501 -0.09086547 0
3.0524049 1.5528474 -0.089855045 0
3.156671 1.531029 -0.092758864 0
3.2778156 1.5841843 -0.089226954 0
3.361403 1.5127798 -0.085812576 0
3.4402838 1.5491358 -0.083975092 0
3.5475821 1.5477459 -0.082068801 0
-0.033241842 1.6874038 -0.093553618 0
0.044061288 1.6528656 -0.092570998 0
2.553 1.638 -0.098999999 0
2.6271434 1.6585672 -0.094297811 0
2.7451825 1.6502885 -0.092467211 0
2.858321 1.64911 -0.096574098 0
2.9669523 1.6640127 -0.094281673 0
3.0757859 1.6546621 -0.088532291 0
3.162385 1.6450961 -0.08526957 0
3.2478099 1.6546948 -0.085710093 0
3.3422751 1.6575274 -0.085462227 0
3.4393418 1.6550581 -0.084517732 0
3.5440526 1.6492475 -0.081581563 0
-0.31509608 1.7865609 -0.098280534 0
-0.26310959 1.7700939 -0.096118324 0
-0.13968997 1.7577537 -0.089634061 0
-0.063132346 1.7613121 -0.087398604 0
0.059823927 1.7407627 -0.083038852 0
0.15957776 1.7810616 -0.089037091 0
2.5597677 1.7261783 -0.098851353 0
2.7558105 1.7479426 -0.092168488 0
2.8590708 1.7515988 -0.088081792 0
2.9402111 1.7752647 -0.086827368 0
3.0549722 1.7579974 -0.091041707 0
3.1555381 1.716934 -0.089670338 0
3.234874 1.738508 -0.084309131 0
3.3144181 1.780431 -0.082197547 0
3.4432149 1.7565422 -0.081565134 0
3.5384998 1.7514999 -0.080499999 0
-0.43539858 1.8911657 -0.096250951 0
-0.33599722 1.8612041 -0.092527233 0
-0.26379934 1.8371476 -0.080748759 0
-0.1855 1.819 -0.088500001 0
0.090000004 1.801 -0.082000002 0
0.15745208 1.850825 -0.083502442 0
0.25918707 1.8890269 -0.09851262 0
2.67307 1.8017133 -0.095405415 0
2.748605 1.85207 -0.093108125 0
2.8601449 1.8308498 -0.090437174 0
2.9337161 1.850836 -0.087489076 0
3.0385447 1.8537754 -0.084966712 0
3.1729629 1.8233298 -0.087722272 0
3.2516234 1.8668848 -0.085509323 0
3.3939621 1.8223538 -0.080085963 0
3.4803374 1.8731846 -0.07864958 0
3.554024 1.8915317 -0.073384926 0
-0.61400002 1.971 -0.098999999 0
-0.54100001 1.9445 -0.096499994 0
-0.44967395 1.911446 -0.093770683 0
0.16867675 1.9572935 -0.069183528 0
0.27249566 1.9885149 -0.096496336 0
0.33384907 1.9787116 -0.099229813 0
2.7596993 1.987821 -0.097896926 0
2.8619075 1.9276049 -0.089662179 0
3.0625741 1.9404052 -0.084775053 0
3.1642118 1.9409525 -0.082772717 0
3.2444925 1.9622843 -0.081263855 0
3.3302839 1.9104397 -0.083296366 0
3.4459722 1.9744973 -0.080041707 0
3.6629021 1.9502953 -0.070713848 0
-0.92699999 2.089 -0.098999999 0
-0.792 2.0350001 -0.098999999 0
0.18037219 2.0082958 -0.074030936 0
0.25870347 2.0751019 -0.092913531 0
0.35480404 2.0701361 -0.07384491 0
0.46725032 2.0406671 -0.097625881 0
0.53706264 2.0284371 -0.099458188 0
0.63581133 2.0961428 -0.097824052 0
0.71656728 2.0908747 -0.099311441 0
2.8332868 2.0410485 -0.094884038 0
2.9410419 2.048708 -0.089043699 0
3.050745 2.0534966 -0.083918951 0
3.1672897 2.0236995 -0.081874341 0
3.2402887 2.0431046 -0.080680341 0
3.3412995 2.0507634 -0.079679608 0
3.4230001 2.072 -0.078000002 0
0.28873453 2.1651711 -0.083903916 0
0.37358221 2.1348577 -0.056082211 0
0.41839042 2.1281607 -0.092491828 0
0.5388211 2.1273572 -0.094457641 0
0.65600002 2.1605 -0.094999999 0
0.75301278 2.1605771 -0.0968806 0
0.8439551 2.1869466 -0.096941471 0
1.2299246 2.1704361 -0.098505817 0
2.977 2.145 -0.089000002 0
3.1262801 2.1038532 -0.081621662 0
3.2018151 2.1542101 -0.079324365 0
3.349431 2.138062 -0.076796465 0
-1.234 2.2060001 -0.1 0
0.29365939 2.2635818 -0.083587095 0
0.30737415 2.2450538 -0.073025241 0
0.43215588 2.2619472 -0.038338475 0
0.77617466 2.2602532 -0.093122341 0
0.93800002 2.2219999 -0.097999997 0
1.2845699 2.2627716 -0.095392093 0
3.2773499 2.2045667 -0.077027075 0
3.3440001 2.2490001 -0.075000003 0
-2.5508347 2.3549514 -0.088061169 0
0.31053269 2.3513095 -0.074472278 0
0.44645271 2.3601036 -0.055379704 0
0.80734932 2.3425062 -0.090244681 0
0.97505814 2.3035069 -0.094877124 0
1.0121162 2.3850138 -0.091754258 0
1.3311396 2.340543 -0.092784181 0
-2.6139035 2.4159718 -0.074452348 0
-2.5267892 2.4416611 -0.090770207 0
0.33173382 2.4250336 -0.060140777 0
0.45689553 2.4549372 -0.064283721 0
0.83852398 2.4247594 -0.087367021 0
1.0491743 2.4665208 -0.088631384 0
1.3777094 2.4183145 -0.090176277 0
1.4242792 2.4960861 -0.087568365 0
-2.5890937 2.5040922 -0.080154404 0
0.46994349 2.5567119 -0.053659994 0
0.50853127 2.5361948 -0.065275535 0
0.86969858 2.5070124 -0.08448936 0
0.90087324 2.5892656 -0.0816117 0
1.0862324 2.548028 -0.08550851 0
1.4708489 2.5738575 -0.084960461 0
0.4922874 2.6379867 -0.045563288 0
0.52700001 2.6159999 -0.079000004 0
0.60399997 2.678 -0.078000002 0
0.9320479 2.6715188 -0.07873404 0
1.1232904 2.6295347 -0.082385637 0
1.5174187 2.6516292 -0.082352549 0
0.50715959 2.7264056 -0.050636582 0
0.6262694 2.7623694 -0.076345697 0
0.96322256 2.7537718 -0.07585638 0
1.1788776 2.7517953 -0.07770133 0
1.5639886 2.7294006 -0.079744644 0
2.3039999 2.789 -0.088 0
0.5266915 2.8428144 -0.054848153 0
0.64853883 2.8467388 -0.0746914 0
0.85627538 2.8524628 -0.07401371 0
0.99439716 2.836025 -0.07297872 0
1.005 2.8640001 -0.071999997 0
1.2344648 2.8740559 -0.073017024 0
1.6338432 2.8460581 -0.075832784 0
2.3618541 2.8587792 -0.08529827 0
0.54659903 2.9605639 -0.066813879 0
0.67080832 2.931108 -0.073037095 0
0.8991015 2.9798508 -0.071054809 0
1.2715228 2.9555628 -0.06989415 0
1.7036979 2.9627154 -0.071920916 0
2.4486356 2.9634476 -0.081245683 0
0.69307774 3.0154774 -0.071382798 0
0.71534717 3.0998468 -0.069728494 0
0.92765218 3.0647764 -0.069082215 0
1.294 3.0050001 -0.068000004 0
1.391 3.0380001 -0.066 0
1.738 3.02 -0.07 0
2.5354168 3.0681164 -0.077193089 0
0.7376166 3.1842163 -0.068074189 0
0.95620292 3.1497018 -0.067109615 0
1.4502676 3.1566973 -0.048950456 0
2.593271 3.1378956 -0.074491367 0
0.75988603 3.2685857 -0.066419892 0
0.98475367 3.2346272 -0.065137021 0
1.509535 3.2753947 -0.031900913 0
2.6511252 3.2076745 -0.071789637 0
2.7089796 3.2774537 -0.069087908 0
0.77899998 3.3410001 -0.064999998 0
1.0133044 3.3195527 -0.063164428 0
1.5490466 3.3545263 -0.020534549 0
2.7668338 3.3472328 -0.066386178 0
0.79665226 3.4266078 -0.051385835 0
1.0561304 3.4469409 -0.06020553 0
1.5885582 3.4336576 -0.0091681853 0
2.853615 3.4519014 -0.062333591 0
0.82313061 3.5550194 -0.030964594 0
1.0989566 3.5743291 -0.057246637 0
2.925 3.5380001 -0.059 0
0.84960902 3.6834309 -0.010543354 0
1.117 3.628 -0.056000002 0
1.373 4.2940001 -0.035999998 0
1.4049009 4.3778257 -0.026576962 0
1.4368018 4.4616518 -0.017153924 0
1.4687027 4.5454774 -0.0077308863 0
2.151 -2.9419999 0.045000002 0
2.3673422 -2.950007 0.043833911 0
2.402 -2.9920001 0.050000001 0
2.813 -2.924 0.057000004 0
2.0635352 -2.8346124 0.021676028 0
2.1098027 -2.8914187 0.034014046 0
2.2878852 -2.8537323 0.029697392 0
2.3627453 -2.8127344 0.039462298 0
2.4238811 -2.8507917 0.055384897 0
2.5792885 -2.8038507 0.043634105 0
2.6443348 -2.8738294 0.053036563 0
2.7323017 -2.8397036 0.045520622 0
2.0172675 -2.7778063 0.0093380138 0
2.1819427 -2.7253661 0.010848696 0
2.2349141 -2.7895491 0.020273045 0
2.3371539 -2.7507734 0.037149835 0
2.5209069 -2.7410421 0.03519509 0
2.6422319 -2.7456181 0.032708168 0
-1.1511863 -2.6493201 0.081184268 0
2.1289713 -2.6611829 0.001424348 0
2.2362063 -2.6450136 0.015094061 0
2.3085928 -2.6886327 0.030274857 0
2.4333348 -2.6468296 0.022536565 0
2.5521626 -2.6515326 0.019895721 0
-1.1151766 -2.5638349 0.070744455 0
2.1951556 -2.5619795 0.0013649128 0
2.345763 -2.5526168 0.0098780366 0
2.4620929 -2.5574472 0.0070832688 0
-1.0653825 -2.4456263 0.056308337 0
1.6564887 -2.4229147 0.021218892 0
1.706 -2.4920001 0.011 0
2.2873814 -2.4898086 0.0014390182 0
-1.0155883 -2.3274174 0.041872226 0
-0.76800001 -2.3239999 0.066 0
1.6069775 -2.3538291 0.031437784 0
-0.98239219 -2.2486117 0.032248151 0
-0.75001127 -2.2650266 0.057283808 0
-0.30945897 -2.2342129 0.023239639 0
1.5327106 -2.250201 0.046766125 0
-3.221 -2.1630001 0.061000004 0
-3.1561944 -2.1191256 0.047314361 0
-2.5576351 -2.1269274 0.073683061 0
-0.9491961 -2.169806 0.022624075 0
-0.72486681 -2.1825943 0.04510041 0
-0.69972235 -2.1001618 0.032917008 0
-0.26941794 -2.1259258 0.027979279 0
1.4307219 -2.1437864 0.031547233 0
2.5602593 -2.1598659 0.066090025 0
-3.0475955 -2.0456018 0.024380416 0
-2.440855 -2.0351717 0.056073382 0
-0.91600001 -2.0910001 0.013 0
-0.67457789 -2.0177295 0.020733606 0
-0.26198989 -2.0686641 0.037765145 0
0.68199998 -2.0380001 0.02 0
1.1533126 -2.0089126 0.0001718495 0
1.362 -2.0120001 0.082000002 0
1.4089324 -2.0774872 0.072313353 0
2.3986149 -2.0217855 0.040544037 0
2.4670668 -2.0802586 0.051362041 0
2.6070001 -2.0039999 0.071999997 0
3.1954823 -2.0213268 0.083984382 0
3.2360001 -2.0469999 0.090999998 0
3.671 -2.039 0.025 0
-2.9389966 -1.9720784 0.0014464781 0
-2.3394401 -1.9554886 0.040780641 0
-2.2718301 -1.9023664 0.030585481 0
-0.64943337 -1.935297 0.0085502043 0
-0.22697979 -1.9768283 0.041030288 0
-0.18099162 -1.9666269 0.0029205903 0
0.65275121 -1.9531305 0.010889712 0
1.052 -1.909 0.026000002 0
1.1117501 -1.9408835 0.010562465 0
2.2617111 -1.904839 0.018908028 0
2.330163 -1.9633123 0.029726032 0
2.4954398 -1.9202832 0.051395666 0
2.5653596 -1.9727523 0.064309329 0
2.675 -1.933 0.048999999 0
3.0441859 -1.9254615 0.0577875 0
