# .PCD v0.7 - Point Cloud Data file format
VERSION 0.7
FIELDS x y z intensity
SIZE 4 4 4 4
TYPE F F F F
COUNT 1 1 1 1
WIDTH 276
HEIGHT 1
VIEWPOINT 0 0 0 1 0 0 0
POINTS 276
DATA ascii
-7.0308518 3.308737 1.5327457 9
-7.0804634 3.193188 1.6937494 10
-6.9383912 3.2796607 1.8271501 10.333333
-6.9149952 3.2361119 2.0558462 11
-6.7701797 3.3314824 1.8229135 10
-6.7410192 3.298562 2.1636097 12
-4.8797116 2.1462383 0.079553358 4
-4.029161 1.3174955 0.67088372 8
-4.1591983 1.2924502 1.5013059 13.5
-4.105176 1.2730541 1.7216816 14.666667
-3.7352734 1.6319215 -0.032518145 3
-3.8986802 1.416178 0.35243914 6
-3.7958364 1.6718152 0.32942897 5.5
-3.7556663 1.4475218 0.58998299 7.5
-3.7441604 1.6830921 0.59034956 7.3333335
-3.7736332 1.4958024 1.0420811 11.166667
-3.8770103 1.361758 1.3870541 13.25
-3.8240917 1.6143751 1.5314279 14
-3.78546 1.4826496 1.748834 15.6
-3.7719259 1.6048752 1.8264661 16
-3.7578459 -2.169862 2.3270018 18.25
-3.8704183 -1.9559675 2.3680317 18.5
-3.8478918 -1.5094968 2.3877635 19
-3.6696317 -1.609239 2.5306087 20
-3.7439659 -1.5478445 2.4986885 20
-3.7164817 -1.0929954 2.5121043 20.5
-3.5236681 1.434023 -0.18381554 2
-3.3483829 -2.0042603 2.3514166 20
-3.2683649 -0.63090926 2.347641 22
-3.2683632 0.30332291 2.3663566 22
-3.3537254 0.47120842 2.3455586 21.333334
-3.2242918 -1.8360125 2.5203855 21
-3.3313341 -0.20807481 2.4879012 22.5
-3.2667601 0.26272091 2.4429646 22.75
-3.1349692 -2.2044437 0.021705152 3
-3.0480859 -0.5445649 0.0097359419 3
-3.0790837 -0.38399097 0.045639388 4
-3.1631649 -2.017143 2.3452191 20
-3.1231556 0.57817703 2.3702672 22.75
-3.1007195 0.9038887 2.3486319 22
-3.1599135 -1.9251828 2.5166156 21
-3.1962688 -0.58008558 2.4861612 23
-3.0301626 0.60524911 2.4578319 23.333334
-2.5846636 -2.9603832 -0.00729091 3
-2.565248 -2.5616095 -0.16460481 2
-2.5808101 -2.2931049 -0.046663456 2.75
-2.4988675 0.41363084 -0.0083136074 3
-2.5298665 -2.9975805 0.19011806 4.3333335
-2.5517066 -2.5229475 0.27870786 5.7142859
-2.5720077 -2.3275974 0.13707379 4.3333335
-2.5913625 -1.4668111 0.023561353 3.5
-2.4001698 -0.43384776 0.22908814 6
-2.4017751 0.4074029 0.29375169 7
-2.6302795 -2.9553766 0.40266928 6
-2.5851595 -2.5145855 0.56963891 8
-2.6119022 -2.3579531 0.42919773 7
-2.6297512 -2.4722354 0.81027508 10
-2.6932566 -2.4652581 2.3352232 21
-2.5506225 -0.89648324 2.3539026 25
-2.5770116 -0.40728825 2.3468652 25.5
-2.4160867 0.68391824 2.369988 26
-2.5443804 1.1918519 2.3441713 24
-2.6954114 1.3070459 2.1737852 22.5
-2.5531535 -2.306849 2.5166192 22.25
-2.4930663 -0.8762846 2.5180116 26
-2.4336014 -0.55575085 2.5272107 27
-2.468801 -0.37266588 2.5281596 27
-2.3315163 -1.7986864 -0.13202454 2
-2.333514 -1.4581589 -0.1302712 2
-2.1580927 -0.93655151 -0.084490933 2
-2.2717774 -0.48798782 -0.0048055854 3
-2.2719822 0.62166339 -0.056963649 2.5999999
-2.1687565 0.8136791 -0.071749724 2.5
-2.1138754 -3.3510861 0.13543713 4
-2.2532272 -1.6365808 0.39790973 8
-2.224576 -1.5106338 0.2732448 6.1428571
-2.1911278 -0.51534492 0.15871128 5.4285712
-2.1172781 -0.17996852 0.21453641 6.4285712
-2.3811793 0.27667284 0.018809402 3
-2.3142836 0.55711406 0.1711738 5.5454545
-2.1739507 0.82672668 0.074526504 4.5
-2.2364802 -1.6300122 0.45991668 8
-2.1623864 -1.4799085 0.54829848 9.625
-2.0205169 -0.57908207 0.41889718 9
-2.1300163 -0.19714299 0.59416401 11.5
-2.1113591 -0.16761787 0.83081597 15
-2.281472 0.56115514 2.3654904 27.5
-2.1065514 1.0147105 2.3579633 27.285715
-2.1906466 1.2799406 2.2101779 25
-2.0742445 -1.3663776 2.5285428 27
-2.1868701 -1.0066686 2.5307295 27.714285
-2.1699355 -0.61516392 2.5377591 28.875
-2.200907 -0.27931377 2.5414495 29
-2.1828361 0.14836019 2.5415866 29.5
-2.1405249 0.49185961 2.553396 29
-1.629053 -1.3806684 -0.19084105 1
-1.8652637 0.26753491 -0.019353678 3
-1.9012512 -1.0201151 0.29689378 7.5
-1.9912356 -0.66659915 0.27046162 7.5
-1.8811855 0.22409119 0.22046478 6.7692308
-1.930861 -0.82490474 0.60908884 12
-1.9141645 -0.70807821 0.56128395 11.5
-1.8844482 0.21941721 0.55555916 12
-1.7236592 1.2595826 0.97523373 16.25
-1.6870575 1.2697302 1.4186747 21.333334
-1.8851416 0.28875118 2.3719602 30.5
-1.8117268 1.1035521 2.3567257 28.666666
-1.7786314 1.2226571 2.3231199 28.5
-1.781189 -1.7243898 2.5266695 27
-1.7294072 -1.3481842 2.535785 29.166666
-1.8261137 -1.0156147 2.5390363 30.111111
-1.9178594 -0.67903101 2.5437853 30.666666
-1.9829404 -0.26412579 2.5483928 31
-1.9946268 0.42702696 2.5570128 31
-1.8392287 0.86227745 2.404999 30
-1.5800387 -1.4737211 -0.18873554 1
-1.4332826 0.87659544 -0.058364883 2.2
-1.3975474 0.87077141 0.21199121 7.25
-1.3788618 0.87497598 0.469432 11.8
-1.4070164 -1.6705135 2.5390522 29
-1.4711438 -1.4445349 2.5362718 30.166666
-1.0042731 -1.4153022 -0.15935034 0.33333334
-0.99621665 -1.099995 -0.098102972 1.5
-0.97203398 0.83172464 -0.066885665 1.6666666
-0.95982504 1.5004451 -0.1645038 0
-0.9491716 -1.0334756 0.28137836 9.5
-0.82285243 -0.64268506 0.10794729 6.5999999
-0.97970033 0.8832854 0.16198081 6.9130435
-0.95729589 -1.040614 0.43787819 12.5
-0.88376236 0.77537501 0.72172087 20
-0.98678815 0.83997905 0.51446229 14.666667
-0.88868594 0.94827443 1.0183823 23.4
-0.90735888 0.82025087 1.3720274 29
-1.0036274 -1.7804534 2.3876762 29
-0.93654221 -1.7816401 2.4140341 30
-0.44891602 -1.8027313 -0.043509565 3
-0.66245502 -1.4475279 -0.052838832 2.2
-0.57078767 -1.0791453 -0.061546914 2
-0.44972798 -0.52813309 -0.040664326 1.6666666
-0.5051735 0.79208702 -0.050542399 1.7
-0.76236624 0.86503029 -0.06416674 1.3333334
-0.63529736 1.3746446 -0.16022359 0
-0.58096325 -1.5108898 0.067250013 4.5
-0.42281598 -1.0485325 0.21367094 9
-0.65112239 -0.60658556 0.25493044 11.666667
-0.47614411 0.7926954 0.025175773 4.25
-0.61408412 0.85801101 0.16433977 8
-0.57229275 -0.59935659 0.50670606 20.625
-0.5039255 0.78440368 0.68677938 22.666666
-0.63961512 0.81985581 0.56776386 18.583334
-0.66013247 0.82470906 1.0373918 27
-0.40369251 -2.0148296 2.3927445 29
-0.63018942 -1.9455588 2.390661 29
-0.64903402 -1.9225285 2.4235461 29.5
-0.3467758 -1.8270103 -0.11138621 1
-0.23091798 -1.5683179 -0.090526514 1
-0.22971745 -0.93247634 -0.028356079 2.5
-0.38428345 -0.52101249 -0.01179598 2.5
-0.26193216 0.78162789 -0.031169338 2.1428571
-0.072989143 0.81443083 -0.020622371 2.5
-0.25121978 -0.95432889 0.11062572 6.75
-0.30874246 -0.5787276 0.19124991 11.923077
-0.23707806 0.78300053 0.15470846 8.9444447
-0.17292929 0.83335829 0.12333184 7.4285712
-0.36685601 -0.89709425 0.44957858 16.5
-0.20551816 -0.60166299 0.52134591 24.272728
-0.23295788 0.76184189 0.7228694 25.5
-0.14137177 0.8845135 0.56133801 20
-0.1025304 0.99277335 1.0390462 27.5
0.086555086 -1.3445184 -0.039905835 1
0.25930807 -0.9759689 -0.041336663 1.4
0.16946952 -0.68390661 -0.015047824 2.5
0.18749425 0.75112641 -0.034621667 2
0.032776326 0.84687853 -0.0045545753 3
0.23710033 -0.98125911 0.026407726 3.8
0.12169518 -0.67921013 0.1690689 10.5
0.25863659 0.76592869 0.19933461 10.25
0.069718622 0.85904449 0.21960837 10.5
0.32976753 -0.85994506 0.49847957 18.714285
0.17896482 -0.75494355 0.51631385 21
0.19952616 0.76010293 0.58869952 22.307692
0.086507842 0.8246851 0.56909281 21.166666
0.048530102 0.89811653 0.89710522 27
0.6362797 -0.9908371 -0.043541048 2
0.75596446 -0.7237832 -0.058338415 1.5
0.58428681 0.60283148 -0.047174446 1.5
0.57221174 -0.99019909 0.082703352 5.4000001
0.76821476 -0.67024809 0.18511134 8.5
0.58003592 0.60669166 0.14780286 8.391304
0.47853935 0.85724944 0.1691183 8.166667
0.41979966 -0.89388007 0.44139597 16
0.74325913 -0.79695559 0.40789366 14
0.5875358 0.62561119 0.64376563 22.210526
0.63383281 0.5326491 0.81837362 27
0.41411 0.89523059 1.043991 27.5
0.71018809 -2.5124323 2.353852 25.5
0.7680915 -2.3951125 2.3713887 26
0.56569052 -2.493818 2.5228174 26.5
0.66269523 -2.1656935 2.5567663 28.571428
0.97758913 -2.5641336 -0.16567616 1
0.9043476 -1.8130028 -0.13692386 1
1.0685139 -1.2912887 -0.11907002 1
1.1221166 -1.0958873 -0.14846613 0
0.96741939 -0.62803715 -0.054658782 1.8
1.0093845 0.36391914 -0.060559183 1.6
0.91024482 0.43997476 -0.060749695 1.4
0.87656987 -1.6330285 0.026635772 4
0.91545039 -0.61438453 0.14806768 7.25
1.0603621 0.38037241 0.094026364 5.6666665
0.84865522 0.45847398 0.056488302 5
0.89954883 -2.8731549 0.75622201 11
0.81986564 0.47501466 0.68563044 22
0.88445431 -2.8513865 0.89256322 12
1.1209898 0.33489454 1.0519886 25
0.87475371 0.46701553 1.0481495 27.5
1.0001639 0.46192071 1.4075148 30.333334
1.1546668 -2.4569285 1.7858006 21
1.1864564 -2.382133 1.7988811 21.5
1.0812863 -2.4976709 2.2363157 23.833334
1.0255592 -2.2330966 2.3456712 26
1.1052018 -1.8260902 2.3749211 28.333334
0.85222816 -2.0787086 2.5523653 28.5
0.96827167 -1.822119 2.4955726 30
1.2929096 -1.1032612 -0.149801 0.5
1.3853829 -0.62163776 -0.075370111 1.7142857
1.2996207 -0.22176628 -0.15328433 0
1.3752291 0.17240603 -0.073125891 1.5833334
1.3962367 -0.6357882 0.092170604 4.8888888
1.3312048 0.2057312 0.048254989 4.6666665
1.251565 -2.3056316 0.69112819 11
1.4479256 -0.67130816 0.5360899 13
1.3286446 0.25427362 0.5045051 14
1.2768949 -2.2569237 1.0203338 14.571428
1.3069172 -1.7769798 0.97978109 15.8
1.3213849 -1.5743561 0.98631334 16.666666
1.3540417 -1.0404493 0.91590291 18
1.3649876 -0.75522059 0.86038381 18.5
1.278209 0.24567561 1.0422534 23.5
1.2916015 -2.1817634 1.4077805 18.5
1.2837666 -1.9971189 1.5965087 21
1.3662878 -0.92848492 1.4465061 25
1.4209166 0.13860548 1.4064462 26.666666
1.2034677 -2.430799 1.7033643 20
1.239895 -2.2570066 1.6834779 20.666666
1.3208246 -1.7858622 1.7981781 24
1.5883849 -0.63436085 1.8069092 28
1.2275789 -2.433877 2.1553626 23.5
1.2785892 -2.1994345 2.1885841 24.714285
1.286278 -1.7150567 2.2599108 27.666666
1.2852283 -1.4823133 2.2902186 29.428572
1.2346978 -1.4462149 2.4131882 30.5
1.7351416 -0.82668543 -0.16213758 1
1.7208052 -0.55781287 -0.15982659 1
1.7796031 -0.25376531 -0.15202402 1
1.6446675 0.0023438195 -0.11099478 1
1.6665263 -0.64167219 0.24338271 7.4285712
1.6457937 0.032016519 0.14180735 6
1.9985243 -0.29729432 0.67196935 13
1.7226493 -0.64579582 1.0910301 19.5
1.8371209 -0.65529507 1.4164022 22.166666
1.6525249 -0.64342135 1.7691563 26.5
1.954103 -0.58993047 2.1892011 28
1.6520543 -0.32660356 2.184943 30.5
1.6879003 0.11958919 2.1826379 30.5
2.2782142 -0.49115169 -0.081065841 2.5
2.1464989 -0.32279998 -0.029201912 2.6666667
2.2526016 -0.59027898 0.19326954 5.6666665
2.0849087 -0.1699755 0.13505733 5.2857141
2.3022215 -0.66369307 0.6391986 11
2.1264844 -0.33721536 0.63076234 11.8
2.255676 -0.62480319 1.0101683 15.285714
2.1741145 -0.37615806 0.92785567 15.4
2.1669991 -0.65287012 1.3709012 19.5
2.1342514 -0.67575675 1.7178963 23
2.1554217 -0.58233917 2.1625209 26.25
2.1420753 -0.17785679 2.1320329 26.714285
