# .PCD v0.7 - Point Cloud Data file format
VERSION 0.7
FIELDS x y z intensity
SIZE 4 4 4 4
TYPE F F F F
COUNT 1 1 1 1
WIDTH 196
HEIGHT 1
VIEWPOINT 0 0 0 1 0 0 0
POINTS 196
DATA ascii
-9.7200203 -1.2266619 1.4800446 8
-9.7340851 -1.2775953 1.9130356 9
-9.5380745 -1.132619 2.3440721 10
-5.4712863 0.64430201 2.1327584 14
-4.6380119 -0.90626895 0.18243977 4
-3.9633491 -1.1501365 0.77845883 9
-3.3821361 -2.563236 2.5285888 19
-3.3362463 -1.6326303 2.5344989 21
-3.024158 0.46109667 0.050891079 4
-3.0511613 0.46860164 0.27089161 5.5
-2.8197675 -1.9034933 2.5285842 22
-2.6235619 0.53403366 -0.083543673 2.5
-2.6240728 0.52804279 0.50195378 9
-2.7340109 0.6450088 2.3549917 24
-2.5030031 0.59600139 0.13599455 5
-2.4100354 0.53402025 0.67197764 11
-2.540571 -1.5856259 2.5415902 24
-2.5353005 -0.5462268 2.5256319 26
-2.4302518 0.34316376 2.5458975 27
-2.5851152 0.50107926 2.5519469 26
-2.2749741 0.57798737 0.037011076 4
-2.2064314 -0.8464157 0.31261447 7
-2.2179401 0.60296881 0.55102885 10
-2.3770378 0.52402139 0.69497663 12
-2.3759873 0.5849933 1.1510032 16
-2.2961452 -0.77309924 2.3806145 26.5
-2.3790054 -1.0569038 2.5295904 26
-2.2699213 0.62195051 2.4740314 28
-2.0019147 0.56995785 0.68103892 13
-2.042505 -0.60320324 2.3706515 28
-2.1326876 0.81580162 2.36514 27
-2.0056982 -1.4076768 2.5416448 27
-2.1609919 -0.96294451 2.5436115 28
-2.1232948 -0.46028042 2.5476713 29
-2.1270862 0.43805438 2.5579653 29
-1.90335 0.62593621 -0.043421973 2.5
-1.9158533 0.62293565 0.086074926 5
-1.834806 0.64391387 0.28442949 7.6666665
-1.9278414 0.62892395 0.56407624 11
-1.9438906 0.57794648 0.72404969 14
-1.8174583 -0.51225519 2.3946784 30
-1.9495243 0.9067055 2.3592122 28
-1.97155 -1.2787411 2.5486374 28
-1.6987159 0.70288599 0.026146097 4
-1.701663 0.74585199 0.39616811 10
-1.749727 0.68937647 0.52363175 11.5
-1.6177007 -1.2157849 2.3486772 29
-1.4535865 0.72017998 0.15286341 6
-1.4535761 0.69531906 0.76168263 16.5
-1.4725949 0.68182284 0.8661719 18
-1.5251046 0.67631006 1.3346599 23.5
-1.5437067 -1.169793 2.3756824 30
-1.5951943 1.0445299 2.3593478 30
-1.4076062 -1.6604837 2.5568042 29
-1.3051698 0.73983967 -0.072763883 2
-1.3595148 0.74582821 0.11972843 5.5
-1.3289672 0.76430547 0.27124533 8.5
-1.2283788 0.75576007 0.66326106 16
-1.3653796 0.819727 0.98126912 20
-1.3194059 0.76074284 1.0332448 21
-1.2948755 0.74821639 1.3637429 25.5
-1.3049505 0.68725055 1.4122064 26.5
-1.3226949 -1.6504741 2.5638227 30
-1.10228 0.80676979 0.18431991 7
-1.0021988 0.74971938 0.67431056 18
-1.1002442 0.75269932 1.0302886 23.5
-1.1117651 0.71268344 1.4387619 28.5
-0.86672992 -0.54165524 -0.062281586 1
-0.95105505 0.92072093 0.1514267 7
-0.92107713 0.78018224 0.72785068 19.5
-0.92204881 0.81817818 0.64387339 17.5
-0.85690141 0.83409476 1.0604014 25
-0.94791943 0.8725521 1.3968987 28
-0.88898832 0.75059617 1.4103413 30
-0.93694079 0.83856481 1.4013815 28
-0.97243756 -1.8763546 2.5680101 30
-0.79478198 -0.52466089 -0.053278018 2
-0.60991973 0.67528254 -0.028118959 2.5
-0.68806255 -0.48144624 0.078727841 6
-0.61290324 0.67400986 0.10712919 6.75
-0.61587739 0.67372823 0.29437798 13
-0.61782509 0.67867523 0.59338045 20
-0.61730909 0.68416417 0.64338428 21.5
-0.71547741 -2.0348043 2.5621846 29.5
-0.57387 0.67678487 -0.062605105 1
-0.52449203 -0.47729897 0.11439589 8.333333
-0.50496894 -0.39315608 0.15623346 10.5
-0.56983244 0.67675179 0.11506306 7.3333335
-0.52632636 0.67571014 0.30061203 13.6
-0.52217185 0.68467075 0.47966954 18.75
-0.51810837 0.69911814 0.71542978 24
-0.53764927 0.6806134 0.80441076 26
-0.34143764 0.69676948 -0.076501645 0
-0.2570616 -0.42362761 0.12258098 10.571428
-0.3185029 -0.4338589 0.29144061 18.142857
-0.31168604 -0.42503384 0.41022539 23
-0.26009688 0.70709872 0.51753765 21.5
-0.26757294 0.69230002 0.70677656 26.25
-0.15601747 0.69476986 -0.064426504 0
-0.17861192 -0.47680783 0.12733719 10.6
-0.17201823 -0.42055243 0.28505492 20
-0.15375294 -0.39351004 0.39321426 25.5
-0.11228317 0.70514172 0.33059305 16.5
-0.0090470845 -0.38246527 0.40871105 28
-0.056063369 0.70006615 0.5266121 22.5
0.067567199 0.68579113 -0.028354974 2
0.083514579 0.68945563 0.099935904 7.4285712
0.12372085 -0.36899796 0.33572572 24.5
0.059662446 0.696495 0.28381327 14.833333
0.026137196 0.70558518 0.46614119 20.75
0.064842097 0.71247673 0.7313205 27
0.32463902 -0.39582872 -0.013161019 2
0.29169676 -0.40273941 0.081825413 8
0.31334728 -0.38775375 0.078825809 8
0.26179478 -0.35154217 0.32376793 22.5
0.36196038 -0.3034707 0.46778271 26.5
0.58421952 -0.0030747466 -0.040360879 1
0.55549979 0.82723427 -0.020619934 1
0.40309671 -0.3107433 0.16031624 12.5
0.52221894 0.81583345 0.060154434 4
0.47578746 -0.29826972 0.32005775 18.799999
0.54198855 0.83587903 0.2985796 11
0.47067291 -0.28723812 0.4295097 23
0.50862277 0.82936352 0.49830312 16.5
0.57706887 0.81908363 0.95420527 25.5
0.59365791 1.785328 2.1391852 28
0.48315799 1.8424115 2.1315358 28
0.45175329 2.4830198 2.1163135 24
0.68466145 -0.2461639 -0.039524123 1.5
0.72136766 0.86363256 -0.07498312 0.33333334
0.61858636 -0.25692526 0.15893088 10
0.77515256 0.8734346 0.078676738 4
0.63194889 0.82749724 0.26479167 10
0.78312051 -0.23979284 0.48305464 19
0.6624338 0.8252936 0.4378739 14
0.6586349 0.81853896 0.6380282 18.5
0.61383045 0.83113277 0.87100703 24
0.78259844 0.82714909 1.0486287 25
0.66736585 2.3470948 2.1362817 24
0.69790965 2.4033241 2.1425097 23
0.99899429 0.80527163 -0.12792394 0
0.91359949 -0.21129169 0.078393772 5.5
0.93879783 -0.17332295 0.077632755 5.5
0.87610388 0.85900491 0.16107409 6.3333335
0.8332504 -0.24101496 0.2910991 13
0.8909933 0.82957631 0.32711682 10.4
0.8801387 0.81886655 0.7217437 19
0.8896997 0.8153674 0.90564895 22
0.93252176 0.80744594 1.2317544 26.5
0.92467165 4.6333055 1.9660853 15
1.146408 0.85631979 -0.081184633 0
1.0668231 0.8420856 0.26287574 8
1.0651101 0.8466422 0.48544419 13
1.1416937 0.82375491 0.69963211 16.5
1.0843785 0.8340264 0.92370927 20.5
1.0129354 0.83812243 1.0668421 23
1.1814289 0.80465901 1.24318 24.5
1.0606539 4.5954332 1.8060502 14
1.247363 0.79405123 -0.054549981 1
1.2637882 0.80554724 0.25143307 7
1.3022331 4.599833 1.1069728 9
1.3432031 4.6130748 1.2407672 10
1.3564308 0.69832236 1.8698583 29
1.4725643 0.80799389 -0.031308994 2
1.4836951 0.7940743 0.086486705 4
1.4959552 0.80085111 0.12544504 4
1.4908226 0.79788822 0.30680892 7.6666665
1.4510906 0.80672169 0.47389609 11
1.4436572 0.79643202 0.69038558 14.5
1.4450054 0.8020674 0.61891747 13
1.4260609 0.80367428 0.93061209 18.5
1.4879351 0.7894215 1.3134996 23
1.4266944 0.79775852 1.7831172 28
1.9641865 0.70054746 2.1557822 27
1.8891265 0.99181777 2.1639395 26
2.1235318 0.24116963 2.1353891 26.5
2.0622537 0.98746914 2.1614466 25
2.2200208 0.5300532 2.1441202 25
2.5800309 0.88183284 -0.060011949 2
2.5133901 0.91439432 0.14485279 4
2.5676351 0.97138733 0.66092992 9.5
2.4933276 0.89662147 2.1520159 23
2.601867 0.90788943 0.071040921 3
2.6095395 0.91414332 0.27854604 5.5
2.6089087 0.90673244 0.55300701 8
4.3814635 0.145661 1.0806779 9.5
4.38169 0.43477997 1.5163016 12.5
4.3297005 0.60342419 1.7817718 14
4.2760625 0.65694559 1.8907145 15
4.4402709 0.12850735 0.089445181 3
4.4399443 0.11588636 0.27234855 4.5
4.4283376 0.52320987 0.2150946 4
4.4549942 0.37819734 0.47458956 6
4.4359989 0.1452796 0.78768623 8
4.4167905 0.51061255 0.61011076 7
4.4002862 0.093002886 1.2325556 11
