# .PCD v0.7 - Point Cloud Data file format
VERSION 0.7
FIELDS x y z intensity
SIZE 4 4 4 4
TYPE F F F F
COUNT 1 1 1 1
WIDTH 1377
HEIGHT 1
VIEWPOINT 0 0 0 1 0 0 0
POINTS 1377
DATA ascii
-2.5570173 -0.9519819 -0.18150477 0
-2.4609299 -0.95558512 -0.17901403 0
-2.3460555 -0.97314167 -0.18147257 0
-2.2680278 -0.94032085 -0.18998629 0
-2.1670001 -0.92799997 -0.197 0
-2.0544164 -0.9383074 -0.196015 0
-1.5459623 -0.94569933 -0.17580923 0
-1.4661641 -0.95969808 -0.15994264 0
-1.3715192 -0.95670551 -0.16238959 0
-1.2671376 -0.94350386 -0.16492482 0
1.3552268 -0.96830738 -0.15935948 0
1.4522685 -0.94386142 -0.158117 0
1.5483932 -0.95222902 -0.15579934 0
1.6710393 -0.94686759 -0.15439197 0
1.761 -0.95700002 -0.153 0
2.0713785 -0.91058129 -0.14861673 0
2.1550679 -0.94587195 -0.1474251 0
2.2387571 -0.98116261 -0.14623347 0
2.5753307 -0.91179025 -0.13577469 0
2.6603723 -0.9411391 -0.13387153 0
2.744 -0.97000003 -0.132 0
-4.5233526 -0.89107788 -0.17103416 0
-4.4362645 -0.8735584 -0.18427561 0
-4.3491764 -0.85603893 -0.19751708 0
-3.8752761 -0.88552761 -0.19587524 0
-2.7537799 -0.87509394 -0.18765536 0
-2.6279118 -0.83603758 -0.19866213 0
-2.5429831 -0.87964809 -0.18507752 0
-2.4577372 -0.85073608 -0.18805814 0
-2.3575847 -0.85860348 -0.19238912 0
-2.2173336 -0.86866671 -0.2 0
-2.1381474 -0.85718584 -0.19710015 0
-2.0546865 -0.82394296 -0.19386679 0
-1.930637 -0.882312 -0.19054177 0
-1.8481175 -0.84498167 -0.18689296 0
-1.7655978 -0.8076514 -0.18324412 0
-1.4319849 -0.87807971 -0.1723237 0
-1.3376939 -0.84644967 -0.16665712 0
-1.2309999 -0.84299999 -0.1645 0
1.2595 -0.86049998 -0.161 0
1.363555 -0.88437128 -0.15903729 0
1.4520355 -0.82281512 -0.15715821 0
1.5250368 -0.8641659 -0.15623613 0
1.6208014 -0.88431919 -0.15498582 0
1.7382343 -0.84139395 -0.15247291 0
1.9458447 -0.85764527 -0.15040419 0
2.3202066 -0.82374394 -0.14148419 0
2.4606876 -0.8487733 -0.137714 0
2.5604413 -0.82547158 -0.13486603 0
2.6481507 -0.8361724 -0.13306822 0
2.7211804 -0.8609364 -0.13203785 0
-2.2304151 -0.77363729 -0.19600646 0
-2.1503611 -0.74608839 -0.19509451 0
-2.0657654 -0.71674526 -0.1919729 0
-1.9712257 -0.79070008 -0.19063345 0
-1.8460345 -0.74083579 -0.18578342 0
-1.6418185 -0.751656 -0.17777088 0
1.275 -0.74299997 -0.15899999 0
1.3500687 -0.78892857 -0.15816057 0
1.4476836 -0.74972343 -0.15699324 0
1.5597342 -0.75889397 -0.15497291 0
1.6331395 -0.74618399 -0.15328196 0
1.7652447 -0.73414624 -0.15123293 0
1.8883532 -0.72555912 -0.15113011 0
1.9420207 -0.71917439 -0.1500484 0
2.0650826 -0.73569757 -0.14719367 0
2.1501241 -0.76504636 -0.14529051 0
2.2440486 -0.73836929 -0.14110222 0
2.3709593 -0.73400903 -0.13837694 0
2.4566181 -0.76066321 -0.13677344 0
2.5722992 -0.74673921 -0.13397667 0
2.661418 -0.75727153 -0.13211873 0
2.7224998 -0.77499998 -0.131 0
-7.105 -0.60100001 -0.12 0
-2.2119999 -0.653 -0.197 0
-2.1506686 -0.6347664 -0.19525951 0
-2.065835 -0.60954559 -0.19285208 0
-1.9811699 -0.68740213 -0.18885128 0
-1.8542764 -0.64338738 -0.18416888 0
-1.7208433 -0.69097149 -0.1809334 0
-1.6373825 -0.65772861 -0.17770004 0
-1.5359805 -0.66007316 -0.17338218 0
-1.4355196 -0.65833026 -0.16864882 0
-1.353 -0.62099999 -0.16500001 0
1.4376863 -0.64678079 -0.15540051 0
1.5429816 -0.64100492 -0.15378927 0
1.6477371 -0.64858508 -0.15286386 0
1.7549832 -0.63886923 -0.15188289 0
1.8494025 -0.65049517 -0.15050262 0
1.9716314 -0.63469648 -0.14647079 0
2.0521612 -0.64636731 -0.14460342 0
2.1354375 -0.66138351 -0.1427463 0
2.225497 -0.64529532 -0.14094229 0
2.3121974 -0.67065626 -0.13920088 0
2.4682717 -0.64515257 -0.13574061 0
2.5716977 -0.6373226 -0.13428426 0
2.6594 -0.65895903 -0.13254306 0
2.7335 -0.64375001 -0.13075 0
-7.0330567 -0.5946762 -0.12369572 0
-6.943717 -0.58682328 -0.1282851 0
-6.8543773 -0.57897037 -0.13287446 0
-6.7650375 -0.57111746 -0.13746382 0
-6.6756983 -0.56326455 -0.14205319 0
-6.5863585 -0.55541164 -0.14664255 0
-6.4523487 -0.54363227 -0.1535266 0
-6.3183398 -0.5318529 -0.16041064 0
-6.2290001 -0.52399999 -0.16500001 0
-2.2019999 -0.53799999 -0.19599999 0
-2.1733773 -0.56761712 -0.19522496 0
-2.0774989 -0.53364658 -0.19507918 0
-1.982074 -0.55949771 -0.19139934 0
-1.8684858 -0.53490424 -0.18832065 0
-1.7269418 -0.55401754 -0.18135439 0
-1.6427872 -0.5700295 -0.17636484 0
-1.5581914 -0.54068631 -0.17324322 0
-1.4720283 -0.55129302 -0.17067748 0
-1.387 -0.55800003 -0.168 0
1.29 -0.52100003 -0.15700001 0
1.3686149 -0.55144173 -0.15605851 0
1.4426023 -0.54107589 -0.15507741 0
1.5459635 -0.55017978 -0.15366256 0
1.6527714 -0.55906129 -0.15237902 0
1.7633749 -0.53703582 -0.14917473 0
1.8472168 -0.55671084 -0.14874475 0
1.9653951 -0.56921244 -0.14616652 0
2.048805 -0.54391772 -0.14415848 0
2.1382887 -0.54813695 -0.14258556 0
2.2474558 -0.54003149 -0.14028937 0
2.3496916 -0.55369604 -0.13814048 0
2.4429173 -0.55572265 -0.13651958 0
2.5700033 -0.55486745 -0.1329689 0
2.6582434 -0.57432818 -0.13125968 0
2.7130001 -0.54799998 -0.12899999 0
-2.1604764 -0.4737618 -0.19567646 0
-2.0255396 -0.46854171 -0.19768506 0
-1.9432726 -0.44898289 -0.19882098 0
-1.8237971 -0.46830958 -0.19430435 0
-1.7392299 -0.44653058 -0.19404605 0
-1.6503309 -0.44431493 -0.1894635 0
-1.5570123 -0.43908298 -0.18273324 0
-1.472 -0.433 -0.176 0
-1.3890001 -0.48199999 -0.167 0
1.298 -0.45300001 -0.15700001 0
1.3777884 -0.48017207 -0.15605763 0
1.4601052 -0.43975803 -0.15404887 0
1.5577317 -0.44569859 -0.15291408 0
1.659726 -0.44678536 -0.15108065 0
1.7645874 -0.44163367 -0.14949279 0
1.8446513 -0.45499682 -0.14817654 0
1.954384 -0.46065292 -0.14603822 0
2.0405619 -0.43810272 -0.14322425 0
2.1288021 -0.45756352 -0.14151503 0
2.2357094 -0.44404611 -0.13865592 0
2.3638823 -0.44285241 -0.13597789 0
2.4709404 -0.4536182 -0.13400644 0
2.5523102 -0.44661313 -0.13261908 0
2.6571329 -0.46759805 -0.12994249 0
2.7220001 -0.43699998 -0.13 0
-1.5829999 -0.38600001 -0.2 0
-1.472 -0.39700001 -0.186 0
1.4400125 -0.34135634 -0.15368508 0
1.5566888 -0.36643028 -0.15266369 0
1.6441489 -0.36027619 -0.149221 0
1.7671996 -0.35211694 -0.14716023 0
1.8496313 -0.33556938 -0.14594007 0
1.9532328 -0.35276723 -0.14395915 0
2.0631671 -0.35985172 -0.14188392 0
2.1429174 -0.35484287 -0.13995384 0
2.2165174 -0.35412005 -0.13874997 0
2.3329172 -0.34801173 -0.13595071 0
2.449198 -0.34002888 -0.13303703 0
2.5571334 -0.34732315 -0.13080019 0
2.6710501 -0.37132168 -0.1288805 0
1.398 -0.235 -0.15099999 0
1.4758919 -0.24916217 -0.15016693 0
1.5537838 -0.26332432 -0.14933386 0
1.6316757 -0.2774865 -0.14850079 0
1.7468271 -0.24060765 -0.14589544 0
1.8687848 -0.25674954 -0.14383557 0
1.9580694 -0.26949906 -0.14217114 0
2.0377457 -0.25546187 -0.14046375 0
2.151741 -0.23646802 -0.13810457 0
2.2629271 -0.25972518 -0.13611546 0
2.3778996 -0.2404062 -0.134215 0
2.4677427 -0.25003564 -0.13267429 0
2.5506768 -0.23411746 -0.13006294 0
2.6534872 -0.24464859 -0.12822941 0
1.398 -0.16599999 -0.15099999 0
1.4529299 -0.14991306 -0.15071386 0
1.5552897 -0.16873914 -0.14864156 0
1.6326845 -0.17860872 -0.14721236 0
1.7363975 -0.16114175 -0.14493921 0
1.8370317 -0.14114067 -0.14264739 0
1.92673 -0.14928135 -0.14096142 0
2.0419216 -0.14509921 -0.1382595 0
2.1498804 -0.14695013 -0.13613197 0
2.2576716 -0.14702278 -0.13388307 0
2.373883 -0.16477399 -0.13169006 0
2.4635091 -0.17217027 -0.12993148 0
2.5625024 -0.1505633 -0.12735358 0
2.628 -0.155 -0.126 0
1.399 -0.064000003 -0.152 0
1.4672074 -0.035184961 -0.14920586 0
1.5429149 -0.039369922 -0.14691174 0
1.65312 -0.025738515 -0.14284773 0
1.7234848 -0.066527084 -0.14309826 0
1.8353853 -0.040828761 -0.14033572 0
1.9591919 -0.030988662 -0.13745846 0
2.0765772 -0.041817419 -0.13529417 0
2.1662216 -0.044771776 -0.13349271 0
2.2558661 -0.047726132 -0.13169125 0
2.34551 -0.050680485 -0.12988979 0
2.4351544 -0.053634837 -0.12808834 0
2.5391991 -0.048059464 -0.12552458 0
2.6116688 -0.086943924 -0.12602508 0
1.3839999 0.0020000001 -0.15099999 0
1.673 0.07 -0.141 0
1.7623817 0.071903989 -0.13909601 0
1.8517635 0.073807977 -0.13719203 0
1.9411452 0.075711966 -0.13528803 0
2.0305269 0.077615961 -0.13338405 0
2.1199086 0.07951995 -0.13148005 0
2.2539811 0.082375929 -0.12862407 0
2.3880539 0.085231915 -0.12576808 0
2.4774356 0.087135911 -0.1238641 0
2.5179999 0.088 -0.123 0
1.646 0.15674999 -0.13975 0
1.7354157 0.16494153 -0.13771354 0
1.8229824 0.16098078 -0.13566314 0
1.9221303 0.14909281 -0.13435704 0
2.0408185 0.16703987 -0.13172609 0
2.1636159 0.15993614 -0.12946403 0
2.2868571 0.15061206 -0.12734954 0
2.3771224 0.15669951 -0.12554234 0
2.4673877 0.16278693 -0.12373513 0
2.557653 0.16887438 -0.12192792 0
2.6040001 0.17200001 -0.121 0
1.594 0.29499999 -0.139 0
1.6185 0.2405 -0.14 0
1.750721 0.2590802 -0.13638535 0
1.8723557 0.24303468 -0.13338259 0
1.9592977 0.23572922 -0.13156684 0
2.06059 0.24469581 -0.12934695 0
2.1667078 0.25990799 -0.12644665 0
2.266928 0.23525031 -0.12487652 0
2.3560605 0.2441432 -0.12276366 0
2.4426992 0.25280824 -0.12071407 0
2.5474055 0.25069252 -0.11981744 0
-2.118 0.396 -0.197 0
-1.8130189 0.39905018 -0.196558 0
-1.7255142 0.38103762 -0.1959185 0
-1.6380095 0.3630251 -0.195279 0
-1.5505048 0.34501255 -0.1946395 0
-1.4630001 0.32699999 -0.19400001 0
-1.372 0.37799999 -0.184 0
1.5860001 0.36300001 -0.139 0
1.6744124 0.35266504 -0.13642532 0
1.7711864 0.35403776 -0.13404788 0
1.8587797 0.37205663 -0.13157183 0
1.955337 0.33608902 -0.12949838 0
2.0429213 0.35073626 -0.12699798 0
2.1305056 0.36538351 -0.12449758 0
2.2355309 0.32720762 -0.12313165 0
2.3347855 0.34706298 -0.11981458 0
2.4215002 0.33574748 -0.11996473 0
2.5 0.347 -0.118 0
-2.2575462 0.46351987 -0.19739529 0
-2.1645775 0.4496133 -0.19619362 0
-2.0628443 0.45769593 -0.19549216 0
-1.9442761 0.42606902 -0.19751725 0
-1.8059242 0.48959535 -0.19074762 0
-1.7191393 0.46727628 -0.1893981 0
-1.6323545 0.4449572 -0.18804857 0
-1.5310013 0.4587878 -0.18603308 0
-1.4450006 0.43439391 -0.18476655 0
-1.346 0.442 -0.183 0
1.5603334 0.45333335 -0.139 0
1.6606841 0.43984696 -0.13641857 0
1.7518085 0.42953405 -0.13374627 0
1.8382126 0.45013437 -0.13111942 0
1.9330091 0.43970299 -0.12849736 0
2.036397 0.46309513 -0.12499586 0
2.1472812 0.47365218 -0.12166411 0
2.2529492 0.4531416 -0.12042956 0
2.3843663 0.45043552 -0.11733323 0
2.4330001 0.46000001 -0.116 0
-2.2160001 0.56149995 -0.1955 0
-2.1580012 0.54845154 -0.1943731 0
-2.0619385 0.54539526 -0.19371869 0
-1.979494 0.53423351 -0.19344668 0
-1.892709 0.51191443 -0.19209716 0
-1.7720822 0.57434374 -0.18891782 0
-1.6442575 0.53464061 -0.18714246 0
-1.5557866 0.59131551 -0.18330854 0
-1.4721911 0.56087697 -0.18220569 0
-1.3498148 0.5415982 -0.18037112 0
-1.274 0.56 -0.17900001 0
1.550187 0.5617888 -0.13812183 0
1.6461114 0.5525921 -0.13540246 0
1.7202611 0.52419496 -0.13375843 0
1.846457 0.56371611 -0.12982725 0
1.9478724 0.5453248 -0.12731436 0
2.0517802 0.54372483 -0.12498435 0
2.1633875 0.53624076 -0.12195915 0
2.2757037 0.52502698 -0.11711392 0
2.3779278 0.53856462 -0.11602733 0
2.4130001 0.54649997 -0.115 0
-2.1309826 0.68107289 -0.19321735 0
-2.0383511 0.65728748 -0.19147477 0
-1.9396288 0.6493203 -0.19007124 0
-1.831936 0.64172173 -0.18835922 0
-1.7229779 0.65219247 -0.18551423 0
-1.6203883 0.65958941 -0.18372664 0
-1.5195457 0.66306853 -0.18203142 0
-1.4376972 0.62871236 -0.18102096 0
1.4710001 0.65099996 -0.139 0
1.5465877 0.64592493 -0.13714527 0
1.6724319 0.64437044 -0.13372166 0
1.7604195 0.65496331 -0.13099277 0
1.8492634 0.66408503 -0.12827319 0
1.9552301 0.64830989 -0.12566289 0
2.0567834 0.62958479 -0.12327529 0
2.1566093 0.65328819 -0.12010301 0
2.2675896 0.60132706 -0.1186136 0
2.3719568 0.62918401 -0.11553265 0
-2.105 0.71799999 -0.191 0
-2.0548224 0.75115579 -0.18967605 0
-1.9664054 0.75264704 -0.18807819 0
-1.8845844 0.72553468 -0.18735996 0
-1.7650914 0.76613712 -0.18506286 0
-1.6832428 0.73178089 -0.18405238 0
-1.4251873 0.75944889 -0.17845054 0
-1.3325 0.75 -0.177 0
1.4452121 0.73737276 -0.13832101 0
1.5432751 0.7600385 -0.13577409 0
1.6365507 0.74150872 -0.1337373 0
1.7336622 0.77224535 -0.13092045 0
1.8153344 0.74910492 -0.1287217 0
1.9367956 0.75595886 -0.12491513 0
2.0350721 0.74110645 -0.12212596 0
2.1097491 0.75049466 -0.11963259 0
2.2279687 0.70598155 -0.11815236 0
2.33867 0.74098969 -0.1147732 0
-2.017 0.83399999 -0.18799999 0
-1.9405704 0.86262059 -0.18628781 0
-1.8479671 0.81966645 -0.1854877 0
-1.755 0.88800001 -0.183 0
-1.6477498 0.88379544 -0.17980212 0
-1.5735624 0.84234655 -0.1793516 0
-1.4781103 0.8357693 -0.17776939 0
-1.3630025 0.85766697 -0.17524368 0
-1.272 0.84200001 -0.17399999 0
1.3794999 0.86549997 -0.13850001 0
1.463681 0.85185403 -0.13614936 0
1.5767452 0.86293125 -0.13396464 0
1.6621554 0.83542478 -0.13187936 0
1.7617327 0.85812932 -0.12913486 0
1.8505625 0.85741472 -0.12686796 0
1.9419383 0.85258645 -0.12467464 0
2.0620427 0.85071683 -0.12075648 0
-1.8518572 0.95520645 -0.18304275 0
-1.749836 0.9586814 -0.18031861 0
-1.6799999 0.95300001 -0.18000001 0
-1.5639803 0.93712169 -0.17711598 0
-1.4434556 0.95953345 -0.17442127 0
-1.2589891 0.92576373 -0.17208751 0
-1.1799999 0.958 -0.17 0
1.0599999 0.93900001 -0.147 0
1.1169683 0.99010736 -0.1451245 0
1.2589999 0.96499997 -0.14 0
1.3384625 0.94641894 -0.13903241 0
1.4371201 0.95059305 -0.13663615 0
1.5277978 0.95960343 -0.13411005 0
1.6297116 0.9513728 -0.13173321 0
1.7308236 0.94819587 -0.12959595 0
1.8398509 0.95405918 -0.12635621 0
1.9502474 0.9481073 -0.12360886 0
2.0209506 0.94205737 -0.12172952 0
2.1169872 0.98216981 -0.11832201 0
-1.809 1.031 -0.18000001 0
-1.7541075 1.0550342 -0.17822827 0
-1.643013 1.0403347 -0.17621839 0
-1.5421646 1.0530267 -0.174337 0
-1.4569235 1.0743458 -0.17261252 0
-1.3362992 1.0308706 -0.17192636 0
-1.247321 1.0098432 -0.17075135 0
-1.1639321 1.0419097 -0.1679025 0
-1.086 1.0700001 -0.167 0
-0.87199998 1.092 -0.16599999 0
0.98799998 1.062 -0.147 0
1.0552349 1.0296403 -0.14616749 0
1.1739365 1.0412147 -0.14324901 0
1.2428461 1.0661707 -0.13982767 0
1.3557719 1.0563936 -0.13746101 0
1.4447311 1.0247015 -0.13618736 0
1.5531929 1.0438926 -0.13351822 0
1.674613 1.0525744 -0.13037436 0
1.7720019 1.0558525 -0.12813066 0
1.8734589 1.0533621 -0.12547396 0
1.9733386 1.042094 -0.12252466 0
2.0701795 1.0612615 -0.11960622 0
2.1140001 1.0420001 -0.118 0
-3.8492532 1.1623607 -0.19059494 0
-1.8402323 1.1541414 -0.17086127 0
-1.772 1.156 -0.18000001 0
-1.6387663 1.1514322 -0.17399999 0
-1.5477995 1.1411899 -0.17276512 0
-1.4541421 1.1466864 -0.1720027 0
-1.363852 1.1593293 -0.16988969 0
-1.2537285 1.1226387 -0.16761 0
-1.1712816 1.1543807 -0.16669971 0
-1.0707529 1.1617861 -0.16578597 0
-0.95854652 1.1719322 -0.16466391 0
-0.82499999 1.141 -0.16500001 0
-0.77999997 1.196 -0.164 0
0.91600001 1.1950001 -0.148 0
1.0661533 1.1451724 -0.144849 0
1.1641748 1.1362016 -0.14283745 0
1.2592182 1.1436074 -0.1398745 0
1.3344382 1.1519756 -0.13777383 0
1.4459839 1.1485846 -0.13474663 0
1.5435703 1.1501886 -0.1330246 0
1.6436205 1.1488405 -0.13093454 0
1.7426474 1.1542666 -0.12849483 0
1.8329811 1.1308436 -0.12640025 0
1.9388363 1.1588244 -0.12412778 0
2.0414727 1.1478248 -0.12089931 0
-4.2130127 1.2924432 -0.12937972 0
-4.1321774 1.263536 -0.14298311 0
-4.051342 1.2346287 -0.15658648 0
-3.9705064 1.2057215 -0.17018986 0
-2.1011794 1.2955188 -0.16448641 0
-2.0239899 1.2709434 -0.1538564 0
-1.9537045 1.2494431 -0.16611271 0
-1.8459687 1.2034653 -0.17662683 0
-1.5538704 1.2256031 -0.17302638 0
-1.4544989 1.2660756 -0.1683327 0
-1.3396004 1.2575939 -0.1668548 0
-1.2537816 1.2628806 -0.16569972 0
-1.1510115 1.2481444 -0.16514391 0
-1.0358791 1.2663722 -0.16388056 0
-0.94933367 1.2497146 -0.16409104 0
-0.84894311 1.2340683 -0.16382453 0
-0.73199999 1.249 -0.164 0
0.6636821 1.2498465 -0.14963369 0
0.87300003 1.261 -0.149 0
0.97336531 1.2638383 -0.14679232 0
1.1795717 1.2600459 -0.14198732 0
1.2487797 1.2481219 -0.13990872 0
1.3545593 1.2271396 -0.13717416 0
1.4480169 1.2494566 -0.13463093 0
1.5449762 1.2598095 -0.13222097 0
1.6422709 1.2513833 -0.13014002 0
1.7637745 1.2340468 -0.12765412 0
1.8553089 1.2442249 -0.12552957 0
1.9587831 1.250621 -0.12279236 0
2.0209999 1.2309999 -0.1215 0
-4.3460002 1.34 -0.107 0
-4.2938485 1.3213503 -0.11577635 0
-2.249269 1.3852781 -0.15622962 0
-2.1612787 1.3740324 -0.14787972 0
-2.0808411 1.3428355 -0.14806491 0
-1.628 1.303 -0.175 0
-1.405 1.321 -0.167 0
-1.3557129 1.346525 -0.16637821 0
-1.227155 1.3502363 -0.16417317 0
-1.1652181 1.3532269 -0.16366644 0
-1.0724436 1.3432907 -0.16330568 0
-0.95502335 1.3533688 -0.16274257 0
-0.85934597 1.3378973 -0.16261263 0
-0.74703479 1.3450108 -0.16295257 0
-0.65649998 1.331 -0.164 0
0.48899999 1.359 -0.149 0
0.55581713 1.3438866 -0.1495311 0
0.71972859 1.3483856 -0.14853473 0
0.84130299 1.3439639 -0.14854714 0
0.94355249 1.351469 -0.14709032 0
1.0296655 1.3326215 -0.14525981 0
1.1535 1.3440001 -0.14250001 0
1.2459382 1.3492644 -0.13982624 0
1.3393297 1.3491713 -0.13700677 0
1.4535087 1.3375902 -0.13413154 0
1.5481112 1.3488576 -0.13176921 0
1.6388954 1.3613923 -0.12945512 0
1.7498734 1.3513527 -0.12706538 0
1.853237 1.330768 -0.12529729 0
1.9455328 1.3510313 -0.1223289 0
-2.332335 1.4562178 -0.13443239 0
-2.2484415 1.4553276 -0.14227341 0
-1.4269323 1.4563111 -0.16783762 0
-1.3350703 1.4791341 -0.16062021 0
-1.2613082 1.4210677 -0.1633386 0
-1.1595788 1.4606508 -0.16251732 0
-1.0509119 1.4482608 -0.16214132 0
-0.97326159 1.4579115 -0.16145234 0
-0.85362041 1.4452511 -0.1612359 0
-0.76168633 1.4564031 -0.16121767 0
-0.6354562 1.4632938 -0.16163653 0
-0.54400003 1.4305 -0.16249999 0
-0.48300001 1.478 -0.162 0
0.373 1.459 -0.15000001 0
0.44203016 1.4430153 -0.14885464 0
0.54682398 1.4512872 -0.14809367 0
0.6735 1.4814999 -0.148 0
0.7831834 1.4599499 -0.14729053 0
0.87340403 1.4319519 -0.14706285 0
0.9758175 1.4640365 -0.1449101 0
1.0671246 1.4463886 -0.1424226 0
1.1567379 1.4520741 -0.14113778 0
1.2923597 1.4317594 -0.13750924 0
1.3668146 1.4777932 -0.13547868 0
1.4507555 1.4366056 -0.1335312 0
1.5649456 1.4655013 -0.13031305 0
1.6591244 1.4670861 -0.12927864 0
1.7387058 1.4336441 -0.12684102 0
1.8721592 1.4467999 -0.12351705 0
1.955 1.4384999 -0.122 0
-2.3748751 1.5428613 -0.15250731 0
-1.56038 1.5949395 -0.16051595 0
-1.4564428 1.5502981 -0.16187629 0
-1.3568552 1.5688076 -0.16181976 0
-1.2302467 1.569546 -0.16172919 0
-1.1433939 1.5221688 -0.16216885 0
-1.068548 1.5450833 -0.16040325 0
-0.90799999 1.533 -0.16 0
-0.85834885 1.5479181 -0.15910786 0
-0.7646277 1.5422325 -0.16039158 0
-0.65626478 1.5633652 -0.16007799 0
-0.53312016 1.562324 -0.15982774 0
-0.45053533 1.542775 -0.1620798 0
0.24600001 1.567 -0.15099999 0
0.34270215 1.5371518 -0.14971003 0
0.43958446 1.5720809 -0.14865111 0
0.56880087 1.5588288 -0.14678916 0
0.64821851 1.5379303 -0.14665398 0
0.72178954 1.5163001 -0.14720526 0
0.8782956 1.5418688 -0.14525306 0
1.0173175 1.5625365 -0.1434101 0
1.1641192 1.5371852 -0.13909179 0
1.2409759 1.556648 -0.13777554 0
1.3034492 1.5882574 -0.13614993 0
1.4272528 1.5420575 -0.13330489 0
1.5398622 1.5731077 -0.13067265 0
1.6297346 1.5259016 -0.12837566 0
1.7218304 1.5370625 -0.12643421 0
1.8396102 1.5534924 -0.12316342 0
1.9170001 1.518 -0.122 0
-1.62207 1.6594093 -0.15677392 0
-1.5376682 1.6521387 -0.15636148 0
-1.4652429 1.6578264 -0.15361914 0
-1.3746377 1.665634 -0.1588136 0
-1.2754803 1.6372212 -0.16179909 0
-1.1452396 1.6464159 -0.15651622 0
-0.91211724 1.6645859 -0.15581088 0
-0.85288233 1.6430078 -0.15871085 0
-0.73398185 1.6358172 -0.15869251 0
-0.63782722 1.6419197 -0.15803355 0
-0.55152959 1.6528466 -0.15768063 0
-0.44172388 1.6408876 -0.16181466 0
-0.35549998 1.6765 -0.16949999 0
0.2407406 1.6671879 -0.15683132 0
0.34616438 1.6408105 -0.14937648 0
0.45812672 1.6411214 -0.14822665 0
0.54643548 1.6491499 -0.14696755 0
0.65799141 1.62993 -0.14441465 0
0.7269423 1.6568041 -0.14485888 0
0.94623905 1.6541719 -0.14263266 0
1.0663161 1.6344022 -0.14124182 0
1.1282699 1.6831455 -0.13864042 0
1.251243 1.6605511 -0.13514429 0
1.3599322 1.6556766 -0.13386658 0
1.4713993 1.6263984 -0.1307731 0
1.5481293 1.6705863 -0.12895733 0
1.6657935 1.635128 -0.12689319 0
1.7593129 1.6467022 -0.12450089 0
1.839 1.6415 -0.123 0
-1.7454499 1.7883489 -0.14928986 0
-1.6516973 1.7539541 -0.15030995 0
-1.5531372 1.7475028 -0.15425102 0
-1.431555 1.7334363 -0.15592855 0
-1.3446583 1.7489573 -0.15888825 0
-1.2233833 1.7546656 -0.15322597 0
-0.95282304 1.7431146 -0.15408118 0
-0.80823797 1.7631118 -0.1549753 0
-0.65778273 1.7420059 -0.15626276 0
-0.59463137 1.7021236 -0.15676557 0
-0.44509563 1.7344567 -0.15825902 0
-0.35876179 1.75776 -0.16334999 0
-0.24700001 1.7745 -0.17 0
0.2521022 1.7483776 -0.15903226 0
0.36612326 1.7141079 -0.14903235 0
0.43399999 1.71 -0.148 0
0.65297979 1.7419885 -0.14372675 0
0.74610001 1.7313901 -0.14261144 0
1.0141824 1.7664751 -0.14001225 0
1.1407237 1.742786 -0.13802859 0
1.3302383 1.7498704 -0.13218358 0
1.4446568 1.7568054 -0.13044153 0
1.590759 1.7561578 -0.12628233 0
1.6569742 1.7453682 -0.12623371 0
1.7558433 1.7362309 -0.1241282 0
-1.8071399 1.8528186 -0.14554784 0
-1.7396902 1.862372 -0.14672206 0
-1.6463084 1.8582492 -0.14557841 0
-1.5453898 1.8690408 -0.15015846 0
-1.4462092 1.8360367 -0.15213484 0
-1.3275748 1.8989985 -0.14883895 0
-1.2754791 1.8268321 -0.15103246 0
-1.114 1.869 -0.155 0
-0.97576439 1.8598216 -0.15367573 0
-0.84388554 1.8443341 -0.15317035 0
-0.73263615 1.8496685 -0.15290511 0
-0.63989401 1.8543708 -0.1542967 0
-0.34892684 1.8269526 -0.15851483 0
-0.26401603 1.8486724 -0.16412753 0
-0.15636683 1.8594345 -0.16838579 0
-0.061000001 1.8839999 -0.168 0
0.049500003 1.878 -0.16749999 0
0.15628606 1.8401257 -0.16791426 0
0.25652212 1.8573606 -0.16302924 0
0.6496129 1.8218995 -0.14380527 0
0.75989079 1.8320874 -0.14102255 0
0.80457312 1.889148 -0.13786913 0
0.90600002 1.8789999 -0.14399999 0
1.0302391 1.843172 -0.13963266 0
1.1731298 1.8354325 -0.13613668 0
1.2299049 1.8292183 -0.13446063 0
1.3682476 1.8364799 -0.1293055 0
1.4309732 1.8404833 -0.12934589 0
1.5293814 1.857934 -0.1270165 0
1.6642194 1.8360188 -0.12351848 0
1.722 1.813 -0.124 0
-1.9305198 1.9817581 -0.13806379 0
-1.8520269 1.9558188 -0.1405776 0
-1.7625618 1.9420729 -0.1404617 0
-1.6503789 1.9472501 -0.14692207 0
-1.556535 1.9721733 -0.1464256 0
-1.4774221 1.9172194 -0.15036863 0
-1.3416059 1.96665 -0.14961582 0
-1.261 1.902 -0.156 0
-1.1598122 1.9404972 -0.1516955 0
-1.0697249 1.9396242 -0.15117127 0
-0.99853778 1.9710336 -0.15188171 0
-0.86385757 1.947749 -0.15215383 0
-0.75173616 1.9621596 -0.15025887 0
-0.66490501 1.948499 -0.15241244 0
-0.5637483 1.9553151 -0.15069619 0
-0.45899999 1.926 -0.153 0
-0.345 1.9435 -0.155 0
-0.24591592 1.9464016 -0.16014598 0
-0.15512681 1.9592116 -0.16564128 0
-0.03203997 1.955431 -0.16479452 0
0.04461224 1.9567543 -0.16594426 0
0.15693654 1.9628716 -0.16608973 0
0.23209919 1.9353106 -0.16660881 0
0.31320292 1.9524393 -0.16415662 0
0.51999998 1.928 -0.148 0
0.65616131 1.9240665 -0.14524679 0
0.75111622 1.9533954 -0.1425152 0
0.85234976 1.9425895 -0.13964006 0
0.92462599 1.9653144 -0.14132881 0
1.056098 1.937395 -0.13803318 0
1.1274214 1.953647 -0.13564491 0
1.262311 1.921865 -0.13256869 0
1.3315398 1.975291 -0.13028084 0
1.4503722 1.9428685 -0.12572812 0
1.5504162 1.9360666 -0.12537411 0
1.604 1.947 -0.124 0
-2.378 2.089 -0.15800001 0
-2.0139999 2.069 -0.133 0
-1.9345157 2.0519586 -0.13488211 0
-1.872444 2.070605 -0.1374529 0
-1.7662483 2.0363386 -0.1402984 0
-1.6683729 2.0630701 -0.14243838 0
-1.5836332 2.0518291 -0.14355296 0
-1.4317665 2.0433314 -0.14445195 0
-1.3673524 2.0523376 -0.14746556 0
-1.2285306 2.0477428 -0.14673877 0
-1.1477951 2.0492706 -0.14797947 0
-1.0235379 2.0645337 -0.14788172 0
-0.93349367 2.0566647 -0.14851508 0
-0.83433914 2.0436947 -0.1484559 0
-0.75560236 2.059489 -0.14831825 0
-0.62866157 2.0574491 -0.14822525 0
-0.48033026 2.0141835 -0.15032217 0
-0.34461924 2.0494378 -0.15242247 0
-0.22620432 2.0508149 -0.15858655 0
-0.13673598 2.0524893 -0.16312391 0
-0.065559953 2.0556464 -0.1636918 0
0.040399235 2.0487425 -0.16410914 0
0.15553701 2.0463173 -0.16421957 0
0.25026953 2.0607781 -0.16823614 0
0.32560721 2.046077 -0.16480686 0
0.44800001 2.0369999 -0.15700001 0
0.555933 2.0567734 -0.14442296 0
0.67344594 2.0161288 -0.14367434 0
0.74547607 2.0632145 -0.14033063 0
0.8518424 2.0510774 -0.13747713 0
0.94176728 2.0476906 -0.13810711 0
1.0473766 2.0824404 -0.13628113 0
1.1583903 2.0564351 -0.13377273 0
1.2910796 2.0121703 -0.13052 0
1.3641191 2.0544426 -0.12839699 0
1.5583215 2.0282147 -0.12326485 0
-2.4577904 2.1614618 -0.15745425 0
-1.772305 2.1230607 -0.13875009 0
-1.6378694 2.1205668 -0.14007255 0
-1.4656209 2.1234994 -0.14241947 0
-1.2624941 2.1527858 -0.14227906 0
-1.1461191 2.1457491 -0.14429726 0
-1.0605664 2.1345699 -0.14519691 0
-0.94442928 2.1502924 -0.14551336 0
-0.84682781 2.1519992 -0.1448586 0
-0.76525813 2.1605706 -0.14551279 0
-0.6552406 2.171989 -0.14453407 0
-0.51232564 2.1464589 -0.14630544 0
-0.4033635 2.1174178 -0.14920598 0
-0.33779091 2.1481342 -0.14964849 0
-0.23507531 2.1382964 -0.15583976 0
-0.1355318 2.146323 -0.16011721 0
-0.043101572 2.1410396 -0.16076016 0
0.053638496 2.1421907 -0.16092886 0
0.146818 2.1415913 -0.163041 0
0.24191375 2.1709597 -0.16215488 0
0.34522438 2.1462948 -0.15907444 0
0.44192529 2.1232338 -0.15876168 0
0.59186602 2.1855469 -0.14084592 0
0.68061829 2.1141098 -0.14048806 0
0.74192429 2.1726236 -0.13853055 0
0.85208797 2.1445088 -0.13818704 0
0.94325823 2.1375771 -0.13453905 0
1.0360038 2.1807573 -0.13331527 0
1.1213467 2.1608622 -0.13216871 0
-2.5580902 2.2478261 -0.14308426 0
-1.3482779 2.2718132 -0.13631468 0
-1.2443149 2.2516959 -0.13811523 0
-1.1346235 2.2746425 -0.13982731 0
-1.0318303 2.2342427 -0.14220572 0
-0.93678749 2.2566991 -0.14137959 0
-0.83421427 2.2428563 -0.14260393 0
-0.73922992 2.2531164 -0.14295271 0
-0.65298635 2.2585218 -0.14156957 0
-0.54432106 2.2787342 -0.1422887 0
-0.42988613 2.2497311 -0.14486048 0
-0.36251035 2.257442 -0.14561069 0
-0.24532355 2.242646 -0.15322438 0
-0.1363852 2.2467804 -0.15678409 0
-0.036443848 2.2406073 -0.15748009 0
0.051080555 2.2433116 -0.15748112 0
0.15931103 2.2472844 -0.15979584 0
0.25192833 2.2599542 -0.15795682 0
0.35721284 2.2556036 -0.15597393 0
0.45745912 2.2382298 -0.15484057 0
0.50755161 2.2964027 -0.14657006 0
0.6158213 2.2713959 -0.13846123 0
0.77051193 2.2554762 -0.13629182 0
0.83623862 2.2475283 -0.13696536 0
0.95388985 2.2568994 -0.13339594 0
1.0667533 2.2610476 -0.13076271 0
1.1502312 2.2562413 -0.12777913 0
-2.7209017 2.3786163 -0.11754254 0
-2.6583905 2.3341904 -0.12871426 0
-1.419 2.345 -0.133 0
-1.339 2.3340001 -0.133 0
-1.2365566 2.3378005 -0.13507257 0
-1.142 2.3529999 -0.138 0
-1.0513734 2.3423684 -0.1385498 0
-0.93378013 2.320471 -0.13901706 0
-0.86726266 2.3255491 -0.14052702 0
-0.76725149 2.3380392 -0.14022079 0
-0.67848295 2.3451524 -0.13896197 0
-0.5656513 2.3669176 -0.13961087 0
-0.42829394 2.3845809 -0.14050907 0
-0.34585026 2.3517032 -0.1441595 0
-0.25543857 2.3418636 -0.14956442 0
-0.14869866 2.3522658 -0.15306656 0
-0.0552558 2.3486238 -0.15421207 0
0.05999808 2.3410122 -0.15423377 0
0.15645948 2.3579688 -0.15399945 0
0.23882082 2.3411508 -0.15273651 0
0.32528085 2.3405716 -0.15657082 0
0.43567467 2.3763194 -0.14834917 0
0.52740216 2.3828704 -0.14309341 0
0.63977665 2.357245 -0.13607654 0
0.7625457 2.3632746 -0.13222015 0
0.81191415 2.3300126 -0.1325233 0
0.99028957 2.3030832 -0.12770554 0
1.0274328 2.3858702 -0.12567283 0
-2.8580623 2.4944627 -0.10135956 0
-2.771287 2.4345341 -0.11327818 0
-1.4577503 2.4571784 -0.11332148 0
-1.3480902 2.4312298 -0.11948241 0
-1.1337625 2.4404411 -0.13162304 0
-1.0026631 2.4881055 -0.12742971 0
-0.94243854 2.4485908 -0.13391256 0
-0.85537255 2.4127164 -0.13764518 0
-0.73448122 2.4304781 -0.13656813 0
-0.58698153 2.4551013 -0.13693304 0
-0.44495276 2.4727969 -0.1376109 0
-0.35762033 2.4406438 -0.14119139 0
-0.24896052 2.456166 -0.1467164 0
-0.15946202 2.4522755 -0.1496408 0
-0.048488066 2.4480391 -0.1504377 0
0.050545741 2.4389031 -0.15057117 0
0.14279015 2.4570701 -0.15166262 0
0.24847817 2.4303851 -0.14863889 0
0.3482424 2.4493854 -0.15052956 0
0.45292139 2.4639335 -0.14431734 0
0.54725266 2.4693379 -0.13961677 0
0.66373199 2.4430938 -0.13369185 0
0.78985488 2.4463294 -0.12946418 0
0.85628843 2.4533165 -0.12818027 0
1.058 2.454 -0.124 0
-1.393302 2.5540397 -0.10305549 0
-1.2388147 2.5466294 -0.11688269 0
-1.1595298 2.5444934 -0.12361092 0
-1.0369946 2.5716581 -0.12164456 0
-0.94790918 2.5765753 -0.132126 0
-0.86863226 2.5429759 -0.13405459 0
-0.76089472 2.5166411 -0.13391283 0
-0.60831183 2.5432849 -0.13425523 0
-0.46161157 2.5610132 -0.13471271 0
-0.32695341 2.5394711 -0.13947655 0
-0.25389159 2.5724864 -0.14493328 0
-0.15352975 2.5550435 -0.14585249 0
-0.054150354 2.5479398 -0.14687589 0
0.052504823 2.5426946 -0.14686468 0
0.14390822 2.558522 -0.14897858 0
0.24854523 2.548202 -0.14446297 0
0.35654086 2.5600357 -0.1449257 0
0.4365423 2.5488384 -0.13911267 0
0.53544849 2.5550313 -0.13879925 0
0.68768734 2.5289428 -0.13130714 0
0.85808206 2.5506921 -0.12535411 0
-1.2590171 2.662487 -0.10623954 0
-1.175 2.6070001 -0.13 0
-1.0713261 2.655211 -0.11585941 0
-0.94548702 2.6648619 -0.12977755 0
-0.83330911 2.6434121 -0.13002437 0
-0.767721 2.6483588 -0.12983535 0
-0.62964207 2.6314683 -0.1315774 0
-0.50945401 2.6466715 -0.13182393 0
-0.44708666 2.6517873 -0.13180512 0
-0.35195556 2.6476331 -0.13561416 0
-0.23912117 2.6451588 -0.14143345 0
-0.15963304 2.6473536 -0.14309187 0
-0.048081551 2.6582165 -0.14322367 0
0.064690143 2.6440744 -0.14324504 0
0.15557677 2.6406989 -0.14812446 0
0.25228354 2.6519477 -0.13952862 0
0.36874902 2.647943 -0.14031085 0
0.45347691 2.6378152 -0.13555734 0
0.55415314 2.6413908 -0.13480675 0
0.71164262 2.6147919 -0.12892245 0
0.84399998 2.6110001 -0.124 0
-1.2584133 2.7419591 -0.10083349 0
-1.1056577 2.7387636 -0.11007426 0
-0.95610344 2.7463379 -0.12728813 0
-0.851322 2.7734349 -0.12597466 0
-0.65097237 2.7196519 -0.12889957 0
-0.52713579 2.7348804 -0.1289269 0
-0.43493062 2.7725027 -0.12897643 0
-0.35400835 2.7481415 -0.13283563 0
-0.23500001 2.7484999 -0.13600001 0
-0.1680883 2.7179217 -0.13904148 0
-0.054747343 2.7175567 -0.14201759 0
0.062772885 2.7713706 -0.13839397 0
0.15921232 2.7530918 -0.13755089 0
0.2615355 2.7405796 -0.1353498 0
0.35110331 2.7186024 -0.13820764 0
0.4406113 2.7399449 -0.13259315 0
0.53891134 2.7267601 -0.1324417 0
0.60680425 2.7287407 -0.12918682 0
0.73829901 2.7103205 -0.12626888 0
-1.1399893 2.8223162 -0.10428911 0
-0.97397029 2.8387055 -0.12115178 0
-0.85685599 2.8323083 -0.11948747 0
-0.75400001 2.8529999 -0.125 0
-0.68115127 2.8444178 -0.12511086 0
-0.54490876 2.8235447 -0.12601495 0
-0.41760346 2.8652294 -0.12635608 0
0.163 2.829 -0.13500001 0
0.26766744 2.8467193 -0.13042024 0
0.34513125 2.8582494 -0.13073951 0
0.47028151 2.844389 -0.12760006 0
0.56023502 2.8315058 -0.12696669 0
0.625 2.8080001 -0.126 0
-1.0059406 2.9194109 -0.11530355 0
-0.92342412 2.9402332 -0.10194989 0
-0.80095309 2.9896047 -0.11645574 0
-0.77528131 2.9226065 -0.11759067 0
-0.43320692 2.9544587 -0.12271215 0
0.33849999 2.9394999 -0.126 0
0.43399999 2.901 -0.125 0
1.589 2.9389999 -0.105 0
-3.842063 3.054636 -0.15656933 0
-1.0538961 3.0404692 -0.10653121 0
-0.82690614 3.0742097 -0.11291149 0
-0.7971251 3.0274258 -0.10536267 0
-0.56099999 3.092 -0.114 0
-0.44881037 3.0436881 -0.11906824 0
-0.26300001 3.0610001 -0.118 0
1.5609407 3.0563254 -0.10418412 0
1.6479342 3.0582271 -0.10279208 0
-4.002377 3.1778152 -0.12441592 0
-3.9382513 3.1285434 -0.13727728 0
-0.95899999 3.1429999 -0.11 0
-0.84395307 3.1476049 -0.11112241 0
-0.71899998 3.1259999 -0.113 0
-0.64718246 3.1467304 -0.10896638 0
-0.57414037 3.1778066 -0.11097771 0
-0.46441382 3.1329174 -0.11542431 0
-0.27194327 3.1483784 -0.1142535 0
1.6237634 3.1743011 -0.10173649 0
1.7068685 3.1774545 -0.10058417 0
-4.0665026 3.2270868 -0.11155455 0
-1.0462049 3.2587609 -0.10386893 0
-0.98944068 3.2604952 -0.10345668 0
-0.84964448 3.236891 -0.10773841 0
-0.74477315 3.253685 -0.10886844 0
-0.58728075 3.2636135 -0.10795543 0
-0.4800173 3.2221467 -0.11178039 0
-0.28088656 3.2357564 -0.11050699 0
1.6656451 3.2529519 -0.10010473 0
-0.90476549 3.3280239 -0.10227872 0
-0.8481915 3.3554072 -0.10463461 0
-0.77054626 3.3813703 -0.10473686 0
-0.62871057 3.3577099 -0.10446657 0
-0.49562073 3.3113761 -0.10813648 0
-0.28982982 3.3231344 -0.10676049 0
0.46700001 3.3299999 -0.11 0
0.63800001 3.3900001 -0.109 0
-0.78772831 3.4664938 -0.10198248 0
-0.64486682 3.4395506 -0.10176952 0
-0.51902592 3.44522 -0.1026706 0
-0.29877308 3.4105127 -0.10301398 0
0.48026156 3.4197917 -0.10788183 0
0.65531594 3.4770296 -0.1070885 0
0.824 3.4779999 -0.108 0
0.49352312 3.5095835 -0.10576367 0
0.50678468 3.5993755 -0.1036455 0
0.67263186 3.5640588 -0.105177 0
0.84493494 3.5593426 -0.10592249 0
0.93107128 3.554853 -0.10584016 0
0.52004623 3.6891673 -0.10152733 0
0.68994778 3.6510882 -0.1032655 0
0.86586988 3.6406853 -0.10384498 0
0.96428496 3.6684122 -0.10236063 0
0.70726371 3.7381177 -0.101354 0
0.88680482 3.7220278 -0.10176746 0
0.98642743 3.7441185 -0.10004093 0
1.5823735 3.8247454 -0.10083327 0
1.6071646 3.8969941 -0.1017777 0
1.613 3.914 -0.102 0
-0.18799999 -3.1129999 -0.013999999 0
-0.18340452 -3.0324149 -0.022780649 0
-0.38600001 -2.95 -0.027000003 0
-0.17826407 -2.9422734 -0.032602578 0
-0.57099998 -2.8169999 -0.037999995 0
-0.37704429 -2.8805254 -0.035141565 0
-0.17312361 -2.8521318 -0.042424515 0
2.039 -2.872 -0.0080000004 0
-0.5585174 -2.7553601 -0.046505839 0
-0.43599999 -2.7219999 -0.061999999 0
-0.36016101 -2.7495518 -0.050490022 0
-0.16798316 -2.7619905 -0.052246451 0
0.024 -2.743 -0.001000002 0
0.32651162 -2.7829671 -0.05030711 0
0.44400001 -2.704 -0.044 0
-0.73100001 -2.6059999 -0.050999999 0
-0.5417645 -2.6726334 -0.057921533 0
-0.42140746 -2.6326318 -0.065172292 0
-0.34327769 -2.6185784 -0.065838479 0
-0.16284271 -2.671849 -0.06206838 0
0.045009501 -2.6551988 -0.035810582 0
0.12800001 -2.658 -0.055 0
0.26862761 -2.6726139 -0.037944127 0
0.31001937 -2.6467788 -0.060678519 0
0.43440777 -2.6401186 -0.047730308 0
3.2847397 -2.6479685 -0.094599091 0
-0.7169686 -2.5563502 -0.053374544 0
-0.65438366 -2.551363 -0.057923835 0
-0.51663518 -2.5485435 -0.075045079 0
-0.45201191 -2.5672233 -0.061897635 0
-0.33202213 -2.5312626 -0.076070786 0
-0.15770227 -2.5817075 -0.071890317 0
-0.093000002 -2.503 -0.0080000013 0
0.044210419 -2.5388794 -0.048418716 0
0.1237517 -2.5778246 -0.059157919 0
0.26741147 -2.5418074 -0.056376085 0
0.42096701 -2.5506067 -0.052957278 0
2.092 -2.5599999 -0.0029999986 0
2.2841136 -2.5522976 -0.0087827444 0
3.1411304 -2.5600858 -0.081574284 0
3.2222426 -2.598388 -0.079951636 0
-1.046 -2.405 -0.039000001 0
-0.95700002 -2.4225001 -0.059999999 0
-0.86961353 -2.4512312 -0.057390839 0
-0.66134858 -2.4540548 -0.067086421 0
-0.46878073 -2.4466097 -0.083863638 0
-0.34662774 -2.4583998 -0.069073841 0
-0.14999159 -2.4464951 -0.086623222 0
-0.091564931 -2.4487543 -0.01460132 0
0.043662351 -2.4530582 -0.057530321 0
0.11900151 -2.4881773 -0.06380704 0
0.26549593 -2.4397426 -0.064536244 0
0.43717539 -2.4230318 -0.044061419 0
1.423 -2.4030001 -0.046999998 0
1.9867494 -2.427526 -0.024663597 0
2.0422182 -2.4973419 -0.013246551 0
2.1634908 -2.4198382 -0.036026195 0
2.2414484 -2.4430909 -0.024761913 0
2.3148773 -2.463027 -0.017333932 0
2.9146793 -2.460959 -0.088905767 0
3.0478492 -2.4593575 -0.044830725 0
-1.199 -2.313 -0.034000002 0
-1.0417771 -2.3413935 -0.050133742 0
-0.94176757 -2.3829951 -0.061297685 0
-0.85389936 -2.3192399 -0.061959147 0
-0.64082927 -2.3720717 -0.075561732 0
-0.44156727 -2.3456752 -0.099084467 0
-0.3361375 -2.3594425 -0.078801215 0
-0.089244321 -2.3610351 -0.025276154 0
0.05084686 -2.3455534 -0.074310131 0
0.12618317 -2.340817 -0.050890878 0
0.25718662 -2.3404579 -0.072631814 0
0.39408547 -2.371583 -0.063411221 0
0.44138265 -2.3451219 -0.034034126 0
1.3585424 -2.3403385 -0.057407975 0
1.4218217 -2.3496144 -0.058793485 0
1.6339999 -2.362 -0.057999998 0
1.8657825 -2.3595662 -0.015276488 0
1.9405531 -2.3522613 -0.019396804 0
2.0950589 -2.3026636 -0.037386224 0
2.1497672 -2.3506026 -0.049838059 0
2.2317929 -2.3544481 -0.030792903 0
2.8734558 -2.320327 -0.0097098202 0
2.943213 -2.3759394 -0.02375818 0
-1.5039999 -2.221 -0.0099999979 0
-1.41 -2.204 -0.028999999 0
-1.204 -2.2260001 -0.050000001 0
-1.1605606 -2.2479866 -0.043869089 0
-1.0515578 -2.2382402 -0.078408025 0
-0.9542222 -2.2709117 -0.05552987 0
-0.8507061 -2.2291455 -0.065079808 0
-0.79478168 -2.2391698 -0.064625338 0
-0.63087958 -2.2517276 -0.067943454 0
-0.33602917 -2.2723699 -0.073872104 0
-0.066961855 -2.254158 -0.044475496 0
0.042488195 -2.2393703 -0.079341903 0
0.12720756 -2.224134 -0.052006867 0
0.24418192 -2.2372789 -0.088893555 0
0.38064468 -2.2820711 -0.068638183 0
0.42157182 -2.2410183 -0.041452575 0
0.97433329 -2.2493334 -0.026000002 0
1.2993708 -2.2633986 -0.064999744 0
1.3530582 -2.2639699 -0.061292395 0
1.492393 -2.2471251 -0.042849034 0
1.54181 -2.2693176 -0.042798441 0
1.781626 -2.254653 -0.034621194 0
1.8571845 -2.2491338 -0.038061775 0
1.9825568 -2.221149 -0.07689137 0
2.0628145 -2.2475281 -0.066138059 0
2.1600282 -2.2704554 -0.047979537 0
2.3440001 -2.201 -0.074000001 0
2.4704013 -2.2150669 -0.088062167 0
2.5399437 -2.2783954 -0.077749811 0
-1.458975 -2.1545665 -0.018160183 0
-1.3401184 -2.147485 -0.03214673 0
-1.211 -2.1159999 -0.089000002 0
-1.1394223 -2.1567225 -0.053597938 0
-1.0691234 -2.1494007 -0.078755155 0
-0.94804919 -2.1619523 -0.061104886 0
-0.86099476 -2.1440496 -0.047690134 0
-0.76455891 -2.1535237 -0.067547172 0
-0.59398431 -2.1211753 -0.074187271 0
-0.34820372 -2.1843159 -0.081086144 0
-0.29701155 -2.1834671 -0.074534021 0
-0.064650297 -2.1695111 -0.05367782 0
0.0086782333 -2.1537325 -0.05825606 0
0.12226605 -2.136307 -0.061905492 0
0.24520208 -2.1459322 -0.097059406 0
0.37268469 -2.1381724 -0.072776318 0
0.40658894 -2.1457019 -0.0097533651 0
0.84154105 -2.1211741 -0.028927932 0
0.94416255 -2.1704798 -0.031123381 0
1.2553281 -2.1436577 -0.070509955 0
1.3542312 -2.1430628 -0.070654579 0
1.4496744 -2.1552143 -0.061341781 0
1.6694174 -2.1147687 -0.060414132 0
1.757718 -2.1589079 -0.053657055 0
1.9366046 -2.1448977 -0.078599006 0
2.0363071 -2.151751 -0.081616998 0
2.271014 -2.1313403 -0.089458182 0
2.3310168 -2.1886084 -0.076749817 0
2.4059155 -2.156343 -0.097624719 0
3.3595634 -2.1253033 -0.086443663 0
-1.7337182 -2.0322928 -0.061610743 0
-1.6059999 -2.0480001 -0.016000003 0
-1.4615202 -2.016856 -0.040859647 0
-1.3553667 -2.0455596 -0.061740097 0
-1.2448438 -2.0552049 -0.065248922 0
-1.1427052 -2.0488043 -0.077805474 0
-1.0509715 -2.0425124 -0.059763089 0
-0.92607695 -2.0246534 -0.070210695 0
-0.84984189 -2.0328505 -0.058397975 0
-0.7604329 -2.0639932 -0.070639431 0
-0.56938744 -2.0341401 -0.078349814 0
-0.3262426 -2.0498211 -0.085860305 0
-0.2787081 -2.052527 -0.081573814 0
-0.068200774 -2.0595253 -0.064620003 0
0.038904753 -2.0571899 -0.077698357 0
0.13939852 -2.057019 -0.056555595 0
0.3708632 -2.035857 -0.052923005 0
0.46325061 -2.051384 -0.090256847 0
0.54388934 -2.0393672 -0.090203539 0
0.66299999 -2.013 -0.092 0
0.78868479 -2.0355852 -0.039031561 0
0.84985161 -2.0353384 -0.07191629 0
0.92500001 -2.006 -0.083999999 0
1.0701594 -2.01736 -0.044409484 0
1.1421583 -2.0536466 -0.048274111 0
1.2331024 -2.0371535 -0.072158478 0
1.3641796 -2.0311072 -0.08182314 0
1.4219971 -2.0716832 -0.068222836 0
1.6462097 -2.020611 -0.078845777 0
1.718237 -2.0772548 -0.069170058 0
1.8530197 -2.0422211 -0.093795411 0
1.965523 -2.0660927 -0.097207993 0
3.251236 -2.0539055 -0.097276405 0
-1.7277894 -1.9419148 -0.023794603 0
-1.6616424 -1.9444271 -0.062410723 0
-1.5537308 -1.9535036 -0.034879129 0
-1.4659754 -1.953697 -0.065874144 0
-1.3508154 -1.9452696 -0.044942543 0
-1.2665087 -1.9498569 -0.068067171 0
-1.1664387 -1.9618607 -0.083852328 0
-1.0434506 -1.9629436 -0.064478874 0
-0.99698865 -1.9573947 -0.068653852 0
-0.84755582 -1.9466696 -0.071532927 0
-0.75111866 -1.9697925 -0.066231526 0
-0.54479057 -1.9471052 -0.082512364 0
-0.3042815 -1.9153264 -0.090634458 0
-0.26040462 -1.9215869 -0.088613607 0
-0.18664536 -1.9370879 -0.099944584 0
-0.051779579 -1.9382881 -0.079793386 0
0.026327474 -1.9651593 -0.090800613 0
0.13426568 -1.9710127 -0.071703732 0
0.34571254 -1.9369894 -0.08586596 0
0.45010072 -1.9543608 -0.097008213 0
0.54571813 -1.9513535 -0.097657509 0
0.66162211 -1.9572482 -0.096087545 0
0.73364514 -1.956256 -0.080751874 0
0.83865368 -1.9612875 -0.064501278 0
0.90364754 -1.9623491 -0.090216547 0
1.0573349 -1.9410939 -0.059774861 0
1.1514505 -1.9639053 -0.083559692 0
1.256151 -1.9357444 -0.083726861 0
1.3275384 -1.9661032 -0.07562799 0
1.5291564 -1.9399133 -0.092655301 0
1.6156893 -1.9406874 -0.083530426 0
-1.914 -1.813 -0.012 0
-1.701 -1.882 -0.020000003 0
-1.6445723 -1.8642259 -0.044981331 0
-1.5521305 -1.8602619 -0.042935483 0
-1.4514594 -1.853976 -0.063083246 0
-1.3541548 -1.8612101 -0.057182726 0
-1.2682834 -1.8558079 -0.05333038 0
-1.1563097 -1.8484935 -0.063323259 0
-1.0239723 -1.8785779 -0.072635069 0
-0.9653616 -1.8448066 -0.073095992 0
-0.83343649 -1.8641419 -0.072890401 0
-0.75160503 -1.8742375 -0.072603263 0
-0.66927457 -1.838026 -0.078317367 0
-0.5201937 -1.8600701 -0.086674906 0
-0.26892152 -1.8299782 -0.093562022 0
-0.17873402 -1.849816 -0.098708436 0
-0.05533006 -1.8283021 -0.09073557 0
0.027630128 -1.843184 -0.091080129 0
0.12913284 -1.8850064 -0.086851865 0
0.33085626 -1.8499947 -0.092682973 0
0.69025385 -1.8744346 -0.099236466 0
0.75062126 -1.8394928 -0.078934453 0
0.82946473 -1.8823005 -0.075603962 0
0.98130977 -1.84276 -0.075403556 0
1.0586609 -1.8392264 -0.089058563 0
1.1537699 -1.8656189 -0.089710154 0
1.2636635 -1.8549062 -0.091267191 0
1.5599999 -1.873 -0.097000003 0
-1.817 -1.7460001 -0.026000001 0
-1.7577485 -1.7207704 -0.057103902 0
-1.6369874 -1.7550308 -0.037368782 0
-1.5457548 -1.7490582 -0.058451027 0
-1.4472535 -1.7631146 -0.05130472 0
-1.3531859 -1.7566597 -0.068066642 0
-1.2596585 -1.7571255 -0.071205571 0
-1.1700232 -1.7438523 -0.071388535 0
-1.0638757 -1.7428763 -0.073687367 0
-0.91889542 -1.7508949 -0.080095224 0
-0.84476638 -1.7492621 -0.080466136 0
-0.74601841 -1.7628034 -0.07673046 0
-0.6556074 -1.7169892 -0.082361169 0
-0.49559686 -1.773035 -0.090837456 0
-0.25550002 -1.7414999 -0.097499996 0
-0.1479146 -1.7424564 -0.098472543 0
-0.052196659 -1.7313607 -0.099533893 0
0.025749724 -1.7279127 -0.099334583 0
0.125 -1.707 -0.1 0
0.31864816 -1.7624611 -0.099461317 0
0.4561215 -1.7584081 -0.097319447 0
0.56200004 -1.7479999 -0.096000001 0
0.671 -1.738 -0.096000001 0
0.73749995 -1.7290001 -0.096000001 0
0.96783751 -1.750639 -0.094061881 0
1.016 -1.735 -0.098999999 0
-1.7337446 -1.6681091 -0.042093184 0
-1.6672112 -1.626702 -0.069853887 0
-1.5616316 -1.6568136 -0.056232434 0
-1.4623795 -1.6771386 -0.069455944 0
-1.3668385 -1.6469831 -0.073307887 0
-1.2617124 -1.6468719 -0.079940833 0
-1.1586051 -1.6500516 -0.084050052 0
-1.0707811 -1.6376117 -0.084523357 0
-0.94962168 -1.6374475 -0.08689186 0
-0.84467506 -1.646349 -0.086117029 0
-0.73448104 -1.6562668 -0.084145308 0
-0.65335119 -1.6228997 -0.088486515 0
-0.58322269 -1.6396463 -0.085078165 0
-0.46676114 -1.6676317 -0.095504619 0
-0.34239808 -1.6174545 -0.09935268 0
-0.24591289 -1.6518676 -0.096781209 0
-0.14244308 -1.6749954 -0.097675562 0
-0.04274904 -1.6593574 -0.098267362 0
0.031000001 -1.6606666 -0.099666663 0
-3.6010001 -1.594 -0.025 0
-3.5269339 -1.5572976 -0.013427158 0
-3.4528677 -1.5205951 -0.0018543154 0
-3.3310001 -1.564 -0.023000002 0
-3.2798193 -1.5405322 -0.030193634 0
-3.1981373 -1.5030791 -0.041674271 0
-1.6067741 -1.5687594 -0.081661239 0
-1.5415096 -1.5945418 -0.090924993 0
-1.4288163 -1.5673584 -0.073811963 0
-1.3485656 -1.5465469 -0.087482065 0
-1.2416559 -1.5641904 -0.089219555 0
-1.147706 -1.543618 -0.095434658 0
-1.0745703 -1.5499413 -0.096371546 0
-0.95033336 -1.5533333 -0.094333328 0
-0.85993701 -1.5613314 -0.094373234 0
-0.76140881 -1.5602356 -0.091193475 0
-0.65400004 -1.531 -0.089000002 0
-0.57349998 -1.5534999 -0.088 0
-0.4363209 -1.5357238 -0.09912847 0
-0.359 -1.524 -0.097999997 0
-0.25299999 -1.5493332 -0.096333332 0
-0.1515 -1.5925 -0.0955 0
-0.060500003 -1.586 -0.098999999 0
-3.4161086 -1.4328265 -0.0020920001 0
-3.1164553 -1.4656258 -0.053154901 0
-3.0347733 -1.4281726 -0.064635538 0
-2.8762953 -1.4684901 -0.0044209734 0
-2.7969716 -1.4298675 -0.016565733 0
-2.6091123 -1.4156667 -0.057012886 0
-2.5394828 -1.4540107 -0.060605969 0
-2.4288411 -1.46729 -0.057785973 0
-2.3498061 -1.4434341 -0.055961322 0
-2.269938 -1.4117906 -0.063661128 0
-1.5508978 -1.4970436 -0.077437274 0
-1.489949 -1.4400219 -0.089218639 0
-1.3430842 -1.445807 -0.092504561 0
-1.2664087 -1.486501 -0.095995136 0
-1.183 -1.472 -0.1 0
-0.74599999 -1.482 -0.093999997 0
-3.6551399 -1.3489492 -0.0040885732 0
-3.5712831 -1.3169577 -0.014073811 0
-3.4367018 -1.3933551 -0.0059917718 0
-3.3441243 -1.3781726 -0.015433509 0
-3.2618432 -1.3432546 -0.02682513 0
-3.1706433 -1.3291306 -0.039236803 0
-2.9530916 -1.3907194 -0.076116174 0
-2.8714097 -1.3532661 -0.087596819 0
-2.7536879 -1.353529 -0.063893966 0
-2.6279225 -1.3759381 -0.056283191 0
-2.5427783 -1.3463401 -0.066805363 0
-2.455991 -1.3504442 -0.082727201 0
-2.3795347 -1.3306732 -0.089668736 0
-2.229295 -1.3566412 -0.087022603 0
-2.1304691 -1.3328953 -0.091330566 0
-1.8228644 -1.3581774 -3.6071986e-05 0
-1.7589999 -1.313 -0.014 0
-3.4454982 -1.2689704 -0.029051669 0
-3.3197131 -1.220983 -0.044029526 0
-3.2158771 -1.2568389 -3.6889687e-05 0
-3.1440532 -1.2550775 -0.031937834 0
-3.039607 -1.2571884 -0.057872802 0
-4.5159998 -1.104 -0.085000001 0
-3.2358565 -1.1889915 -0.054014765 0
-3.152 -1.1569999 -0.064000003 0
-3.0599999 -1.194 -0.022 0
-4.4456944 -1.0869845 -0.095938496 0
-5.0300002 -0.99299997 -0.093999997 0
-2.345 1.507 -0.097000003 0
-2.9258575 2.5644951 -0.090394273 0
-2.8599193 2.5193753 -0.098588988 0
-1.5313139 2.553236 -0.097180977 0
-1.464905 2.542949 -0.09817519 0
-3.0684016 2.6721163 -0.076542541 0
-2.9911115 2.6206546 -0.08108829 0
-1.604 2.688 -0.074000001 0
-1.5414891 2.6391649 -0.082255624 0
-1.454953 2.6630595 -0.087583244 0
-1.539868 2.7633598 -0.069703661 0
-1.3356295 2.7402587 -0.095765382 0
2.645 2.77 -0.096000001 0
-1.4130813 2.8951623 -0.078871533 0
-1.3743554 2.8177106 -0.087318465 0
-1.295696 2.8217511 -0.09340018 0
2.6995778 2.8285615 -0.093808919 0
2.7541554 2.8871231 -0.091617845 0
-1.4400001 2.9489999 -0.072999999 0
-1.35162 2.9414389 -0.08225023 0
-1.2086523 2.9894216 -0.092718817 0
-1.1743207 2.905869 -0.098503962 0
2.8087332 2.9456844 -0.089426771 0
-1.393 3.03 -0.074000001 0
-1.2429838 3.0729742 -0.086933672 0
-0.94813615 3.0248501 -0.089924827 0
2.323 3.089 -0.098999999 0
2.8633111 3.004246 -0.087235689 0
2.9184442 3.0634036 -0.0850223 0
-1.2773154 3.156527 -0.08114852 0
-1.1018515 3.1615276 -0.097758867 0
-0.98520422 3.1517751 -0.07188724 0
-0.81868768 3.1146386 -0.095544003 0
2.3678503 3.1473055 -0.096097916 0
-4.1306286 3.2763586 -0.098693185 0
-1.296 3.2019999 -0.078000002 0
-1.1338218 3.242233 -0.091910645 0
-1.0222723 3.2787001 -0.05384966 0
-0.91512346 3.2560196 -0.089846104 0
-0.85103154 3.2454576 -0.080816001 0
-0.67772973 3.2779212 -0.096865527 0
1.7461581 3.2569394 -0.099112235 0
2.4351261 3.2347639 -0.091744781 0
-4.164 3.302 -0.092 0
-1.1768961 3.3509693 -0.084031209 0
-1.0508952 3.3671176 -0.077737898 0
-0.95324701 3.3750393 -0.068692215 0
-0.88337535 3.3762772 -0.066088006 0
-0.69809455 3.3653817 -0.088798299 0
1.7464873 3.3340135 -0.098056629 0
1.953001 3.3508029 -0.098254621 0
2.493 3.3099999 -0.088 0
-1.1211149 3.4502835 -0.086106792 0
-1.0559357 3.4521272 -0.061175343 0
-0.94274771 3.4569345 -0.076195911 0
-0.87590641 3.4804518 -0.09961538 0
-0.71845937 3.4528425 -0.080731064 0
-0.30771637 3.4978907 -0.099267475 0
1.675 3.4089999 -0.098999999 0
1.7521912 3.4566619 -0.096585728 0
1.8443818 3.4556515 -0.095432378 0
2.0130043 3.4462118 -0.096018471 0
-1.0649912 3.5389867 -0.050090086 0
-0.95456266 3.5662708 -0.069048315 0
-0.84964669 3.5577159 -0.097748667 0
-0.72667038 3.5699635 -0.084774196 0
-0.66102314 3.5213914 -0.099072464 0
-0.54243112 3.5790639 -0.097204715 0
-0.31665963 3.585269 -0.095520973 0
1.7771864 3.5635729 -0.095766246 0
1.8331721 3.5675545 -0.093577713 0
1.9033161 3.5748789 -0.093224466 0
2.0800049 3.552747 -0.093521558 0
-1.0241647 3.6356928 -0.045128141 0
-0.93046129 3.6425467 -0.064777538 0
-0.82209247 3.6367407 -0.096473724 0
