# .PCD v0.7 - Point Cloud Data file format
VERSION 0.7
FIELDS x y z intensity
SIZE 4 4 4 4
TYPE F F F F
COUNT 1 1 1 1
WIDTH 420
HEIGHT 1
VIEWPOINT 0 0 0 1 0 0 0
POINTS 420
DATA ascii
-3.6589999 -0.38999999 -0.204 0
-3.5583484 -0.38519436 -0.20239812 0
-3.4399133 -0.37953964 -0.20051321 0
-3.877727 -1.0580071 -0.11120062 0
-3.7500088 -1.020505 -0.13334043 0
-1.258123 -1.053167 -0.13350892 0
-1.1900005 -1.0131556 -0.16225192 0
-3.6222908 -0.9830029 -0.15548025 0
-3.5371454 -0.95800143 -0.17024013 0
-3.4519999 -0.93300003 -0.185 0
-2.6489999 -0.926 -0.149 0
-2.5852945 -0.9034335 -0.15229511 0
-2.323 -0.926 -0.14 0
-2.2827346 -0.9116888 -0.14545766 0
-1.608 -0.90700001 -0.153 0
-1.2555615 -0.95465469 -0.1331082 0
-1.1595204 -0.93754929 -0.12761417 0
-2.5032525 -0.87437159 -0.15653867 0
-2.4479938 -0.86100751 -0.13257499 0
-2.3481114 -0.82926863 -0.13835914 0
-2.209801 -0.88576663 -0.15534325 0
-2.1368673 -0.85984439 -0.16522883 0
-2.0639336 -0.83392221 -0.17511442 0
-1.9910001 -0.80800003 -0.185 0
-1.5463762 -0.87209588 -0.15853651 0
-1.4815841 -0.83539724 -0.16435768 0
-1.2527198 -0.86361331 -0.13189983 0
-1.1454687 -0.87436688 -0.12744741 0
-1.0558972 -0.85448968 -0.11832616 0
-0.98600197 -0.8396225 -0.12700766 0
-2.2437572 -0.7910192 -0.1574766 0
-2.1620049 -0.76284617 -0.16648442 0
-2.0802524 -0.73467302 -0.1754922 0
-1.9814785 -0.72647792 -0.18610652 0
-1.8984243 -0.71616971 -0.18970028 0
-1.416792 -0.79869866 -0.17017883 0
-1.352 -0.76200002 -0.176 0
-1.295 -0.75099999 -0.107 0
-1.1388266 -0.78801233 -0.12728272 0
-1.055117 -0.75282508 -0.11379013 0
-0.9531067 -0.75499076 -0.10950276 0
-0.850003 -0.7239337 -0.1035115 0
-3.533 -0.66399997 -0.184 0
-3.4539082 -0.62503409 -0.18635873 0
-3.3482409 -0.61701864 -0.19126271 0
-3.2650001 -0.61299998 -0.197 0
-2.0069764 -0.66449279 -0.18300024 0
-1.9368516 -0.64976633 -0.18278961 0
-1.8365587 -0.661991 -0.1886466 0
-1.7657026 -0.63528585 -0.19044767 0
-1.0000004 -0.69719696 -0.11056443 0
-0.96007645 -0.65921307 -0.10289161 0
-3.4349999 -0.52700001 -0.191 0
-3.3544483 -0.54705453 -0.19158785 0
-3.2528062 -0.56501502 -0.1930957 0
-3.1239624 -0.54022723 -0.19014373 0
-3.0363698 -0.52458179 -0.19091499 0
-2.9487774 -0.50893635 -0.19168624 0
-2.0079999 -0.59399998 -0.18099999 0
-1.9492463 -0.58982301 -0.1824628 0
-1.846688 -0.56784201 -0.18270722 0
-1.7571962 -0.54620099 -0.18341683 0
-1.6636893 -0.55101281 -0.18551305 0
-1.5877229 -0.5214777 -0.18149328 0
-3.549294 -0.46124932 -0.198 0
-3.4579413 -0.45037398 -0.198 0
-3.3429706 -0.43668699 -0.198 0
-3.2279999 -0.42300001 -0.198 0
-2.8611851 -0.4932909 -0.1924575 0
-2.7735925 -0.47764546 -0.19322875 0
-2.6860001 -0.46200001 -0.19400001 0
-1.6413913 -0.49510717 -0.18383595 0
-1.5236305 -0.48320237 -0.1849453 0
-1.4579999 -0.44499999 -0.184 0
-3.3609567 -0.37576982 -0.1992566 0
-3.2820001 -0.37200001 -0.198 0
1.0302134 -0.25144362 -0.10481942 0
1.1596838 -0.23036431 -0.11824005 0
1.2566562 -0.24555141 -0.13277033 0
1.321 -0.242 -0.141 0
1.0849371 -0.1973085 -0.10662192 0
1.1475036 0.17922795 -0.11501287 0
1.2463408 0.19055523 -0.10974043 0
3.6960001 0.163 -0.183 0
3.7814314 0.16535005 -0.17194094 0
3.8668628 0.16770011 -0.16088186 0
3.9522939 0.17005016 -0.1498228 0
4.0377254 0.17240021 -0.13876373 0
4.1231565 0.17475027 -0.12770467 0
4.2513037 0.17827535 -0.11111607 0
4.3140001 0.18000001 -0.103 0
1.1486151 0.2549161 -0.11571231 0
1.2463394 0.25492579 -0.1152016 0
1.3462543 0.26418641 -0.11351229 0
1.4370189 0.24827927 -0.12875926 0
1.502 0.25999999 -0.131 0
2.5929999 0.29800001 -0.18000001 0
1.1401598 0.34642723 -0.11702142 0
1.2497795 0.34421551 -0.11508144 0
1.3510423 0.34714681 -0.11551011 0
1.4678758 0.34461355 -0.10796529 0
1.525 0.37400001 -0.118 0
2.6779101 0.30827022 -0.17898744 0
2.76282 0.31854042 -0.17797489 0
2.8477302 0.32881063 -0.17696233 0
2.9326401 0.33908084 -0.17594978 0
3.0175502 0.34935105 -0.17493722 0
3.1412301 0.36431062 -0.17346233 0
1.099 0.47799999 -0.123 0
1.1584125 0.44333833 -0.11813472 0
1.2623836 0.43733954 -0.12055332 0
1.3530793 0.45379007 -0.12580113 0
1.4264781 0.44814405 -0.12701222 0
1.5116177 0.44714916 -0.12001595 0
2.434 0.44999999 -0.17299999 0
2.5192261 0.46691409 -0.17299999 0
2.6044521 0.48382819 -0.17299999 0
1.0825 0.55733329 -0.12066668 0
1.1550995 0.54189259 -0.11913373 0
1.2410979 0.55305326 -0.12093279 0
1.335218 0.55619353 -0.12636375 0
1.4423271 0.55825168 -0.1290077 0
1.507 0.52499998 -0.122 0
2.6896784 0.50074232 -0.17299999 0
2.7749045 0.51765639 -0.17299999 0
2.8601305 0.53457052 -0.17299999 0
2.9453566 0.55148458 -0.17299999 0
3.0572915 0.57369936 -0.17299999 0
3.4649999 0.55500001 -0.17900001 0
3.5521359 0.56845647 -0.16708773 0
3.6392722 0.58191293 -0.15517545 0
3.7264082 0.5953694 -0.14326318 0
1.0578001 0.6498 -0.1214 0
1.1409149 0.64865589 -0.11812191 0
1.2424535 0.6506831 -0.12156912 0
1.3525866 0.64633387 -0.12768224 0
1.4532223 0.64747387 -0.12649974 0
1.5529299 0.66608536 -0.12041625 0
1.633805 0.67697787 -0.11917265 0
3.8135443 0.60882586 -0.1313509 0
3.9442487 0.6290105 -0.11348249 0
1.0670812 0.72211719 -0.12098341 0
1.1536924 0.75603485 -0.1145302 0
1.2472087 0.73749357 -0.11684898 0
1.3561474 0.72436476 -0.12537202 0
1.4447467 0.73522556 -0.12930404 0
1.5439252 0.74671167 -0.12080634 0
1.6557931 0.74330932 -0.11650166 0
1.7572839 0.7279495 -0.11089297 0
1.8552623 0.78582662 -0.11433995 0
3.322 0.76899999 -0.177 0
3.4090414 0.79044217 -0.16691534 0
1.182 0.81300002 -0.104 0
1.251 0.80199999 -0.116 0
1.3346627 0.81186914 -0.12304811 0
1.5925214 0.8035289 -0.12778205 0
1.6527286 0.81921816 -0.1131418 0
1.7496014 0.84875792 -0.11319175 0
1.8495899 0.86535674 -0.12153312 0
1.9370832 0.84727097 -0.10930585 0
2.0205672 0.85375726 -0.10487592 0
2.1032197 0.88772261 -0.10014391 0
2.951 0.84899998 -0.17299999 0
3.0328705 0.87439442 -0.1595092 0
3.1147413 0.89978886 -0.1460184 0
3.4960828 0.81188428 -0.15683067 0
3.5831244 0.83332646 -0.14674601 0
3.6701658 0.85476857 -0.13666134 0
3.7572072 0.87621075 -0.12657668 0
3.8442485 0.89765286 -0.11649201 0
0.56312352 0.97487736 -0.10303421 0
1.826043 0.92105782 -0.11856409 0
1.9462243 0.96365875 -0.11874017 0
2.0518427 0.95409501 -0.1163028 0
3.1966119 0.9251833 -0.1325276 0
3.2784824 0.9505778 -0.1190368 0
3.360353 0.97597224 -0.10554601 0
3.9312901 0.91909504 -0.10640734 0
-0.18822461 1.0570846 -0.10124418 0
0.4644835 1.0534422 -0.10072359 0
0.54910576 1.0638235 -0.11479635 0
0.63903928 1.0482129 -0.11288383 0
0.73797178 1.0388623 -0.10905661 0
-0.23252326 1.1625919 -0.10841382 0
0.46787897 1.1679095 -0.11354397 0
0.53815919 1.1484025 -0.11820436 0
0.65057492 1.1385448 -0.13036349 0
0.74463844 1.1428808 -0.1286798 0
0.8384859 1.1769313 -0.13252831 0
-0.25013542 1.2487851 -0.11902148 0
0.49965924 1.2441821 -0.12690797 0
0.56494421 1.2511477 -0.11800424 0
0.64908826 1.2496057 -0.14737581 0
0.73817784 1.2386923 -0.14410521 0
0.8460573 1.2476417 -0.14135143 0
-0.26774758 1.3349781 -0.12962914 0
0.53465962 1.363076 -0.13692079 0
0.63065636 1.3582957 -0.13615699 0
0.76212233 1.3390322 -0.15071452 0
0.85256195 1.3448863 -0.15973979 0
0.93900001 1.3150001 -0.156 0
-0.31871951 1.4423426 -0.14047362 0
-0.252 1.4 -0.14 0
0.55367279 1.4546629 -0.14569415 0
0.65998793 1.4353083 -0.1538132 0
0.8432734 1.4572194 -0.1566287 0
-0.338 1.529 -0.152 0
0.373 1.592 -0.162 0
0.426 1.584 -0.1645 0
0.55683887 1.537262 -0.15118201 0
0.65078855 1.5509894 -0.14946753 0
0.71714628 1.5645316 -0.15935746 0
0.88800001 1.534 -0.16599999 0
0.273 1.699 -0.16500001 0
0.34360969 1.6584351 -0.16468345 0
0.43919161 1.6476631 -0.16416268 0
0.55628133 1.6446615 -0.16393362 0
0.63627279 1.6592306 -0.15169698 0
0.75444943 1.6485195 -0.16507436 0
0.25702456 1.7649961 -0.16601633 0
0.36009631 1.7559198 -0.16475041 0
0.46582407 1.7445415 -0.16513872 0
0.52789742 1.7700167 -0.16490105 0
0.66413462 1.7529433 -0.16469556 0
0.2790736 1.8444883 -0.16654897 0
0.35614806 1.8626235 -0.1659822 0
0.479747 1.8192492 -0.16553818 0
0.59186828 1.8444045 -0.16777928 0
0.273 1.915 -0.168 0
0.48887619 1.9188589 -0.16984831 0
0.5123263 2.0151796 -0.16898005 0
0.54431581 2.1474495 -0.16745012 0
0.57630527 2.2797189 -0.16592018 0
0.59763163 2.3678985 -0.16490023 0
0.61895794 2.4560783 -0.16388027 0
0.6402843 2.5442581 -0.16286032 0
0.6616106 2.6324377 -0.16184036 0
0.68293691 2.7206173 -0.16082041 0
0.73742104 2.8442657 -0.15893348 0
0.85299999 2.826 -0.15899999 0
0.84249645 2.928107 -0.15095575 0
0.9005214 2.9919438 -0.13282509 0
0.84877563 3.0218482 -0.14119995 0
0.92428213 3.0749159 -0.11973764 0
0.87409621 3.1344798 -0.12522133 0
0.93066227 3.1734424 -0.11106072 0
0.91900951 3.2743702 -0.10436767 0
-4.2591543 -1.1700065 -0.045080565 0
-4.1331635 -1.1330113 -0.066921003 0
-4.048018 -1.1080099 -0.081680879 0
-3.9628725 -1.0830085 -0.096440755 0
-2.6129999 -0.92299998 -0.081 0
-2.5562403 -0.90398961 -0.090595715 0
-1.0828366 -0.90443379 -0.097487837 0
-1.1215364 -0.84878594 -0.099217296 0
-1.0137823 -0.84724504 -0.086983778 0
-1.2415193 -0.73225719 -0.044505544 0
-1.1675493 -0.7524029 -0.076869845 0
-1.0636392 -0.76611888 -0.085319981 0
-0.94329512 -0.75378489 -0.087568119 0
-0.86984122 -0.72779596 -0.07991495 0
-1.148427 -0.67852497 -0.042063311 0
-1.0642021 -0.64187127 -0.037193995 0
-0.92551583 -0.65879744 -0.071951821 0
-0.83990985 -0.65140009 -0.075988486 0
-0.75076663 -0.633196 -0.077462815 0
-1.0218229 -0.59381908 -0.029920621 0
-0.95542121 -0.56510323 -0.041209083 0
-0.85909289 -0.59179938 -0.07344377 0
-0.75592244 -0.54751879 -0.054969199 0
-0.66219175 -0.54453325 -0.065111078 0
-0.55672789 -0.5160563 -0.047979727 0
-0.41800001 -0.50599998 -0.0060000001 0
-0.38 -0.5025 -0.036499999 0
-0.27599999 -0.50099999 -0.033 0
-0.64899999 -0.49400002 -0.033500001 0
-0.58000129 -0.49088907 -0.051129788 0
-0.47548395 -0.48476771 -0.061781459 0
-0.35459152 -0.46608213 -0.022899535 0
-0.27434057 -0.47356462 -0.019457573 0
0.34563684 -0.40053314 -0.02810375 0
0.38145718 -0.334768 -0.014255757 0
0.4427444 -0.34175691 -0.020666074 0
0.55397958 -0.33805138 -0.044567112 0
0.66076261 -0.32376698 -0.047289073 0
0.74190861 -0.32103509 -0.052681409 0
0.90600002 -0.30599999 -0.097999997 0
0.47999999 -0.28933331 -0.031666666 0
0.55211091 -0.28360787 -0.03437265 0
0.6294778 -0.27457273 -0.049045548 0
0.72828025 -0.25842899 -0.068404824 0
0.83651 -0.24724451 -0.079440489 0
0.95018375 -0.26880357 -0.097421214 0
1.061 -0.20200001 -0.090000004 0
0.94285065 -0.17048074 -0.06624008 0
1.0319291 -0.17187557 -0.045461629 0
1.1495323 -0.1479356 -0.010335583 0
1.2460001 -0.15899999 -0.0010000002 0
0.5829168 -0.028892845 -0.03615474 0
0.60500002 -0.027000001 -0.033 0
0.58200002 2.6929693e-15 -0.059999999 0
0.6394518 0.002361034 -0.04976885 0
1.2669863 0.19968449 -0.096236639 0
1.3 0.204 -0.093000002 0
-0.62800002 0.67299998 -0.054000001 0
-0.53799999 0.67050004 -0.081499994 0
-0.26293397 0.6899507 -0.041743837 0
-0.098058268 0.69875753 -0.040116534 0
1.202 0.67000002 -0.1 0
4.0749526 0.64919519 -0.095614068 0
4.1620889 0.66265166 -0.083701789 0
4.2521124 0.67655408 -0.071394756 0
-0.7452817 0.78329891 -0.048438713 0
-0.64621127 0.72972417 -0.063329034 0
-0.57693094 0.73450798 -0.07158161 0
-0.27399999 0.72399998 -0.046 0
-0.13488632 0.72769183 -0.048488051 0
-0.098999999 0.71100003 -0.041999999 0
1.2626904 0.70554727 -0.089595921 0
1.3442461 0.76624769 -0.085571043 0
1.4488974 0.78100759 -0.078882039 0
1.7266378 0.77254063 -0.098196268 0
1.8241047 0.76790565 -0.095239207 0
1.9052633 0.77206278 -0.088523328 0
-0.86246324 0.85952926 -0.022215471 0
-0.60799998 0.80500001 -0.059 0
-0.17004654 0.86068392 -0.070827641 0
0.45414862 0.84249049 -0.069605693 0
0.55715466 0.85376042 -0.08200454 0
1.234015 0.8365224 -0.094656713 0
1.3707545 0.82944411 -0.0881349 0
1.5607485 0.82254046 -0.059755065 0
1.631497 0.85908091 -0.047510132 0
1.7432489 0.85224676 -0.074807525 0
1.8423132 0.86769927 -0.085223362 0
1.9585809 0.85026681 -0.083528228 0
2.0685685 0.84008789 -0.074332654 0
2.1502211 0.87410045 -0.067237325 0
-0.94099998 0.92500001 -0.028000001 0
-0.20303665 0.92239845 -0.071315385 0
-0.17228076 0.97135568 -0.09155523 0
0.43022808 0.95012647 -0.060524564 0
0.53018707 0.91975451 -0.091029674 0
0.65782183 0.94214368 -0.071055457 0
1.3800898 0.9421345 -0.083940282 0
1.4461197 0.98517931 -0.077253707 0
1.772994 0.93216175 -0.023020264 0
1.8652978 0.94781053 -0.049465775 0
1.9693302 0.97146779 -0.086959451 0
2.0585079 0.9452002 -0.066485874 0
2.168936 0.93034399 -0.08920595 0
2.2249999 0.92149997 -0.077000007 0
4.0183315 0.94053721 -0.096322678 0
4.1488934 0.97270048 -0.081195667 0
4.211 0.98799998 -0.074000001 0
-0.23195736 1.0523845 -0.088604942 0
0.39199999 1.061 -0.088 0
0.44467926 1.037895 -0.067644402 0
1.498 1.0190001 -0.071999997 0
2.066 1.002 -0.057999998 0
3.4422238 1.0013666 -0.092055209 0
3.5470471 1.0338805 -0.074782208 0
0.44987684 1.1377373 -0.067561626 0
0.52141029 1.1486396 -0.081379943 0
0.46540207 1.2454214 -0.086396508 0
0.5338707 1.2464008 -0.075650677 0
0.49572989 1.3576159 -0.082856372 0
0.56593537 1.3214505 -0.086825341 0
0.55149996 1.408 -0.087500006 0
0.97180355 3.2408597 -0.093562722 0
0.96013528 3.3469732 -0.088218592 0
0.96583211 3.4427178 -0.079812825 0
1.0296625 3.4429018 -0.061693911 0
0.96882957 3.5367899 -0.077637836 0
1.0158286 3.5379968 -0.053716473 0
0.99155825 3.6231387 -0.067592569 0
1.011 3.697 -0.059 0
-1.0040394 -0.59271252 0.0041191168 0
-0.94033331 -0.55433327 0.0070000007 0
-0.30303115 -0.46332237 0.0060119014 0
-0.28 -0.43200001 0.012 0
0.38357529 -0.34956408 0.0040112152 0
0.43230826 -0.35348064 0.0058221607 0
0.53923166 -0.34525484 0.0011003871 0
0.45500001 -0.29300001 0.0049999999 0
1.0475819 -0.13108188 0.01694737 0
1.147082 -0.14508188 0.0079473685 0
0.597 -0.0060000001 0.0049999999 0
0.64849639 -0.006804632 0.0082185259 0
-0.56699997 0.67400002 4.2732575e-14 0
-1.224 0.76999998 0.0049999999 0
-0.62797058 0.75136602 0.0071730111 0
-0.11569469 0.77624041 0.0026465282 0
-1.4055786 0.87445652 0.017690979 0
-1.3421048 0.837942 0.013254638 0
-1.2830524 0.80397099 0.0091273189 0
-0.68599999 0.82499999 0.014 0
-0.12738939 0.85248077 0.010293056 0
0.44922197 0.88310033 0.0025366684 0
0.62533158 0.84894997 0.0084447348 0
2.8069999 0.89099997 0.017999999 0
-0.94089442 0.94029796 0.013789404 0
-0.13908407 0.92872119 0.017939586 0
0.4683986 0.96284503 0.01040304 0
2.8909674 0.91714978 0.021238741 0
2.9749346 0.94329965 0.024477482 0
3.058902 0.96944946 0.027716223 0
3.1428695 0.99559933 0.030954964 0
-0.15338939 1.0219808 0.027293056 0
0.46675187 1.0393345 0.014635785 0
3.2268367 1.0217491 0.034193706 0
3.352788 1.0609739 0.03905182 0
3.4787388 1.1001986 0.04390993 0
3.507 1.109 0.045000002 0
4.1880002 1.147 0.064000003 0
4.2461243 1.1589336 0.060209289 0
4.3647499 1.1832892 0.05247286 0
4.4438334 1.1995261 0.04731524 0
4.5229168 1.2157631 0.04215762 0
4.6020002 1.232 0.037 0
