# .PCD v0.7 - Point Cloud Data file format
VERSION 0.7
FIELDS x y z intensity
SIZE 4 4 4 4
TYPE F F F F
COUNT 1 1 1 1
WIDTH 292
HEIGHT 1
VIEWPOINT 0 0 0 1 0 0 0
POINTS 292
DATA ascii
-10.052075 -1.457579 1.2509866 7
-10.010425 -2.1152687 1.8299081 9
-10.069823 -1.8913479 1.8374282 8.5
-10.007111 -1.4185455 1.7089955 8
-10.039817 -0.64483231 1.7811269 9
-10.017894 -0.79475439 2.0120993 9
-9.7820435 -1.3716383 1.166018 7
-9.9024324 -2.2032819 1.5329075 8
-9.9883289 -1.9773586 1.5389243 8
-9.7439871 -1.2166935 1.2020444 7
-9.8831606 -0.99987835 1.3053217 7.25
-9.939846 -0.78381103 1.5081067 8
-9.7906303 -2.4781239 1.9968926 9
-9.8902416 -2.2371035 1.8456556 8.5
-9.9366035 -1.395059 1.7105039 8.5
-9.8752756 -0.96538639 1.7850785 8.333333
-9.963336 -0.67332 1.8576264 8.5
-9.6016626 -2.4361124 2.2649107 10
-9.6335506 -2.2141962 2.2649271 10
-9.8069096 -1.9582963 2.1739395 9.5
-9.9361773 -1.492488 2.0099895 9
-9.911973 -0.95918393 2.1510763 9.5
-9.7751017 -0.60331911 2.3284025 10
-9.8667355 -0.35693681 2.0231972 9
-9.5800972 -1.1885934 2.3490596 10
-7.6341667 -0.88839144 0.25590816 4.3333335
-7.6584907 -0.65113413 0.30578309 4.5
-7.7388411 -0.82103288 0.66224617 6
-7.6417646 -0.67011082 0.49278048 5
-7.3939042 -1.1240382 -0.13478048 3
-7.590776 -0.76061153 0.19476703 4
-7.5961552 -0.99899811 0.4819755 5
-6.9686227 -0.33030009 0.27539423 4
-6.9096417 -0.32428497 0.53389943 5.5
-6.70959 -0.25035188 0.22142908 4
-5.7492733 0.50529534 -0.011305621 3
-5.785779 0.51880318 0.21069586 4.5
-5.7072954 0.58931899 1.3977237 10.5
-5.658752 0.70777476 1.6677644 12
-5.7123814 0.47340515 2.2086873 14
-5.5832834 0.59580147 1.2852348 10
-5.5452638 0.67728215 1.7912637 13
-5.4623156 0.58132935 2.113739 14
-5.0926914 -2.0998673 0.03132249 3
-4.5293331 -1.0605956 -0.11132243 2.6666667
-4.4902086 -1.2111905 0.056413744 4
-4.5482807 -1.0651444 0.11592573 4
-4.5208025 -1.2360945 0.63490915 7.5
-4.5342631 -1.1891162 0.60041273 7
-4.6203012 -1.210066 0.85740423 9
-4.5652809 -1.180088 0.80541128 8
-4.0063529 -1.2556679 0.31044704 5.5
-4.0432701 -1.1642059 0.25745159 5
-4.0246468 -1.2596179 0.61144531 7.5
-4.0328116 -1.1796712 0.45295107 6.5
-3.9437323 -1.1542659 -0.071040034 3
-3.7582498 0.38417989 -0.073195674 3
-3.6712286 0.41316155 -0.10317906 2
-3.9482439 -1.2848655 0.20657463 5
-3.965126 -1.137609 0.1670849 4.5
-3.6414897 0.40767112 0.16482137 4.5
-3.9497223 -1.2861964 0.60490787 7.5
-3.9701335 -1.132846 0.53762662 7
-3.9739387 -1.2580864 0.82994944 9
-3.4275327 -1.4342335 -0.18651178 2
-3.5782106 -1.0673399 -0.20050488 2
-3.4506934 0.45263052 -0.090147682 2.5
-3.3705313 0.44913414 0.19219096 5
-3.3742058 0.45164257 0.48485824 7.5
-3.407769 0.44620764 2.3663535 21
-3.4165726 -2.5142543 2.5295744 19
-2.9541011 0.53706074 -0.058073495 3
-2.9593673 0.51857233 0.18650229 5
-2.9429746 0.49183962 0.58232677 9
-2.908643 0.49159208 0.83541292 11.5
-2.9067349 -1.7985431 2.5319362 22
-3.0059385 0.49463853 2.5544055 24
-2.6143169 -0.92243403 -0.081421115 2
-2.5067816 0.55376631 -0.065523468 2.5
-2.4718897 -0.90439767 0.21884078 5.5
-2.5782983 0.54788119 0.18523754 5.5
-2.4524331 -0.91036379 0.40659174 8
-2.5424232 0.54471576 0.56240648 9.5
-2.4103336 -0.56323612 2.3736362 26
-2.7413089 0.5912922 2.3432183 24
-2.5688329 -1.5389848 2.5365829 24
-2.4186473 -0.98619723 2.53234 26
-2.5161386 -0.47802013 2.5345623 26.5
-2.5393219 -0.21168339 2.5360992 26.4
-2.4540858 0.22439787 2.54265 27
-2.5800769 0.53972012 2.5176296 26
-2.2913744 -0.88009143 -0.068269171 2.5
-2.1429322 0.597552 -0.05238159 2.5
-2.2087691 -0.87905234 0.22427869 6
-2.2044065 0.60104054 0.18975176 5.5833335
-2.2304559 0.60305339 0.56263876 10.333333
-2.3370183 0.53901064 0.81598729 13
-2.2812569 -0.59443277 2.3758891 26.75
-2.2462609 0.64551693 2.3644171 26.799999
-2.2679348 0.87379283 2.3473995 26
-2.0752225 -1.30374 2.5364835 27
-2.2378731 -1.0631564 2.5375364 27
-2.1156864 -0.45448756 2.5224726 29
-2.1667476 -0.21651314 2.5501716 29
-2.2438328 0.23796472 2.5547061 28.5
-2.1747282 0.55490977 2.4856932 28.25
-1.9583999 -0.8115316 -0.18536521 1
-1.7931714 0.65039009 -0.075908393 2
-1.6759248 -0.78162152 0.34349015 9
-1.7778033 0.66669971 0.18394235 6.3333335
-1.645128 -0.77993292 0.46215913 10.5
-1.8210269 0.65212387 0.59803253 12.230769
-1.8537815 0.6468854 1.3275952 21
-1.6235152 -0.9673081 2.3579133 30
-1.8473303 -0.62807554 2.3747599 29.6
-1.854434 0.68247193 2.3682532 29.4
-1.7498996 0.93787789 2.3442183 29.166666
-1.9905013 -1.2537574 2.546633 28
-1.6206456 -1.0093882 2.4186609 30
-1.8727403 0.66384631 2.4381011 30
-1.4278756 -0.75530773 -0.064324163 2
-1.3913535 0.71555746 -0.086214669 1.7142857
-1.4350938 -0.75729752 0.14938952 5.7142859
-1.3978494 0.7212463 0.13926375 5.8571429
-1.3970989 0.7123577 0.63550222 14.846154
-1.374549 0.72464401 0.94621474 19.6
-1.3153589 0.807724 0.97127265 20
-1.3330181 0.70702308 1.3730339 25.428572
-1.5839241 -1.0203965 2.3511696 30.5
-1.5901831 1.0535235 2.3553538 30
-1.3738711 -1.6901565 2.5534468 29
-1.5906488 -1.1547986 2.4126744 30
-0.86879361 -0.54348147 -0.035670746 2
-1.0086154 0.76632458 -0.083953343 1.5
-0.95041192 0.81652403 -0.0081345523 3
-0.83930242 -0.52955174 0.044970103 4.5
-1.0048378 0.7704345 0.18768463 7.6666665
-0.99538684 0.85541159 0.089604616 5.2857141
-1.0040021 0.77610987 0.65671051 17.6
-0.93341255 0.81442636 0.6821183 18.5
-1.1015984 0.76576084 1.0212294 22.799999
-0.91963643 0.8422817 1.0087223 23.833334
-1.0252645 0.75466716 1.3791139 28.09091
-0.95182019 0.86114556 1.3703411 27.799999
-0.90168506 -2.0093155 2.5700917 29
-0.96969897 -1.9387074 2.5618358 29.333334
-0.60495341 -0.49378306 -0.033871613 2
-0.58857304 0.72027993 -0.063623533 1.2857143
-0.59783572 -0.47053841 0.090165451 6.7647057
-0.50697875 -0.39765349 0.15873304 11
-0.51479882 0.68668664 0.19242509 9.7619047
-0.52378291 0.68905473 0.58947951 21.066668
-0.51660246 0.68760478 0.80042303 26
-0.742939 -2.0348029 2.5682719 29.5
-0.7595278 -1.9836484 2.5644753 30
-0.23465937 -0.47194484 -0.018816132 2.2
-0.21547158 0.69257706 -0.039583091 1.5
-0.26834616 1.8274162 -0.17129271 0
-0.21315403 -0.4383122 0.18095493 13.725
-0.099681526 -0.39567336 0.32038113 23.166666
-0.20039487 0.69711322 0.19193193 10.764706
-0.15398374 1.0387229 0.029729873 4
-0.2528908 -0.42352101 0.40922359 24
-0.0023364085 -0.3872171 0.40271413 27.5
-0.20768633 0.6994251 0.56374085 22.647058
0.30770332 -0.4018155 -0.010166191 3
0.32995594 -0.38365534 -0.023134427 2
0.051899452 0.68681848 -0.027670585 2
0.33017069 1.7583177 -0.16536446 0.5
0.17190467 -0.4180868 0.22390556 16.416666
0.28327253 -0.35206249 0.22332831 16.636364
0.045468174 0.69616675 0.1900516 11
0.3530339 -0.3099857 0.44645065 26
0.030938422 0.71230584 0.58507848 23.777779
0.59681052 -0.15695404 -0.031259265 1.8181819
0.7160576 0.0049301405 -0.044854913 0
0.68019801 0.83512288 -0.055968262 0.40000001
0.52959031 1.4328364 -0.11789363 0
0.53157413 1.7495254 -0.15511189 0
0.75205487 2.8811522 -0.13308634 1
0.64798915 4.2450528 -0.014030433 3
0.56987995 -0.27506524 0.17709535 11.428572
0.65495336 0.83026576 0.17122722 7
0.59731311 -0.26702029 0.45057142 21.571428
0.61619216 0.82731891 0.5482105 17
0.76270896 4.2638865 0.49096358 6.5
0.6252923 0.82749891 0.94545478 24.799999
0.74727863 4.6051226 1.0815976 10
0.7758829 4.6085296 1.3235955 11.5
0.76108027 4.6193075 1.8181015 14.5
0.52676994 1.833883 2.1296108 28
0.55352497 2.4307351 2.1238382 24
0.79978424 4.4991822 2.1350501 16
0.92074341 -0.19214097 -0.044378795 1.7142857
1.1179096 0.20548479 -0.11831976 0
0.9836908 0.76990116 -0.056782436 1
1.0172608 0.82030541 -0.066574149 0.66666669
0.88457489 2.8303857 -0.13455555 1
1.0663887 3.4842021 -0.02753729 2
0.9943127 3.9175801 -0.029354287 2
0.85601139 4.2671537 -0.0090474412 3
0.92098868 -0.18781793 0.18787993 9.0500002
0.88194335 0.79846632 0.30652905 10
1.0027987 0.82158929 0.19826873 6.8571429
0.91454804 3.8902354 0.18274772 4.5999999
0.82916749 4.2699709 0.37195736 6
0.80717134 -0.24587941 0.41308075 17
0.9641549 0.79361939 0.43582356 12.5
0.99870288 0.82444012 0.59422469 15.411765
0.87845302 3.9099052 0.56806064 7.5
0.82772291 4.2634153 0.49545494 7
0.92713809 4.6668487 0.7510981 8
0.95796919 0.83103663 0.96199018 22.200001
0.97669518 4.6128826 1.063313 9.8000002
1.0365444 0.81286293 1.2424434 25.5
1.0321513 4.6272311 1.3742789 11.666667
0.98655045 4.6210561 1.8045523 14.25
0.92546165 4.5125775 2.1013715 16
1.2335588 -0.12377885 -0.068892509 1.5
1.4181166 0.19469395 -0.1185744 0
1.2525944 0.69329405 -0.075751342 0.75
1.4142241 0.81030506 -0.047997378 1.1666666
1.2458476 -0.12565829 0.070370562 5
1.2813958 0.79500562 0.18919145 6.1666665
1.3828804 0.80950284 0.18559568 5.7368422
1.2194111 0.79890877 0.56426764 13.5
1.3652853 0.81210083 0.56587678 12.818182
1.4899246 0.79246885 1.1955007 21
1.4214692 0.80990463 0.92795366 18.5
1.2528181 4.6047049 1.1864102 9
1.4603901 0.79495162 1.3377793 23
1.2604086 4.5935893 1.4440743 11
1.4094857 0.7519632 1.8465872 28.5
1.4285436 0.80213761 1.7703882 27.5
1.2817657 4.5880041 1.6540725 12
1.9583011 0.88778013 2.1575491 26
2.2039065 0.96689498 -0.075465105 1.5
2.174895 1.0001904 0.18157727 4.6875
2.2477355 1.0567058 0.73238003 11
2.1543241 1.035462 1.002169 14.5
2.2359233 0.97940469 1.4408584 18.5
2.2006555 1.0003892 1.976879 23
2.0959721 0.31070769 2.1496577 26.5
2.1123979 0.57501119 2.1499403 25.799999
2.1344438 0.96252918 2.1069307 24.5
2.5128026 0.90822065 -0.052710924 1.5
2.5404811 0.9349643 0.19232757 4.5
2.5632448 0.99126047 0.62156594 9.1428576
2.5357115 1.0092399 1.0140287 13.166667
2.5294311 0.97833753 1.4055355 17
2.4898717 1.0059806 1.9939884 22
2.4792051 0.96260309 2.1204586 22.75
3.1727033 0.32680681 -0.19497509 1
3.0838397 0.59055287 -0.18362166 1
3.2741277 0.18584536 -0.19910119 1
3.3688476 1.0307728 -0.10540055 1.5
3.5622985 1.1388776 0.21237624 4
3.5770476 1.1239182 0.50269669 6.5
3.5944965 1.0828633 0.98422301 10
3.5822721 1.0129569 2.147131 18
3.6599898 1.1039102 0.70833141 8
3.6662693 1.0901673 0.97717696 10
3.666059 1.1150051 1.4018046 13
3.6653559 1.0912838 1.7919225 16
3.7018132 1.0970203 2.0515156 17
4.3836966 0.13555683 -0.1470263 1.5
4.364162 0.59958333 -0.040196549 2
4.2790341 1.0027765 -0.078387849 2
4.3703218 0.17595111 0.30123538 4.5
4.3443136 0.61254066 0.18529662 3.8571429
4.2759223 1.0247351 0.21931866 4.1111112
4.3795576 0.24492925 0.50070709 6
4.3560705 0.62801009 0.52263862 6
4.2790852 1.0554917 0.61154741 6.8333335
4.3705053 0.14751512 1.0287844 9.5
4.3625622 0.62144917 0.98755389 9.1111107
4.2916546 1.0436009 1.0139949 9.181818
4.3731232 0.60540503 1.4770195 12.25
4.3240523 0.99716586 1.3700634 11.8
4.3381858 0.68687373 1.7658747 13.8
4.2587333 0.98457849 1.7267603 13.5
4.2663932 0.68122035 2.0190229 16
4.6047878 0.25435039 -0.055840824 2
4.4126692 0.28027955 0.082042657 3
4.4319215 0.40834454 0.20603597 4
4.4225397 0.37848252 0.71813798 7.5
4.4660912 0.5187031 0.62501329 6.75
4.412951 0.37269825 0.93793476 9
4.4679523 0.45484746 1.036208 9
4.4481044 0.52494794 1.3105807 11
4.7395148 0.24301909 1.8513032 14
4.504622 0.21703276 2.1318479 16
