# .PCD v0.7 - Point Cloud Data file format
VERSION 0.7
FIELDS x y z intensity
SIZE 4 4 4 4
TYPE F F F F
COUNT 1 1 1 1
WIDTH 395
HEIGHT 1
VIEWPOINT 0 0 0 1 0 0 0
POINTS 395
DATA ascii
-17.716156 3.9091651 0.41817623 4
-17.61302 3.999552 1.271148 5
-17.500025 4.0362697 0.30013245 4
-17.082014 6.4234352 16.383768 25
-17.067184 6.2841759 16.549875 25
-16.908598 6.6652718 16.541534 25
-16.903826 6.4531088 17.173712 26
-16.504768 5.6939945 5.7607231 13
-16.604904 5.5580292 6.269331 14
-16.678076 5.396945 6.650445 14
-16.028065 5.6944995 1.2011521 5
-16.185879 6.1895971 2.9502916 8
-16.057055 6.4294024 2.942565 8
-16.312643 5.9649801 3.2499955 9
-16.139732 6.2639551 3.3667233 9
-16.206953 6.1969695 3.8114562 10
-16.036875 6.486105 3.9025111 10
-16.36441 5.9843726 5.5819898 13
-16.060865 6.3569856 5.5501313 13
-16.210163 6.1227975 5.8768544 13
-16.387449 5.9046125 6.2190542 14
-16.123976 6.2291574 6.1557522 14
-16.364338 5.9648857 6.5070057 14
-16.121878 6.2874284 6.4387026 14
-16.075666 6.4287634 6.5875711 14
-16.069366 7.8708291 17.008099 26
-15.937089 5.7688041 -0.13291733 3
-15.66857 6.1850739 -0.29630038 3
-15.925539 5.7725453 0.27407554 4
-15.665943 6.2404814 0.25965068 4
-15.99115 5.6641006 0.55616868 4
-15.888855 5.8625932 1.0490034 5
-15.738542 6.0953918 1.1312886 5
-15.651793 6.2552776 1.4656354 6
-15.893224 8.2168751 17.04213 26
-15.724023 8.5924664 17.059088 26
-15.515213 6.438385 -0.15555792 3
-15.521091 6.5057068 0.23038091 4
-15.52199 6.5112844 1.0683762 5
-15.566932 6.5186615 1.6123794 6
-15.26798 8.5647211 9.2769394 18
-7.2910089 4.8538976 7.8147731 25
-6.964015 4.6809998 8.0078812 26
-5.2203465 2.3683488 0.97902048 8
-4.9692931 2.3725209 -0.098014519 3
-4.856741 2.5996437 -0.099229507 3
-5.0468268 2.2879105 0.21775596 4.4000001
-4.8826542 2.5716603 0.17778601 4.1666665
-5.0646825 2.2582223 0.49374571 6
-4.9678645 2.5761545 0.59856218 6.3333335
-5.1303215 2.3419058 1.0875288 9
-5.0411425 2.5335767 1.050807 8.666667
-4.4058442 -1.3441445 -0.10455012 3
-4.5114794 3.0447364 -0.17282261 2
-4.5527148 3.1497715 0.25680229 4.5
-4.4667497 3.2837768 0.20766529 4.3333335
-4.5667024 3.141047 0.51056963 6
-4.4724746 3.2735927 0.48584935 6
-4.1764522 -0.82168645 -0.22553299 2
-4.0332818 1.1116079 -0.082791403 3
-4.3439736 1.3407706 -0.10656101 3
-4.0516911 1.0693167 0.22656174 4.6666665
-4.0740609 1.2143306 0.23945913 5
-4.3785157 3.3807962 0.19665 4.5
-4.0430965 1.182891 0.43146113 6
-3.676729 -0.9336645 -0.21788093 2
-3.8572428 -0.57549208 -0.20712826 2
-3.7543705 1.4477133 -0.20456788 2
-3.990279 1.0887624 0.32395923 5.5
-3.9650252 1.20084 0.2924656 5
-3.3334806 -1.5650734 -0.026619604 3
-3.2979755 -1.0096308 -0.19618669 2
-3.4649413 1.7277994 -0.19770041 2
-3.4413233 2.5641751 -0.16454379 2
-3.2932241 -1.7178044 3.3919253 26
-3.0094223 -1.2607751 -0.066985376 3
-2.9882185 -1.0755881 -0.17849648 2
-3.0649173 2.5099993 -0.16059798 2
-2.8169472 1.3955564 1.1172308 13.5
-3.0134726 -1.7473496 3.3909411 26.666666
-2.5419388 -1.4356719 -0.06237343 3
-2.5674813 -1.0599341 -0.18071862 1.5
-2.5874357 -0.71830767 -0.20775288 1
-2.5168915 1.5015625 -0.052576721 3
-2.5182579 1.5331082 0.18740049 5
-2.5711803 1.5627378 0.59550446 9
-2.5755181 1.6751101 0.55687034 8.5
-2.7432287 1.43366 1.1839639 14
-2.1899776 -1.3144301 -0.090838104 2.3333333
-2.3460779 -1.1823902 -0.16674773 1.5
-2.2375555 -0.43613777 -0.19916442 1
-2.3232818 -0.34012851 -0.2069114 1
-2.2304759 1.9787463 0.27301171 5.75
-2.1594927 2.1302214 0.24214303 5.75
-2.2478647 1.9648812 0.56141037 8.5
-2.152338 2.1230931 0.56065214 8.5
-1.673641 -1.7527249 -0.022657737 3
-1.7626989 -1.3132572 -0.01836968 3
-1.64019 -1.6813009 0.043048453 4
-1.8828157 2.2303345 0.26749945 5.8571429
-1.7494292 2.416652 0.17192958 5
-1.6966707 -1.5790561 0.48953655 9.5
-1.8443735 2.244956 0.59680271 9.375
-1.8392762 2.2012625 1.4507054 17.333334
-1.8674126 -1.3725466 2.306823 26.5
-1.6455907 2.6784635 2.7033079 25
-1.8675931 2.2927251 2.8862417 26.5
-1.6417519 2.5938349 2.9419909 26.5
-1.4115516 -2.0496187 -0.062567011 2.5
-1.5863148 -1.9231467 -0.023969095 3
-1.282154 -1.4851695 -0.10591019 2
-1.5982803 1.1839235 -0.17230052 1
-1.5178517 1.2408628 -0.16933164 1
-1.2526639 1.9015387 -0.15632232 1
-1.412117 2.2377379 -0.13892044 2
-1.4667255 2.5958519 -0.10465854 2.5
-1.2948496 2.9335976 -0.1181284 2
-1.5820881 2.376539 0.19190425 5.5
-1.5578784 2.5078924 0.2518509 5.75
-1.4125757 3.0371683 0.24230415 5.4285712
-1.2395762 3.3308184 0.23378937 5.5
-1.4709076 -1.6537272 0.46099624 9.5
-1.5674261 2.384279 0.5060457 8.5
-1.5612661 2.7916372 0.47847384 7.5
-1.4269692 3.0241647 0.57578409 8.363636
-1.2323325 3.3425231 0.60625106 8.3999996
-1.3367659 3.1771622 1.0103061 12
-1.2236334 3.3913057 0.87911218 10.5
-1.5625714 2.4028192 1.4168389 17
-1.2622761 3.3226228 1.2233427 13
-1.3953671 -1.795476 2.3211346 27
-0.93901747 -2.4486423 -0.069423914 3
-1.0257009 -1.4730208 -0.13047707 1.5
-0.83016783 1.5809811 -0.15984474 1
-1.1052709 1.8683504 -0.15532298 1
-0.98923165 3.1201379 -0.11421792 2
-1.0526595 3.5552769 -0.091559097 3
-0.91491348 3.7190397 -0.095208839 3
-0.97863656 3.7777286 0.21911439 4.8000002
-0.86994845 4.0250783 0.33786085 6
-1.1557232 3.4632349 0.68045664 9
-0.9987275 3.7483549 0.63483107 8.1999998
-0.86134809 4.0087218 0.58939505 7.5
-1.1707352 3.4923146 0.89827454 10.5
-1.0398186 3.7308838 0.90277451 10.333333
-0.87771159 4.0182033 0.95889539 10.5
-1.0152382 3.7645466 1.3433141 13
-0.92266697 3.9535713 1.668151 15
-0.88446242 4.0103922 1.6079311 15
-1.1288699 -1.7448145 2.2074702 27.5
-1.0512326 3.516227 3.5705612 26
-1.0775077 3.6778717 3.3946543 25
-0.57607496 -2.8154886 -0.050654311 3
-0.73211819 -2.6252837 -0.058587592 3
-0.46395874 -2.2570856 -0.1260044 2
-0.56425029 -1.5429946 -0.097256437 2
-0.44259921 1.5032361 -0.16178666 0
-0.56941104 1.6899645 -0.15844074 1
-0.64288437 3.3645482 -0.1086066 2
-0.64659798 3.7440643 -0.097186759 3
-0.70055985 4.2698555 0.72113597 8.5
-0.41506249 4.7823806 0.70088321 8
-0.68065923 4.3412118 0.98431373 10
-0.42584583 4.8026152 1.1278448 10
-0.50168175 4.6345596 1.5177299 13
-0.51801956 4.6538329 1.874953 15
-0.52233428 4.6830626 4.2748871 25.5
-0.51222777 4.3903871 4.5892344 27
-0.11418181 -2.2248552 -0.088889405 2.5
-0.054298092 -1.6581508 -0.10769327 1.5
-0.12470915 -1.5813615 -0.10719864 1
-0.28217283 1.7623725 -0.1672985 0.25
-0.082611427 2.0352628 -0.16648902 1
-0.23348881 2.7406642 -0.13888547 2
-0.19895214 4.7447462 -0.073403955 3
-0.39398775 -1.54048 0.036364615 4
-0.38583204 4.8119178 0.90474343 9
-0.30755901 4.9941859 1.3803054 11.5
-0.19037728 5.2227941 1.3031508 11
-0.34585571 -1.7583765 1.961422 28
-0.26421067 5.0464354 1.658322 13
-0.069005132 5.4193354 2.7093318 17
-0.074097291 4.2744403 4.5898085 28
-0.19837692 4.4237709 4.5892487 27
0.18469313 -2.6731517 -0.067136928 3
0.20141281 -2.0703676 -0.12228668 2
0.16156083 -1.7038429 -0.1147795 1.5
0.36454436 1.4446703 -0.14958733 0
0.21273151 2.0775204 -0.16154297 1
0.25332314 2.9652011 -0.11003958 2
0.16542159 3.2317975 -0.11945698 2
0.2147688 4.5637975 -0.073944248 3
0.23022734 -1.6307259 0.022973012 4
0.0026280051 3.5898123 0.087719701 4
0.35583067 4.8233542 0.3748779 5
0.24830756 4.751956 0.46393493 6
0.38130978 -1.9301021 2.0626426 27.666666
0.70531791 -1.7246314 -0.1086193 2
0.58963925 1.4325488 -0.148159 0.40000001
0.42826456 1.6874862 -0.14580491 1
0.76526749 2.2884376 -0.13000903 2
0.64072365 2.7839417 -0.1135242 2
0.45246634 2.8866208 -0.11217069 2
0.6754992 5.051785 -0.034180474 3
0.532287 -3.6120803 0.012100071 3
0.45874226 4.7927146 0.39235434 5
0.42166021 4.7520065 0.52771789 6.5
0.47811729 -1.6719562 1.8187884 27.333334
0.51657891 -1.5891833 1.7992436 28
1.0075667 -2.1560497 -0.043487411 3
1.0059668 -1.7395042 -0.11305324 2
1.1808463 -1.5954248 -0.17521854 1
1.0128376 1.3576446 -0.14414945 1
0.91585511 3.2330999 -0.095215499 2
0.93394428 -1.6248121 1.8876467 27
0.87437314 -1.5740887 1.9214058 28
1.1322833 3.8226433 4.2350302 27.333334
1.4664377 -2.3104117 -0.070224606 3
1.5322725 -1.8605243 -0.13047031 2
1.235429 -1.4097559 -0.17303139 1
1.3801394 -0.086884208 -0.16059063 0
1.3622936 0.013296579 -0.15916574 0
1.3220186 1.0430441 -0.13967448 1
1.4119943 2.0541582 -0.11906241 2
1.5453902 2.9545546 -0.090473711 2
1.5116705 3.7766929 -0.077966191 2.5
1.404452 -1.7041347 1.9211552 25
1.5940083 4.5760803 4.2406569 25
1.4236923 4.2202005 4.6843257 27.333334
1.8632414 -2.5239558 -0.10988913 2
1.7211816 -1.9028112 -0.13680719 2
1.6368786 -1.3373076 -0.16797499 1
1.8287108 -0.97097069 -0.16348085 1
1.8658017 -0.61341429 -0.16071148 1
1.7259965 -0.18434088 -0.15346263 1
1.9140768 1.2795173 -0.1233658 2
1.706305 1.793445 -0.11899202 2
1.6187972 2.7667527 -0.093122028 2
1.8888152 3.65815 -0.070925832 3
2.0830545 -2.5505891 -0.020204002 3
2.0063162 -2.0217755 -0.15043657 2
2.3298693 0.37135518 -0.12505992 2
2.1957097 0.66457218 -0.12036498 2
2.1539667 3.7312343 -0.067160077 3
2.3278344 -2.5528026 0.0015770468 3
2.1471636 3.9352322 0.2947104 5
2.0784416 4.0269547 0.29752705 5
2.142935 3.8531499 0.56226343 6.6666665
2.3366895 -3.0534234 3.5629449 26
2.21331 -2.9089303 3.7870314 27.666666
2.6066537 -2.2557986 -0.13757312 2
2.7650418 -1.6402948 -0.16334409 2
2.7803178 -1.4810288 -0.15971409 2
2.7149198 -0.88093001 -0.14270297 2
2.6987085 -0.56521088 -0.13923851 2
2.6619461 -0.25755069 -0.13723199 2
2.6913857 3.5180733 -0.049836878 3
2.4057763 3.6819811 -0.039503183 3
2.4021401 -2.4029722 0.12102412 4
2.7806997 -1.8374985 0.027899928 4
2.7444665 3.5390127 0.22888339 4.5
2.4983087 3.667592 0.25041917 4.6666665
2.6304851 3.5445449 0.60139126 7
2.4837377 3.6465204 0.51560843 6.5
2.7186453 3.5067458 0.91661072 9
2.5822208 10.22687 1.722749 8
2.608427 10.255029 2.1630294 9
2.5663106 10.230848 2.6013272 10.5
2.5648398 10.219815 3.2677515 12
2.5562465 10.205935 3.6916401 13
3.1444147 -2.5692742 -0.10388891 3
2.9713924 -1.3090649 -0.1534459 2
3.0091765 2.5406706 -0.084102564 2
3.0141728 3.0115325 -0.068337977 3
3.1286063 3.2933102 0.29493698 5
3.0487328 3.3052568 0.55454677 7
3.0141354 3.3552783 0.93168449 9
3.3541346 3.1467938 0.29731399 5
3.292532 -2.6573982 0.60825396 8
3.387774 3.1094406 0.55172604 6.8000002
3.2191713 3.2220128 0.68388748 8
3.3525512 3.152164 0.88387972 8.5
3.4489861 -2.6531246 2.8257544 21
3.7709572 -3.4222689 -0.0061995951 3
3.7357688 -2.4769053 -0.11159397 3
3.6145957 -3.6050196 0.00019611913 3
3.7526035 2.9200482 0.30467692 5
3.9127736 2.7981939 0.70979995 8
3.8155103 2.8641491 0.58256835 6.9000001
3.756952 2.9146681 0.88532341 8.333333
3.9281285 -4.1667113 5.0030737 25
4.1488876 1.408277 -0.081867889 3
4.073596 2.2010145 -0.070918776 3
4.372098 3.6624012 -0.027603898 3
4.0427175 2.754673 0.31153384 5
4.2047987 2.6365943 0.62163532 7
4.1666045 2.6687193 0.9029569 8.25
4.172874 -3.054584 2.2941473 15.666667
4.4611988 -2.6703298 -0.12428454 3
4.6481218 0.60586113 -0.080373242 3
4.5741196 1.0573248 -0.086897075 3
4.5305171 -3.7115846 0.15655464 4
4.5570116 2.4571686 0.32457873 5
4.6431732 2.3647337 0.68643874 7.5
4.4951563 2.4524229 0.57999271 6.5
4.5101156 2.4777906 0.89671898 8
4.8595171 2.2765858 0.23202381 4.5
5.4678941 -2.939769 -0.14214458 3
5.2278242 0.29956219 -0.087221414 3
5.2075944 2.8436189 0.1052504 4
5.8638163 4.2337055 0.014765748 3
7.8067794 -3.6296148 -0.0011983023 3
8.2431631 -4.3681979 0.069595695 4
8.3457985 -1.0700563 0.10970797 4
8.3456144 -1.0202549 0.55950797 5.5
8.3964338 -3.5603893 1.0804923 7
8.3808718 -3.4864664 1.394179 7.6666665
8.4133253 -3.4763043 -0.15810235 3
8.5592937 -2.1354117 -0.099095665 3
8.4577332 -1.2374355 -0.12416079 3
8.4486637 -3.4013731 0.24929257 4
8.62603 -2.6265571 0.032348029 3
8.5014257 -3.3179762 0.52541018 5
8.4227409 -0.90306449 0.43627596 5
8.4646883 -3.3519151 1.075557 7
8.5360947 -3.2365048 1.2451802 7
8.4569759 -3.3275602 1.7206799 9
9.1282549 -3.2146986 -0.091302425 3
8.9061689 -2.591171 2.7277989 12
9.0161676 -2.3478281 2.7651925 12
8.9411497 -2.3728654 2.8929951 12
9.4421501 -1.6303278 2.8565786 12
9.5027704 -1.3908876 2.9033613 12.333333
9.5058832 -1.1328453 3.037549 12
9.9718361 0.50769269 0.16729762 4
9.6270504 -1.2382156 2.3430336 10
9.6667614 -1.3557674 2.6043861 11
9.7502537 -1.0916579 2.5080314 11
10.071712 -2.0154741 -0.12206589 3
10.643945 -4.7004523 1.8238637 8
10.606133 -4.7177811 2.21626 9
11.724056 -2.2025194 0.61844379 5
11.705273 -2.2089007 0.91839361 6
11.844825 -2.2243049 1.4004467 7
13.821175 4.9512634 0.46571186 4
13.857759 -4.6907744 2.3307283 8
13.922778 -4.6065373 2.5167291 8
14.037105 -4.6829028 1.9449068 7
14.189006 -4.3690548 1.9436949 7
14.004651 -4.5733552 2.0204589 7
14.125138 -4.3240004 2.1603868 7.5
20.256275 3.1799641 0.62190402 4
20.458786 1.9986404 0.2677485 4
21.339996 4.3860688 0.66881198 4
21.45109 5.4715877 0.68902737 4
22.65995 6.911262 0.46318758 4
25.094893 8.0163212 1.6350704 5
24.974451 8.0546932 2.6642892 6
24.918064 8.0079594 3.1598876 7
33.195732 -14.607841 17.233452 17
33.465488 -14.141904 15.987985 16
33.276173 -14.579529 16.687643 16
33.50703 -12.90781 22.753466 20
34.658295 -11.934375 16.168432 16
34.520473 -11.588755 16.86418 16
34.656055 -12.018277 17.717005 17
35.150822 -11.218195 16.288704 16
34.853535 -11.749422 17.344601 17
35.066597 -11.314547 17.85314 17
35.205429 -11.077531 16.212517 16
35.378647 -3.9341002 17.552277 17
35.287434 -4.1762757 17.680683 17
35.789562 -3.3275185 17.801001 17
36.284081 -2.4592972 14.652453 15
36.11404 -2.8328907 15.103907 15
36.074146 -2.896529 17.102501 17
36.335613 -2.454222 17.863605 17
36.573444 -1.9581012 9.734868 11
36.634499 -1.8631634 10.267554 11
36.595322 -1.9155535 10.619184 12
36.731613 -2.0128014 15.340801 15
36.592857 -2.1189871 17.352015 17
36.904945 -1.4907718 9.4522343 11
37.006073 -1.1104492 9.8188248 11
37.028061 -1.0959468 10.700963 12
36.988525 -1.3605086 11.214207 12
37.144264 -0.78343916 12.137166 13
36.911564 -1.6150367 14.873549 15
37.240433 -0.60941267 9.5323553 11
37.208252 -0.54572314 11.29778 12
41.437454 0.35550997 19.715488 17
41.347847 -0.097477905 20.111376 17
41.303299 0.79904103 20.040337 17
41.652554 1.2776381 19.858944 17
42.003197 1.1961746 16.876692 15
