# .PCD v0.7 - Point Cloud Data file format
VERSION 0.7
FIELDS x y z intensity
SIZE 4 4 4 4
TYPE F F F F
COUNT 1 1 1 1
WIDTH 225
HEIGHT 1
VIEWPOINT 0 0 0 1 0 0 0
POINTS 225
DATA ascii
-5.3964305 -2.3173904 2.3526049 15
-4.526957 -0.76570767 0.31850448 5.5
-4.5521064 -0.77600944 0.67649901 8
-3.1397116 -2.0908725 2.5212679 21
-3.1160128 -1.9320638 2.5592241 22
-3.0375533 0.45004386 2.5867813 24
-2.777302 -0.66513312 0.1294989 4.5
-2.6999044 -0.67127931 0.30402273 6.5
-2.4012508 -0.31673813 2.5390494 28
-2.4057281 0.37245512 2.5789793 28
-2.436178 0.5433237 2.5359607 27
-2.2666502 -0.65227395 2.3681457 26.5
-2.333539 -0.39487422 2.3990808 27
-2.2093534 -0.085526854 2.5500762 29
-2.2299833 0.59672439 2.5560236 28
-2.1722679 0.6028586 -0.12295804 2
-2.1933579 0.59198064 0.093035564 4
-2.1783056 0.6019097 0.0080400687 3
-2.1071622 -0.74910259 2.3802123 28
-2.1762078 -0.54313731 2.3801513 28
-2.0236213 0.68603462 2.3560884 28
-2.1112342 -1.1766118 2.5418189 27.5
-2.0544922 -0.36865756 2.4021575 29
-1.873046 -0.6315853 0.36025593 9
-1.8151524 0.6600132 0.3421573 9
-1.8306862 -0.40023965 2.3692262 30
-1.9606699 0.66489452 2.361109 29
-1.8246617 1.0231975 2.355154 29
-1.9300511 -1.5098647 2.5434835 27
-1.8159772 0.55664712 2.4171584 31
-1.8174787 0.72648871 2.4731565 30
-1.7911011 0.66691905 0.23316526 7
-1.7891675 0.66347635 0.46866596 10.5
-1.7876053 0.871795 0.46216631 10
-1.7794583 0.64221036 1.4191693 23
-1.7393378 -1.1407768 2.3734262 29
-1.6236749 -0.79142076 2.3433647 31
-1.6495583 1.0517555 2.421217 30
-1.4627973 0.73903513 0.17527859 6
-1.4342743 0.94132406 0.133793 5.5
-1.4548008 0.74102646 0.22628146 7
-1.438803 0.76554537 0.55028766 13.5
-1.4293904 0.9208988 0.47129437 11.5
-1.4588772 0.77117479 0.91828078 19
-1.5091671 -1.3307555 2.550566 30.5
-1.3867326 0.73981345 0.0088057583 3.5
-1.3586383 0.85789609 1.0263188 20
-1.243011 0.72929603 1.4068577 26.5
-1.0642273 -0.48466599 -0.050542705 2
-1.1355085 0.77618015 -0.13660026 0
-1.0074589 -0.47494566 0.1164711 6
-1.0865014 0.78610861 0.058918927 4.5
-1.0713363 0.86106497 0.17542776 7
-1.0877318 0.77432358 1.0364177 23
-1.0946418 0.83386558 1.3219179 26.5
-1.0778744 0.74790013 1.4209208 28.5
-0.86386853 -0.46878615 -0.057990897 1
-0.8377558 0.81955016 -0.10448038 0.5
-0.97879905 -0.47539231 0.042479072 4
-0.86353225 0.74470872 0.33250535 12
-0.98734969 0.90903634 1.0404626 23
-0.99458867 0.83815569 1.3974571 28
-0.88363516 0.79294688 1.4364996 30
-0.8625738 0.80888867 1.4005089 29
-0.61193472 0.67468363 -0.026892144 2.5
-0.6636644 -0.45285267 0.13855925 8.5
-0.61666113 0.6744135 0.094805755 6.4000001
-0.61000079 -0.40248615 0.27856234 14.5
-0.61347699 0.68374997 0.33710778 14
-0.61800396 0.69029653 0.56010622 19.5
-0.62085867 0.69098896 0.6779384 22.333334
-0.49029624 0.67398536 -0.078337222 0
-0.50739086 -0.4313783 0.16859443 11
-0.51408708 -0.38986123 0.1575834 11
-0.56687587 0.69264001 0.15712908 8.5
-0.49532878 -0.43370423 0.29576465 16.166666
-0.57842743 0.6851809 0.28312346 12.5
-0.57512039 0.68386954 0.44062483 17
-0.46830568 0.70942193 0.70134199 24
-0.29796883 -0.42378742 -0.035356283 1
-0.24927695 0.6887399 -0.049556177 1
-0.2124757 1.0317525 -0.075213112 1
-0.25176376 -0.42138985 0.19265421 14.5
-0.21087916 0.70348781 0.10229532 7.5
-0.39729294 -0.42920458 0.36462113 20.5
-0.2486047 0.69015539 0.28565246 14.5
-0.29069111 -0.4167653 0.46814317 25.833334
-0.27955398 0.68832654 0.47401273 20.5
-0.22904159 1.0378246 0.54778016 17.5
-0.26824361 0.69804347 0.67356825 25.6
-0.22278951 1.9508568 0.65573651 13
-0.3086392 3.7029946 1.5136021 15
-0.34962708 3.704042 1.7235907 16.5
-0.35065013 3.6990631 1.9805908 18
-0.23883429 2.0529935 2.1187253 27
-0.26675236 3.6490173 2.1596172 19
-0.19584425 0.7037189 -0.002197647 3
-0.067259885 1.9632252 -0.072216481 2.5
-0.19318348 0.70306045 0.084803604 6.3333335
-0.077765539 1.9700751 0.10444669 5
-0.16273428 -0.41477713 0.28467396 20.25
-0.077115171 1.9670894 0.30211377 8
-0.074466623 1.963771 0.51878154 11
-0.07481049 1.9607799 0.63978171 13
-0.049901128 1.9898775 2.122787 28
0.13666184 -0.40461108 0.30501878 21.75
0.11809373 -0.37247759 0.33573902 24.5
0.16710176 2.0428007 2.1168432 27
0.19350906 2.84778 2.1187918 22
0.32671294 -0.38370109 -0.020149486 2
0.34989432 -0.37145916 0.13210541 10.75
0.26876554 -0.40310487 0.21283169 16
0.29914221 -0.36221606 0.25253463 17.857143
0.36192533 -0.30825633 0.46531686 26.5
0.39225793 4.4616885 1.9507244 16
0.4516086 0.7496224 -0.048982516 1.5
0.44304931 0.82205999 -0.023990888 2
0.51521242 0.7147336 0.18103051 9.5
0.43204096 0.81884795 0.094607383 6.1999998
0.52363884 -0.28381166 0.34240079 18.75
0.48944551 0.74417388 0.26845229 12
0.45205751 0.82706577 0.33151028 13.5
0.46750259 -0.29890525 0.42287537 23
0.47089878 0.73664868 0.51927191 19.5
0.44354576 0.83305132 0.43800822 16.5
0.45892274 0.75411797 0.70121831 23.6
0.56635988 4.8375969 1.1617357 10
0.47620592 4.4716587 1.7937423 15
0.52950209 1.8498319 2.130441 28.5
0.53830343 2.7432387 2.1178775 22.5
0.66167903 -0.25770211 -0.017991396 2
0.68326569 0.80390668 -0.087458991 0.5
0.62874568 -0.25478712 0.15901658 10
0.6162346 0.79031307 0.1470363 8
0.74731839 0.81447411 0.29504544 11
0.71831185 0.80709857 0.47137734 15.666667
0.75493562 0.73854464 0.71054935 21.5
0.74901271 0.80513561 0.68171275 20
0.79485244 4.1625867 0.61882824 8
0.75548649 0.7060678 0.89805084 25
0.74247313 0.71353221 1.05655 27.5
0.64717591 4.6215944 1.2147676 11
0.60810602 4.472631 1.7307699 14
0.92643267 -0.18051323 -0.029694417 2
0.96955746 0.7179535 -0.12294767 0
0.93072605 -0.20573133 0.08646585 5.75
0.91319633 -0.1945356 0.13097169 7
0.95163578 3.9196076 0.16087326 4
0.84346896 -0.23857696 0.29097518 13
0.91115028 3.8956079 0.29986772 5.5
0.97862285 0.70394486 0.44005215 14
0.90963995 3.8886168 0.54486805 7
0.84755242 0.70272535 0.6720531 20
0.9896962 0.68494737 0.94905174 23
0.99822009 0.68145186 1.1205515 26
0.99890178 4.6535864 1.3998322 12
0.97590971 4.6485953 1.6198285 13
1.0441756 0.67112947 -0.021450369 2.5
1.0372909 0.66591424 0.11564977 6
1.02645 0.66558212 0.3000502 10.5
1.0380508 0.66841412 0.49638295 14.666667
1.0567496 0.66277188 0.65304887 18
1.0842744 0.66762441 0.86154777 21.5
1.0162334 0.67848623 1.0825508 25
1.0029198 4.6855788 1.231831 11
1.1995975 4.3696613 2.1248848 16
1.3005903 4.4516406 0.90389556 9
1.3060929 4.4786425 1.1078948 10.5
1.3155755 4.466651 1.3128968 12
1.258618 4.4766426 1.4928876 13
1.2396204 4.4656467 1.7398852 14
1.2885797 4.4606595 1.8378935 15
1.2324289 4.0207105 2.1459122 17
1.5480928 -0.54051131 2.1327591 30.5
1.5094743 0.73456991 2.1465211 30.5
1.5628141 0.84053147 2.020025 29
1.7366834 0.85294831 0.27501127 7
1.7529092 -0.22466715 2.1248155 29.5
1.7418561 0.85178262 2.0370102 28
1.7303524 -0.19975647 2.226826 31
1.9767855 0.85825235 0.8459878 14
1.9021266 -0.14057073 2.1128128 28
1.8941854 0.20788731 2.1618955 29
2.0845084 0.65830827 -0.074551314 2.5
2.0481994 0.86195481 -0.062519521 2.5
2.1089871 0.68678325 0.097949855 4.5
2.088213 0.86948866 0.100977 4.5
2.1098871 0.76332074 0.26129401 7
2.1292515 0.76398748 0.51262516 10
2.0737519 0.86842608 0.48497847 10
2.115869 0.8085494 0.70046616 12.5
2.1169195 0.78556633 0.84496289 14
2.0717974 0.86937374 0.92897898 15
2.1570456 0.73465747 1.1949512 18
2.1298435 0.85745889 1.1044708 16.5
2.1320386 0.74160087 1.2699552 19
2.1341481 0.70161372 1.6499491 22
2.1792014 0.69764906 1.9699428 25
2.1309323 -0.077325895 2.113791 26.5
2.0287647 0.397818 2.1319127 27
2.0741143 0.74740469 2.1309628 26
2.3683534 -0.29847348 1.1686907 17
2.3383794 -0.29754403 1.3016958 18
2.9104202 0.13452943 2.1097183 22
2.8880312 0.31723309 2.112766 22
3.1945353 0.75781679 0.34131408 6.5
3.2140324 0.77878803 0.55531543 8.5
3.2030578 0.77625138 0.73381668 10
3.2191389 0.7422964 0.93980753 12
3.2391884 0.72532839 1.1058012 13
3.210192 0.73624492 1.2848079 14
3.3123274 0.1850585 2.1116669 20
3.8897874 -0.19715601 -0.061531965 3
3.8453083 -0.40895233 0.18641177 5
3.8563297 -0.40796247 0.32241029 6
3.8608882 -0.41897389 0.50840616 7.5
3.8604798 -0.4409835 0.72939956 9
3.8970053 -0.23522846 0.72745574 9
3.8584285 -0.41204637 0.82640874 10
3.9083095 -0.35009062 0.9834196 11
3.8775239 -0.42905146 1.1414003 12
3.8626018 -0.447083 1.3313973 13
3.9020717 -0.22333437 1.2724587 13
4.3344145 0.58824521 0.63160521 8
4.2637043 -0.024149878 1.6714568 14
