# .PCD v0.7 - Point Cloud Data file format
VERSION 0.7
FIELDS x y z intensity
SIZE 4 4 4 4
TYPE F F F F
COUNT 1 1 1 1
WIDTH 476
HEIGHT 1
VIEWPOINT 0 0 0 1 0 0 0
POINTS 476
DATA ascii
-8.1420002 -0.244 -0.20999999 0
2.227 -0.066 -0.207 0
2.3165717 -0.068698563 -0.20824549 0
2.4509292 -0.072746411 -0.21011373 0
2.5852864 -0.076794259 -0.21198197 0
2.6748581 -0.07949283 -0.21322747 0
2.7644296 -0.082191393 -0.21447295 0
2.8540013 -0.084889963 -0.21571845 0
2.943573 -0.087588526 -0.21696393 0
3.0615721 -0.091143548 -0.21860471 0
2.2149999 0.041000001 -0.207 0
2.3477778 0.043235898 -0.20803195 0
2.4805558 0.045471799 -0.2090639 0
2.5690744 0.046962395 -0.20975187 0
2.657593 0.048452996 -0.21043985 0
2.7461119 0.049943592 -0.21112782 0
2.8346305 0.051434193 -0.21181577 0
2.9550745 0.053462394 -0.21275187 0
2.1715002 0.1705 -0.20449999 0
2.261539 0.15329821 -0.20518039 0
2.3430781 0.16159645 -0.20536079 0
2.4246171 0.16989467 -0.20554119 0
2.5469255 0.18234199 -0.20581178 0
2.632 0.191 -0.206 0
2.2493043 0.20333652 -0.20119877 0
2.322 0.292 -0.204 0
2.286 0.34299999 -0.20200001 0
2.2435 0.472 -0.2015 0
-2.6489999 -0.926 -0.149 0
-2.5894811 -0.90556675 -0.15246803 0
-2.851171 -0.82745677 -0.16500238 0
-2.7792675 -0.85559529 -0.162394 0
-2.6467674 -0.8356632 -0.16138892 0
-2.5359683 -0.88709664 -0.14745001 0
-2.4526963 -0.85841 -0.14416602 0
-2.3501723 -0.82294941 -0.12844364 0
-2.8099999 -0.74199998 -0.162 0
-2.7535377 -0.72619784 -0.16230388 0
-2.6725528 -0.73902208 -0.16399971 0
-2.5405588 -0.75656384 -0.1641649 0
-2.4291096 -0.73253518 -0.1637418 0
-2.3505425 -0.73642039 -0.16214076 0
-2.2632709 -0.75036836 -0.16699237 0
-2.1784232 -0.76444763 -0.17641944 0
-2.0414038 -0.71740794 -0.18440324 0
-1.9986382 -0.70257521 -0.18620279 0
-2.9330001 -0.653 -0.16 0
-2.8502061 -0.64285511 -0.15975285 0
-2.7536542 -0.63293004 -0.15958689 0
-2.6723731 -0.62419736 -0.15966082 0
-2.5712454 -0.64545751 -0.14284448 0
-2.4525287 -0.63433021 -0.14703636 0
-2.3275247 -0.63953507 -0.16516009 0
-2.2525206 -0.64964741 -0.16577883 0
-2.1742659 -0.652017 -0.1642299 0
-2.032038 -0.62974608 -0.16295405 0
-1.9267286 -0.67718142 -0.1871521 0
-1.8321825 -0.61834878 -0.17138493 0
-1.7454036 -0.62203711 -0.16803792 0
-3.0739999 -0.52999997 -0.17 0
-2.9519098 -0.52041447 -0.17145437 0
-2.8291311 -0.50735605 -0.16548444 0
-2.7349868 -0.58222318 -0.1593049 0
-2.6504421 -0.57629353 -0.16123998 0
-2.5529575 -0.57503003 -0.16166604 0
-2.4465265 -0.55141968 -0.1627073 0
-2.3361311 -0.55040479 -0.15296534 0
-2.2484725 -0.55082721 -0.15575963 0
-2.1534147 -0.53888178 -0.15341154 0
-2.0600963 -0.56663573 -0.16362758 0
-1.9399279 -0.54812902 -0.16749072 0
-1.8232727 -0.54560834 -0.16825037 0
-1.7511623 -0.54922384 -0.16940266 0
-1.6573868 -0.54705584 -0.16747452 0
-1.5532186 -0.51427758 -0.16931602 0
-3.2279999 -0.42300001 -0.198 0
-3.1556442 -0.41525713 -0.18918914 0
-3.0832882 -0.40751424 -0.18037827 0
-2.947 -0.435 -0.164 0
-2.8525925 -0.44530943 -0.17155088 0
-2.7522922 -0.45353013 -0.16883007 0
-2.6687632 -0.45395431 -0.17408115 0
-2.5824289 -0.43398353 -0.16463508 0
-2.4537129 -0.43053561 -0.16414845 0
-2.3650966 -0.49813682 -0.16467212 0
-2.2544005 -0.48696125 -0.1651447 0
-2.1446342 -0.46674106 -0.16634622 0
-2.0503249 -0.46002215 -0.16693152 0
-1.9548249 -0.45992377 -0.1644337 0
-1.8553712 -0.46612158 -0.16800939 0
-1.7450364 -0.45918322 -0.16889255 0
-1.6482819 -0.45394558 -0.17174485 0
-1.5478153 -0.45902982 -0.16860461 0
-1.4410167 -0.45516241 -0.17064945 0
-1.372 -0.419 -0.17399999 0
-3.0109324 -0.39977136 -0.17156741 0
-2.957 -0.39399999 -0.16500001 0
-2.8310001 -0.38999999 -0.164 0
-2.7656763 -0.37876886 -0.16491683 0
-2.6551807 -0.37206617 -0.16692461 0
-2.5441444 -0.37457159 -0.16764283 0
-2.4909999 -0.375 -0.17 0
-1.929 -0.39899999 -0.171 0
-1.432 -0.39899999 -0.17 0
-8.0593567 -0.2425213 -0.19767745 0
-7.9767137 -0.24104258 -0.18535492 0
-7.8527489 -0.23882453 -0.1668711 0
-7.7287841 -0.23660648 -0.14838728 0
-7.6425705 -0.23506388 -0.13553238 0
2.102 0.294 -0.199 0
2.3356087 0.21067306 -0.19839755 0
2.4219129 0.21800959 -0.19559634 0
2.5513694 0.2290144 -0.19139451 0
2.6808257 0.24001919 -0.18719266 0
2.7671301 0.24735571 -0.18439144 0
2.8099999 0.25099999 -0.183 0
1.114 0.39199999 -0.122 0
2.182018 0.30364072 -0.19456527 0
2.2620358 0.31328145 -0.19013053 0
2.3571019 0.3394255 -0.19192779 0
2.4455531 0.3295989 -0.19261751 0
2.5358448 0.3482413 -0.18354876 0
2.6481934 0.36534107 -0.18657914 0
2.7517345 0.34695834 -0.1821491 0
2.8376813 0.35795 -0.17777891 0
2.947314 0.37197083 -0.17220438 0
1.0875 0.47899997 -0.1225 0
1.1490967 0.43611532 -0.12124537 0
1.2676935 0.46472031 -0.12941831 0
1.3708408 0.48152581 -0.14165202 0
2.3480186 0.46456161 -0.19917701 0
2.437037 0.48112318 -0.19635402 0
2.5260556 0.49768478 -0.19353102 0
2.716749 0.40764433 -0.18279871 0
2.8459737 0.42703766 -0.17703834 0
2.9590001 0.44400001 -0.17200001 0
1.0745 0.55412501 -0.12250001 0
1.1607355 0.5426228 -0.12136931 0
1.2544024 0.56362081 -0.12404335 0
1.3548329 0.55729806 -0.1317503 0
1.4567813 0.53375906 -0.14606671 0
1.5418099 0.56503218 -0.15283337 0
1.6276817 0.57105166 -0.16130403 0
2.184 0.54100001 -0.199 0
2.2765167 0.55964059 -0.1964083 0
2.3480206 0.55892271 -0.19449027 0
2.4426005 0.56171227 -0.18851452 0
2.5428722 0.57736564 -0.1803091 0
2.6427128 0.55132115 -0.18867297 0
2.7486019 0.53908873 -0.18647352 0
2.8821297 0.56393111 -0.18223903 0
2.971148 0.58049268 -0.17941603 0
3.0601666 0.59705424 -0.17659304 0
-1.5511322 0.66521823 -0.15130401 0
-1.464 0.62400001 -0.168 0
0.97799999 0.68800002 -0.122 0
1.048 0.63566667 -0.12533332 0
1.1411415 0.64453226 -0.12252571 0
1.2460912 0.64592034 -0.12090039 0
1.3514799 0.6558665 -0.12256933 0
1.4449946 0.65944934 -0.12782337 0
1.5451592 0.66919953 -0.12820566 0
1.6212293 0.63605982 -0.14808996 0
1.7446938 0.63766968 -0.16978297 0
1.8436712 0.66575933 -0.17527071 0
1.9701364 0.69041944 -0.18750671 0
2.1689999 0.63800001 -0.192 0
2.2554679 0.66289079 -0.18990079 0
2.365968 0.6528908 -0.18140078 0
2.4618239 0.62428981 -0.1807823 0
2.5568824 0.6291014 -0.1782105 0
2.6433744 0.650491 -0.17539783 0
2.7365251 0.64636326 -0.17466173 0
2.8237476 0.66668862 -0.17110224 0
2.9344707 0.66386044 -0.16483392 0
3.0242329 0.66231275 -0.17514828 0
3.1379626 0.66113597 -0.17234863 0
3.2049999 0.62400001 -0.17200001 0
-1.631 0.70300001 -0.13600001 0
-0.99599999 0.79299998 -0.124 0
0.85917032 0.76162612 -0.10183994 0
0.98199999 0.70300001 -0.108 0
1.0332699 0.73149091 -0.11843479 0
1.1593239 0.73066366 -0.12439714 0
1.2601707 0.74458724 -0.1221211 0
1.3354044 0.75293207 -0.1164994 0
1.4545461 0.75754887 -0.11690428 0
1.556149 0.74773437 -0.12942457 0
1.6624088 0.74867296 -0.1316517 0
1.7542199 0.77049643 -0.14055859 0
1.8733439 0.73642302 -0.16396827 0
1.9653614 0.73688674 -0.18624675 0
2.0466669 0.75066668 -0.193 0
2.4284039 0.71267235 -0.18570234 0
2.5148718 0.73756313 -0.18360311 0
2.6445737 0.7748993 -0.18045428 0
2.7321894 0.70894426 -0.17545931 0
2.8642263 0.71733838 -0.1720258 0
2.9604039 0.74872786 -0.17113069 0
3.0574958 0.75098819 -0.16344604 0
3.1343014 0.74750549 -0.14628762 0
3.4349999 0.72799999 -0.18799999 0
3.5211596 0.74529976 -0.17601451 0
3.6503992 0.77124947 -0.15803631 0
3.779639 0.79719913 -0.14005809 0
-1.0742803 0.84439611 -0.11846503 0
0.85098195 0.82847273 -0.11220254 0
0.93779254 0.82790655 -0.11920999 0
1.1917089 0.83188325 -0.12707824 0
1.2629453 0.87984437 -0.12877098 0
1.3577045 0.82682925 -0.12211143 0
1.4632139 0.84578657 -0.11022263 0
1.5674552 0.81849605 -0.12273705 0
1.6489559 0.83437908 -0.12095501 0
1.7221302 0.8173092 -0.12139705 0
1.823325 0.83657086 -0.13561638 0
1.9452572 0.84284401 -0.13574791 0
2.7742755 0.81223547 -0.17730545 0
2.8607435 0.83712626 -0.17520623 0
2.9472115 0.86201704 -0.173107 0
3.0338397 0.88695395 -0.17100389 0
3.135 0.81599998 -0.176 0
3.8657987 0.81449896 -0.12807262 0
3.9519584 0.83179873 -0.11608714 0
4.0381184 0.84909856 -0.10410166 0
0.63300002 0.91100001 -0.101 0
0.70499998 0.91600001 -0.107 0
1.3387306 0.92952693 -0.12056476 0
1.4365758 0.9645409 -0.12549694 0
1.5681438 0.98493743 -0.1131292 0
1.7493908 0.9331218 -0.11958866 0
1.8237932 0.97184139 -0.13219149 0
1.4808849 1.0265759 -0.13394974 0
1.6430105 1.0319307 -0.11656514 0
1.7179183 1.0789492 -0.12000072 0
1.8981954 1.010561 -0.14479433 0
1.9725977 1.0492805 -0.15739717 0
2.0469999 1.0880001 -0.17 0
0.46053278 1.1465398 -0.11037035 0
-0.26623309 1.2496072 -0.10476568 0
0.50581312 1.2524159 -0.12934814 0
-0.30232364 1.3676381 -0.12614281 0
-0.26430541 1.3406568 -0.1126643 0
0.53600001 1.323 -0.142 0
-0.32016182 1.4483191 -0.1390714 0
-0.23627938 1.4344893 -0.11107685 0
0.514 1.4529999 -0.147 0
-0.3262611 1.5624313 -0.15013286 0
-0.26310915 1.5246938 -0.12877893 0
0.3475 1.5713334 -0.15800001 0
0.43485445 1.5526433 -0.15867008 0
0.5372448 1.563305 -0.15331328 0
-0.33126107 1.6809313 -0.16013287 0
-0.24589692 1.6583711 -0.14134955 0
-0.18700001 1.671 -0.15899999 0
0.183 1.6684999 -0.15650001 0
0.25877434 1.6658614 -0.15764543 0
0.35980186 1.6388301 -0.15882738 0
0.42544964 1.6639721 -0.15832891 0
0.56529939 1.6675762 -0.15749957 0
-0.34799999 1.766 -0.17200001 0
-0.26335877 1.7781484 -0.16153982 0
-0.1501735 1.7603332 -0.16080391 0
0.044 1.728 -0.154 0
0.14994697 1.7570047 -0.15738556 0
0.24592161 1.7380971 -0.15697655 0
0.35831583 1.7380413 -0.15765786 0
0.4461337 1.7470648 -0.15698679 0
-0.23864339 1.8692595 -0.16744961 0
-0.1615956 1.8248396 -0.16079974 0
-0.024 1.835 -0.156 0
0.054807741 1.8425585 -0.15917975 0
0.15238081 1.8405559 -0.15684482 0
0.25228029 1.8487254 -0.1556257 0
0.35962 1.8484151 -0.16197768 0
0.45084754 1.8569751 -0.15961802 0
-0.204 1.904 -0.16 0
-0.022939654 1.9243872 -0.15525776 0
0.057868127 1.9324802 -0.15809451 0
0.15215202 1.939491 -0.15524539 0
0.26517272 1.9447412 -0.15385424 0
0.3834883 1.9581398 -0.15692963 0
0.45251366 1.9530282 -0.1550484 0
-0.021879308 2.0137744 -0.15451552 0
0.061119601 2.0394771 -0.15579619 0
0.14166228 2.0483031 -0.15452121 0
0.24379626 2.0635509 -0.15396743 0
0.35119328 2.0619025 -0.15634148 0
0.42703506 2.0535598 -0.15423463 0
0.50139475 2.0596645 -0.15327105 0
-0.020288788 2.1478553 -0.15340215 0
0.065463305 2.1425483 -0.15577039 0
0.15514669 2.1478398 -0.15359962 0
0.26635846 2.1736186 -0.15250744 0
0.32326394 2.155581 -0.15028888 0
0.44434738 2.1565802 -0.1552967 0
0.52252632 2.1475527 -0.15269473 0
-0.01869827 2.2819359 -0.15228879 0
0.075277284 2.2491031 -0.15543912 0
0.16185096 2.2374041 -0.15304428 0
0.26047826 2.2647941 -0.15081316 0
0.32344151 2.2519276 -0.15142682 0
0.45492813 2.2608736 -0.15450214 0
0.5436579 2.235441 -0.15211843 0
-0.017637923 2.3713231 -0.15154655 0
0.065940447 2.3629251 -0.15258214 0
0.16855524 2.3269684 -0.15248898 0
0.24993795 2.3671434 -0.15054195 0
0.33593869 2.3416057 -0.15071908 0
0.44794333 2.3385401 -0.15403889 0
0.54168725 2.3470051 -0.15201935 0
-0.016577577 2.4607103 -0.15080431 0
0.062869012 2.4689105 -0.1505837 0
0.15170045 2.4481583 -0.15203635 0
0.23522989 2.4631462 -0.1506944 0
0.33509675 2.4350736 -0.14922105 0
0.46340495 2.42747 -0.15294814 0
0.56163514 2.4345894 -0.15135592 0
0.60705268 2.4991055 -0.15038948 0
-0.015517231 2.5500975 -0.15006207 0
0.065605782 2.5589924 -0.1499857 0
0.14027132 2.5649724 -0.15154845 0
0.22494794 2.5498531 -0.15006536 0
0.34723726 2.5246363 -0.14848423 0
0.47967824 2.5425208 -0.15177406 0
0.55611336 2.5452418 -0.15099546 0
0.62818426 2.5869937 -0.14981316 0
-0.014228443 2.6587424 -0.14915991 0
0.068342552 2.6490741 -0.14938772 0
0.14497192 2.6546774 -0.150492 0
0.2390091 2.6309288 -0.14929095 0
0.35253337 2.6173992 -0.14731057 0
0.44854468 2.6791162 -0.14796664 0
0.55362588 2.6321738 -0.15008165 0
0.64931583 2.6748817 -0.14923684 0
0.070939101 2.7401247 -0.14444588 0
0.149 2.7303333 -0.14966667 0
0.24379292 2.766326 -0.14909601 0
0.37364495 2.7515759 -0.14960405 0
0.51087707 2.7737029 -0.14825919 0
0.65799999 2.711 -0.149 0
0.73400003 2.743 -0.148 0
0.073134601 2.8857484 -0.12167534 0
0.384 2.832 -0.149 0
0.52200001 2.8410001 -0.147 0
0.759242 2.8299344 -0.13988978 0
0.85299999 2.826 -0.15899999 0
0.074451901 2.9731226 -0.10801301 0
0.78448391 2.9168687 -0.13177954 0
0.85138035 2.9164858 -0.14595628 0
0.9005214 2.9919438 -0.13282509 0
0.145 3.039 -0.148 0
0.84322828 3.0473688 -0.12347414 0
0.92428213 3.0749159 -0.11973764 0
0.15166751 3.1203778 -0.1336392 0
0.86020976 3.1776719 -0.10744885 0
0.92513102 3.1644111 -0.10765916 0
0.16166878 3.2424445 -0.11209802 0
-2.8050001 -0.708 -0.082000002 0
-2.2273362 -0.7802521 -0.092208579 0
-2.1430035 -0.75110251 -0.080850303 0
-2.0586708 -0.72195292 -0.069492012 0
-2.7245526 -0.6877622 -0.089305766 0
-2.6367974 -0.66568601 -0.09727519 0
-1.9743381 -0.69280338 -0.058133729 0
-1.8500026 -0.64982688 -0.041387722 0
-0.53797293 -0.45328185 -0.063552849 0
0.49200001 -0.28999999 -0.014 0
0.51100534 -0.29905015 -0.011284954 0
0.96700001 -0.127 -0.028000001 0
1.052713 -0.1384284 -0.025460355 0
1.102 -0.145 -0.024 0
-0.63950002 0.67699999 -0.035500001 0
-0.50436378 0.69016409 -0.02021827 0
-0.236 0.68199998 -0.045000002 0
-0.19599999 0.69700003 -0.056000002 0
0.99298882 0.6886847 -0.052165139 0
1.0880001 0.67900002 -0.056000002 0
2.4679999 0.67500001 -0.003 0
-1.022 0.79100001 -0.044 0
-0.72539151 0.77073061 -0.034484826 0
-0.67838573 0.71976209 -0.034517303 0
-0.509 0.70499998 -0.023 0
-0.21929713 0.74722099 -0.041614827 0
-0.19071291 0.72742605 -0.04317382 0
0.52735358 0.75169188 -0.075846083 0
0.62099999 0.79799998 -0.082999997 0
0.7579549 0.72418177 -0.087006353 0
0.80675542 0.71743917 -0.090259925 0
1.063838 0.73774529 -0.06399738 0
1.1522065 0.74580145 -0.067529947 0
1.2727686 0.79631341 -0.074770138 0
-1.1251249 0.86281919 -0.027426355 0
-1.0691248 0.82381916 -0.036426354 0
-0.95169497 0.84165335 -0.037455801 0
-0.86084014 0.85870361 -0.030310456 0
-0.77196997 0.82119834 -0.034512445 0
-0.22830343 0.85335696 -0.043032169 0
0.59481215 0.85341513 -0.091907658 0
0.65395057 0.84428775 -0.092414454 0
1.2384889 0.85868478 -0.093165144 0
1.3469739 0.84342784 -0.082308449 0
1.4211791 0.89054227 -0.08984676 0
1.557 0.833 -0.086999997 0
1.6005864 0.85568273 -0.094382986 0
4.1606388 0.87369919 -0.087058097 0
-0.97855252 0.94979316 -0.03088787 0
-0.25042081 0.95017791 -0.04440232 0
1.4953843 0.9376567 -0.097385064 0
-0.23121193 1.053673 -0.080098264 0
0.39199999 1.061 -0.088 0
0.40541747 1.0345546 -0.079130851 0
-0.23054871 1.1601107 -0.082183942 0
0.42711759 1.1354293 -0.076958679 0
-0.234 1.244 -0.064999998 0
0.46171546 1.2429323 -0.085334279 0
0.49686494 1.330308 -0.089428186 0
0.51300001 1.4069999 -0.082000002 0
0.075769201 3.0604968 -0.094350688 0
0.077086501 3.147871 -0.080688357 0
0.078403801 3.2352452 -0.067026034 0
0.88545173 3.2646062 -0.099338621 0
0.94971454 3.2470531 -0.094893448 0
0.079721101 3.3226192 -0.053363707 0
0.17167005 3.3645115 -0.090556823 0
0.95309663 3.3369768 -0.085161291 0
0.081519201 3.4392467 -0.035100691 0
0.17833756 3.4458892 -0.07619603 0
0.95718706 3.4281723 -0.077227212 0
1.0296625 3.4429018 -0.061693911 0
0.184 3.5150001 -0.064000003 0
0.96117759 3.5254095 -0.07500793 0
1.0129224 3.5295906 -0.05444615 0
0.98641956 3.6123438 -0.066897698 0
1.011 3.697 -0.059 0
-1.808 -0.76499999 0.011 0
-1.7276776 -0.73075598 0.015028707 0
-1.6473553 -0.69651198 0.019057414 0
-1.5670329 -0.66226798 0.023086119 0
-1.4867105 -0.62802398 0.027114827 0
-1.4063883 -0.59377998 0.031143533 0
-1.326066 -0.55953598 0.035172239 0
-1.2457436 -0.52529198 0.039200947 0
-1.17 -0.493 0.043000001 0
0.78323448 -0.12021604 0.019895066 0
0.85031271 -0.13195471 0.014193421 0
0.9490782 -0.14923868 0.0057983557 0
-8.0679998 -0.023 0.0020000001 0
-7.9800406 -0.018618075 0.016855791 0
-7.8481021 -0.012045189 0.039139479 0
-7.7161636 -0.0054723024 0.061423168 0
-7.6282043 -0.0010903776 0.076278962 0
-7.5402451 0.0032915473 0.091134749 0
2.5515099 0.69852567 0.0096865948 0
2.6350195 0.72205126 0.022373188 0
2.7185295 0.74557686 0.035059787 0
2.8437941 0.78086531 0.05408968 0
2.969059 0.81615376 0.073119573 0
3.0525687 0.83967942 0.085806176 0
3.1360786 0.86320502 0.098492771 0
-0.96917248 0.96710461 0.006951137 0
-1.058838 1.0502837 0.019160908 0
-0.20999999 1.04 4.0547633e-14 0
-0.22744298 1.1283778 0.0063957605 0
-0.24488595 1.2167555 0.012791521 0
-0.27105045 1.3493222 0.022385161 0
-0.29721493 1.4818889 0.031978805 0
-0.3146579 1.5702667 0.038374562 0
-0.33210087 1.6586444 0.044770323 0
-0.34954387 1.7470223 0.051166084 0
-0.36698684 1.8354001 0.057561845 0
-0.3872149 1.9378889 0.064978808 0
-7.4522862 0.0076734703 0.10599054 0
-7.364327 0.012055395 0.12084633 0
-7.260684 0.017218661 0.13835107 0
3.1459999 0.866 0.1 0
