# .PCD v0.7 - Point Cloud Data file format
VERSION 0.7
FIELDS x y z intensity
SIZE 4 4 4 4
TYPE F F F F
COUNT 1 1 1 1
WIDTH 1376
HEIGHT 1
VIEWPOINT 0 0 0 1 0 0 0
POINTS 1376
DATA ascii
-1.5586325 -1.350773 -0.17504281 0
-1.4473342 -1.3656007 -0.1729316 0
-1.3391615 -1.3380882 -0.17131588 0
-1.2350998 -1.3620323 -0.16840276 0
-1.1455249 -1.3311089 -0.17251945 0
-1.0795 -1.372 -0.17550001 0
1.2433946 -1.3623387 -0.17382786 0
1.3557805 -1.3708289 -0.17215502 0
-2.3308241 -1.2706964 -0.12976882 0
-2.2400107 -1.2442621 -0.1472939 0
-2.12675 -1.274 -0.13374999 0
-2.0438206 -1.2633246 -0.13386796 0
-1.8371005 -1.2317706 -0.14183511 0
-1.7596862 -1.2331164 -0.14415503 0
-1.5545253 -1.2578886 -0.17532457 0
-1.4687463 -1.2646172 -0.1754484 0
-1.3626937 -1.2432705 -0.17494319 0
-1.2535808 -1.2525442 -0.17365795 0
-1.1547045 -1.2594062 -0.17464912 0
1.2526606 -1.2682008 -0.17177467 0
1.3616147 -1.2362601 -0.17029393 0
1.403 -1.245 -0.16949999 0
1.8257742 -1.2084357 -0.15812412 0
-2.6305261 -1.1397388 -0.10387613 0
-2.4865477 -1.1375184 -0.14382009 0
-2.1541066 -1.1843137 -0.1578303 0
-2.0610495 -1.1391548 -0.16718537 0
-1.9677901 -1.1498638 -0.15974811 0
-1.8705806 -1.1463565 -0.15534651 0
-1.7685317 -1.1328151 -0.15837792 0
-1.6359615 -1.1426024 -0.16878945 0
-1.5535964 -1.1392369 -0.17528048 0
-1.4278793 -1.1720556 -0.17614873 0
-1.3538882 -1.1404895 -0.17628323 0
-1.2628241 -1.1455539 -0.17564809 0
-1.1763333 -1.1480001 -0.176 0
1.267 -1.148 -0.171 0
1.3348459 -1.1727487 -0.16985375 0
1.6729631 -1.1119081 -0.16074874 0
1.7457557 -1.1578896 -0.15949848 0
1.8559999 -1.1059999 -0.15800001 0
1.9863148 -1.1282684 -0.15612704 0
-2.9423363 -1.0394485 -0.10761683 0
-2.764662 -1.0402474 -0.1575256 0
-2.6627715 -1.0728765 -0.15280452 0
-2.5391176 -1.0619071 -0.13448882 0
-2.4456999 -1.0599322 -0.12074286 0
-2.3586309 -1.0616189 -0.14445235 0
-2.237483 -1.0278782 -0.16022295 0
-1.9381472 -1.0719231 -0.17682712 0
-1.8405697 -1.0314595 -0.17518377 0
-1.7248602 -1.0634521 -0.16778217 0
-1.6303711 -1.0541286 -0.17376599 0
-1.5595874 -1.0196117 -0.17485116 0
-1.456731 -1.0661579 -0.17585365 0
-1.3523066 -1.0358071 -0.1768432 0
-1.2416985 -1.0485487 -0.17691213 0
1.274 -1.099 -0.17 0
1.5273778 -1.0199449 -0.16324924 0
1.6450146 -1.0384283 -0.16107634 0
1.7646306 -1.0537164 -0.15918443 0
1.8328545 -1.0688 -0.15834117 0
1.9019681 -1.0823171 -0.15736061 0
-3.2539999 -0.90399998 -0.124 0
-2.6533918 -0.99904531 -0.15974607 0
-2.5684595 -0.96759582 -0.16144094 0
-2.4756413 -0.96608829 -0.16074921 0
-2.3613083 -0.93272424 -0.1628954 0
-2.2422357 -0.97245646 -0.14012042 0
-2.1393847 -0.95656478 -0.15858208 0
-2.0403061 -0.94107926 -0.17320859 0
-1.7647849 -0.99122971 -0.17759189 0
-1.689 -0.95099998 -0.18000001 0
-1.4577421 -0.9552573 -0.17603198 0
-1.327577 -0.9687193 -0.17661789 0
-1.263 -0.92000002 -0.177 0
1.3817927 -0.92798162 -0.16574974 0
1.4545852 -0.97396326 -0.16449949 0
1.569819 -0.92139864 -0.16193953 0
1.6450355 -0.96340144 -0.16090164 0
1.7506454 -0.99987811 -0.15957375 0
1.850884 -0.93463314 -0.15637214 0
-3.1521857 -0.87589443 -0.1283744 0
-3.0212617 -0.83975321 -0.1339995 0
-2.933979 -0.81565905 -0.13774957 0
-2.3136621 -0.87324739 -0.16652559 0
-2.2231522 -0.86962187 -0.16685669 0
-2.1389892 -0.83746636 -0.16889252 0
-2.0447793 -0.85835171 -0.1648722 0
-1.9337953 -0.87599677 -0.17641632 0
-1.864803 -0.83138436 -0.17659602 0
-1.7590134 -0.81465524 -0.17599602 0
-1.3558968 -0.89090294 -0.17721279 0
-1.288 -0.84799999 -0.178 0
1.3498859 -0.86089301 -0.16551536 0
1.4567717 -0.85878605 -0.16353074 0
1.5236613 -0.87621951 -0.16289344 0
1.642884 -0.83713311 -0.15987214 0
1.7544143 -0.88941294 -0.15799543 0
1.9699793 -0.83199704 -0.15446627 0
2.0250001 -0.85500002 -0.154 0
-4.1020799 -0.70024765 -0.1089306 0
-2.8466961 -0.79156494 -0.14149962 0
-2.7594135 -0.76747078 -0.14524969 0
-2.6721308 -0.74337661 -0.14899975 0
-2.5848482 -0.71928245 -0.15274981 0
-2.4492097 -0.72429264 -0.15776592 0
-2.0588648 -0.77889895 -0.17161024 0
-1.9706631 -0.77315545 -0.17296417 0
-1.8751698 -0.74148226 -0.17493811 0
-1.7641243 -0.75428373 -0.17478175 0
-1.679 -0.76050001 -0.17449999 0
1.316 -0.79699999 -0.16500001 0
1.457 -0.75 -0.163 0
1.5313536 -0.78485322 -0.16174886 0
1.7251122 -0.72962314 -0.15654142 0
1.8475457 -0.78081006 -0.15550385 0
-4.1735349 -0.65026939 -0.10325037 0
-4.0399127 -0.64918238 -0.12200054 0
-3.9370813 -0.64307696 -0.13614297 0
-2.4539239 -0.68314123 -0.15837491 0
-2.3268306 -0.66158742 -0.16290513 0
-2.2611723 -0.64952087 -0.16392322 0
-2.176867 -0.62553048 -0.16580445 0
-2.0797098 -0.61629272 -0.16726592 0
-1.9054999 -0.64649999 -0.176 0
-1.8510256 -0.6518113 -0.17569929 0
-1.7371721 -0.64863628 -0.17582002 0
1.4802449 -0.62724924 -0.15861657 0
1.5618674 -0.66137391 -0.15792485 0
1.6434897 -0.69549853 -0.15723313 0
1.7562809 -0.62861902 -0.15484388 0
1.8685404 -0.66812515 -0.15398042 0
1.9254297 -0.65802884 -0.15302943 0
2.0170839 -0.68868351 -0.1521005 0
2.6986904 -0.61949712 -0.14811526 0
2.7867768 -0.63930923 -0.14762968 0
2.8748631 -0.65912139 -0.14714408 0
2.901 -0.66500002 -0.147 0
-3.8303721 -0.59411544 -0.15796445 0
-3.7445815 -0.58007693 -0.17164296 0
-3.6587906 -0.56603849 -0.18532148 0
-3.573 -0.55199999 -0.199 0
-2.721 -0.54900002 -0.15099999 0
-2.65204 -0.5348103 -0.15353064 0
-2.565285 -0.51695907 -0.15671431 0
-2.4408791 -0.56726253 -0.15509811 0
-2.3524756 -0.54664683 -0.15785921 0
-2.2671936 -0.52676868 -0.16052216 0
-2.1384857 -0.55927598 -0.16525862 0
-2.0540886 -0.53732073 -0.16740689 0
-1.9367373 -0.5607177 -0.17306913 0
-1.8496851 -0.53176039 -0.17480597 0
-1.7589083 -0.5479039 -0.1757161 0
-1.6563476 -0.54129243 -0.17775625 0
-1.5420771 -0.54619902 -0.17946669 0
-1.4620385 -0.51859951 -0.18023334 0
1.3682041 -0.55435985 -0.15891625 0
1.4699799 -0.53990996 -0.15688097 0
1.5553948 -0.54629308 -0.15661205 0
1.6444044 -0.56095219 -0.15485801 0
1.739634 -0.53127527 -0.15274923 0
1.8556406 -0.55826426 -0.15210819 0
2.1701727 -0.5006243 -0.15102881 0
2.2582588 -0.52043641 -0.15054323 0
2.3463452 -0.54024851 -0.15005763 0
2.4344316 -0.56006068 -0.14957204 0
2.5225177 -0.57987285 -0.14908645 0
2.6106043 -0.59968495 -0.14860086 0
2.8469999 -0.50999999 -0.146 0
-2.6901884 -0.47893047 -0.15026531 0
-2.5551186 -0.45407456 -0.15643112 0
-2.4455752 -0.44115749 -0.16055866 0
-2.3454945 -0.45303071 -0.16520409 0
-2.2182651 -0.44555387 -0.16944899 0
-2.1435292 -0.45757768 -0.1677193 0
-2.0224829 -0.44804001 -0.17094617 0
-1.9237654 -0.4481256 -0.17431031 0
-1.8389088 -0.44795477 -0.17598431 0
-1.7514111 -0.4452962 -0.17641944 0
-1.649263 -0.45601776 -0.17777185 0
-1.5272897 -0.46039316 -0.17740622 0
-1.4456449 -0.43619657 -0.17770311 0
-1.3729999 -0.4515 -0.1795 0
1.293 -0.40799999 -0.155 0
1.3415048 -0.45762777 -0.15628718 0
1.4489295 -0.44919118 -0.15540779 0
1.5552135 -0.46963698 -0.153844 0
1.6510969 -0.47776085 -0.15344742 0
1.7208246 -0.40865511 -0.15187533 0
1.8270154 -0.43303445 -0.15117207 0
1.994 -0.461 -0.152 0
2.0820863 -0.48081213 -0.15151441 0
2.2395325 -0.40353662 -0.1494792 0
2.3280432 -0.41904885 -0.14897226 0
2.4165542 -0.43456104 -0.14846532 0
2.5493205 -0.45782936 -0.14770491 0
2.6736622 -0.44658229 -0.14633766 0
2.7623076 -0.46103007 -0.14587986 0
2.8239999 -0.43599999 -0.145 0
-2.6659999 -0.34799999 -0.148 0
-2.5844219 -0.33671919 -0.15191859 0
-2.4699383 -0.31243742 -0.1592315 0
-2.3219404 -0.34860069 -0.16552643 0
-2.2442284 -0.39003116 -0.17076781 0
-2.1591496 -0.37466615 -0.17506757 0
-2.0740709 -0.35930118 -0.17936733 0
-1.9649704 -0.35506293 -0.1811585 0
-1.8785 -0.34149998 -0.18799999 0
-1.765 -0.38699999 -0.177 0
-1.699 -0.38600001 -0.178 0
-1.5699031 -0.39197579 -0.18113746 0
-1.4469757 -0.36124396 -0.18253437 0
1.4401031 -0.3442069 -0.15373442 0
1.5604123 -0.37182754 -0.15293767 0
1.6492667 -0.33781627 -0.14976995 0
1.7742728 -0.33371967 -0.14735952 0
1.814 -0.34099999 -0.147 0
1.9645 -0.331 -0.15000001 0
2.0531452 -0.34544778 -0.14954221 0
2.1417904 -0.35989559 -0.14908442 0
2.221339 -0.34515008 -0.14777404 0
2.3496006 -0.33582905 -0.14713787 0
2.482801 -0.35427204 -0.14651716 0
2.5716009 -0.36656737 -0.14610334 0
2.655565 -0.34565857 -0.14564827 0
2.768693 -0.35993296 -0.14511466 0
-3.2832885 -0.20061971 -0.18492958 0
-2.6300001 -0.28200001 -0.147 0
-2.5396686 -0.27203697 -0.15330993 0
-2.4242225 -0.23367161 -0.16230799 0
-2.3541327 -0.25740537 -0.1643682 0
-2.2348228 -0.25078756 -0.16995406 0
-2.1394477 -0.24225557 -0.17432165 0
-2.0540297 -0.24242 -0.17806752 0
-1.9605974 -0.24510941 -0.18241999 0
-1.882 -0.24900001 -0.18799999 0
1.372 -0.25999999 -0.15099999 0
1.4524546 -0.27474391 -0.15027189 0
1.5329092 -0.28948787 -0.14954381 0
1.9345 -0.23100001 -0.148 0
2.0234923 -0.24111894 -0.14768672 0
2.1388199 -0.24518913 -0.14704137 0
2.2460585 -0.26587209 -0.14695635 0
2.3698184 -0.25115275 -0.145962 0
2.458982 -0.26018327 -0.14575441 0
2.5377278 -0.23749211 -0.14284015 0
2.6327927 -0.23527968 -0.14121152 0
2.7547364 -0.29013747 -0.1450658 0
-5.7490625 -0.18208086 -0.12045571 0
-5.6166072 -0.18333194 -0.14297469 0
-5.5283036 -0.18416597 -0.15798734 0
-5.4400001 -0.185 -0.17299999 0
-3.21 -0.121 -0.18099999 0
-3.1848438 -0.15699658 -0.18242773 0
-3.0535033 -0.14959539 -0.18181057 0
-2.9221625 -0.14219423 -0.18119344 0
-2.8346021 -0.13726011 -0.18078202 0
-2.7445257 -0.16474648 -0.17828639 0
-2.6556838 -0.15883099 -0.17719091 0
-2.5668418 -0.15291549 -0.17609546 0
-2.4751151 -0.14679031 -0.175034 0
-2.3539791 -0.15713097 -0.17469974 0
-2.2405198 -0.16598554 -0.17512524 0
-2.1323748 -0.14752913 -0.17770624 0
-2.0536938 -0.16019088 -0.1791734 0
-1.9708676 -0.15242392 -0.18188564 0
-1.8940001 -0.18099999 -0.19 0
1.9341592 -0.12756948 -0.14566959 0
2.0550768 -0.15196328 -0.14450109 0
2.1698537 -0.15129912 -0.14325601 0
2.2574716 -0.15706548 -0.14234136 0
2.3450894 -0.16283186 -0.1414267 0
2.4327073 -0.16859823 -0.14051205 0
2.5133407 -0.14295885 -0.13906129 0
2.603909 -0.14783362 -0.13803503 0
-3.1359999 -0.046 -0.178 0
-3.0442548 -0.043533728 -0.1788221 0
-2.9170942 -0.040115438 -0.17996152 0
-2.8616889 -0.066446133 -0.18616223 0
-2.7565258 -0.071438283 -0.18397486 0
-2.6694164 -0.068811022 -0.18406008 0
-2.5639586 -0.055664215 -0.18400474 0
-2.4411929 -0.050425276 -0.18376994 0
-2.3529711 -0.048633546 -0.18324356 0
-2.2473352 -0.038827822 -0.18242097 0
-2.1334434 -0.044083454 -0.18205273 0
-2.0452218 -0.042291731 -0.18152636 0
-1.957 -0.0405 -0.18099999 0
1.8745 -0.041000001 -0.14399999 0
1.9623513 -0.042583931 -0.14339274 0
2.0502028 -0.044167861 -0.14278547 0
2.1380541 -0.045751791 -0.14217821 0
2.2259054 -0.047335718 -0.14157094 0
2.339098 -0.039816428 -0.14067979 0
2.44559 -0.050804414 -0.14011574 0
2.5621996 -0.053076562 -0.13928784 0
2.605 -0.085000001 -0.139 0
-3.1328392 0.025025297 -0.17900844 0
-3.0417244 0.025471939 -0.17915732 0
-2.9557705 0.025893282 -0.17929776 0
-2.8698163 0.026314627 -0.17943822 0
-2.7838621 0.026735971 -0.17957866 0
-2.6549311 0.027367987 -0.17978933 0
-2.526 0.028000001 -0.18000001 0
-2.4553819 0.056941178 -0.17755882 0
-2.3714314 0.055874377 -0.17821176 0
-2.245002 0.054262064 -0.17919824 0
-2.1185727 0.052649751 -0.18018469 0
-2.0342863 0.051574878 -0.18084234 0
-1.95 0.050500002 -0.18149999 0
1.677 0.041000001 -0.14 0
1.7670097 0.040800203 -0.1399001 0
1.8460097 0.055300198 -0.14090011 0
1.9348683 0.057032626 -0.14066692 0
2.0485251 0.066174679 -0.14058936 0
2.1564388 0.062329799 -0.14001733 0
2.2452974 0.064062223 -0.13978414 0
2.35513 0.056996968 -0.13943423 0
2.468019 0.067427173 -0.13926782 0
2.5639184 0.059106395 -0.13902308 0
-2.5666497 0.15067938 -0.18497932 0
-2.4743996 0.14602178 -0.18467882 0
-2.3455496 0.13951635 -0.18425912 0
-2.2166996 0.13301089 -0.18383941 0
-2.1474187 0.16771913 -0.18251987 0
-2.0340955 0.14911683 -0.1826399 0
-1.947 0.1425 -0.1825 0
1.793 0.199 -0.14 0
1.8358135 0.15184242 -0.13841544 0
1.9561597 0.14145488 -0.13946258 0
2.07096 0.15894595 -0.13881701 0
2.1584468 0.16509458 -0.13875602 0
2.251663 0.14185016 -0.1391585 0
2.3391957 0.14762019 -0.13879021 0
2.4267282 0.15339021 -0.13842189 0
2.5314202 0.13972008 -0.1383512 0
-2.7190001 0.244 -0.182 0
-2.64133 0.23617354 -0.182 0
-2.5530386 0.22727686 -0.182 0
-2.4647474 0.21838017 -0.182 0
-2.3637168 0.23679097 -0.17561151 0
-2.2762353 0.24696034 -0.18028921 0
-2.1620495 0.26698732 -0.18163358 0
-2.0467207 0.23765977 -0.18130024 0
-1.9384999 0.23449999 -0.18349999 0
1.553 0.29699999 -0.13500001 0
1.7625 0.26550001 -0.13699999 0
1.8592209 0.25498661 -0.13795398 0
1.9492121 0.24439281 -0.13762008 0
2.0360682 0.25483924 -0.13768011 0
2.1229243 0.26528567 -0.13774015 0
2.2336302 0.22473857 -0.13848488 0
2.3207562 0.23298627 -0.13848186 0
2.4322548 0.25348935 -0.13831922 0
2.5077629 0.22060907 -0.13898525 0
-2.5209999 0.32800001 -0.184 0
-2.4504776 0.31947398 -0.184 0
-2.3467934 0.34302762 -0.17614795 0
-2.2426877 0.37366861 -0.17277551 0
-2.1619573 0.36131781 -0.17445152 0
-2.057461 0.33736828 -0.1779813 0
-1.9368693 0.34793881 -0.17553608 0
-1.8346473 0.35980058 -0.17235649 0
-1.7523139 0.3550272 -0.17021114 0
-1.666 0.33000001 -0.171 0
1.522 0.36700001 -0.134 0
1.6251204 0.34972751 -0.13465896 0
1.7427998 0.35791048 -0.13449039 0
1.8473387 0.37144995 -0.13491857 0
1.9459957 0.3484005 -0.13647674 0
2.0532877 0.35778967 -0.13692831 0
2.1666865 0.33174208 -0.13751306 0
2.281054 0.34047496 -0.13734296 0
2.3674798 0.35297081 -0.13740012 0
2.4480689 0.35446581 -0.13765982 0
-2.3688042 0.49705118 -0.17857468 0
-2.2747061 0.44758606 -0.1714499 0
-2.1530321 0.45653871 -0.17208226 0
-2.0413141 0.42863038 -0.17002298 0
-1.9615955 0.45038304 -0.17011362 0
-1.8530724 0.44535628 -0.16893701 0
-1.7226253 0.43728736 -0.16895239 0
-1.6345 0.449 -0.169 0
-1.48 0.47299999 -0.171 0
1.499 0.43700001 -0.13500001 0
1.5848008 0.46126693 -0.13500001 0
1.681614 0.44477257 -0.13447517 0
1.7517725 0.46054122 -0.13559015 0
1.8581975 0.46623164 -0.13455772 0
1.9600374 0.44163787 -0.1349231 0
2.0461764 0.46038651 -0.13515989 0
2.1513166 0.42898411 -0.1355201 0
2.2379556 0.44556832 -0.13570309 0
2.3500473 0.46707624 -0.13594304 0
-2.6140001 0.551 -0.182 0
-2.5441768 0.53563726 -0.18102458 0
-2.4564905 0.51634425 -0.17979963 0
-2.2396069 0.52907652 -0.16930835 0
-2.1261058 0.56398416 -0.16730997 0
-2.0444722 0.54237354 -0.16763368 0
-1.9500463 0.56757188 -0.16701066 0
-1.8497306 0.55935544 -0.16788393 0
-1.7546765 0.54102159 -0.16844387 0
-1.654632 0.56495678 -0.16903269 0
-1.551872 0.53775012 -0.17036366 0
-1.457 0.54400003 -0.171 0
1.4579999 0.53850001 -0.13550001 0
1.5554068 0.53260696 -0.13500001 0
1.6419379 0.56007129 -0.13466667 0
1.7538493 0.53990626 -0.13541447 0
1.8482505 0.54735821 -0.13543856 0
1.9320493 0.55554706 -0.13509256 0
2.0441453 0.56073189 -0.13507034 0
2.1567917 0.53996515 -0.13514127 0
2.2423306 0.56088501 -0.13531375 0
2.3235412 0.55001366 -0.13595738 0
-2.1494596 0.63386643 -0.16543417 0
-2.0306935 0.6554811 -0.16644078 0
-1.9411374 0.65921599 -0.16702978 0
-1.8645618 0.64555895 -0.16766126 0
-1.7512677 0.65262711 -0.16847306 0
-1.6445301 0.63572252 -0.16937897 0
-1.5855 0.67299998 -0.16949999 0
1.452347 0.65739101 -0.13583025 0
1.5275729 0.60573864 -0.13577653 0
1.6346213 0.66123098 -0.13529421 0
1.7501352 0.64339995 -0.13479364 0
1.8576441 0.65142089 -0.13486242 0
1.9821867 0.65042973 -0.13477001 0
2.0845106 0.62907016 -0.13483751 0
2.1579199 0.63640219 -0.13514142 0
2.261318 0.6463654 -0.13504569 0
2.337455 0.63974506 -0.13461424 0
2.425 0.67500001 -0.134 0
-2.2539783 0.76188207 -0.16504154 0
-2.1393542 0.7352457 -0.16569221 0
-2.05934 0.75647849 -0.16536199 0
-1.958971 0.74580693 -0.1661938 0
-1.8427929 0.74294752 -0.16688372 0
-1.7385359 0.73793519 -0.16746797 0
-1.6497183 0.74786115 -0.16827518 0
-1.5463113 0.7664097 -0.16794057 0
-1.4409666 0.75011456 -0.16691087 0
-1.3429999 0.73899996 -0.167 0
1.3645 0.73650002 -0.1365 0
1.4604838 0.74569106 -0.13542037 0
1.556178 0.74947309 -0.13508083 0
1.6622626 0.75122756 -0.13656627 0
1.7561594 0.74425191 -0.13472761 0
1.8474901 0.7568512 -0.13451742 0
1.9462321 0.74424905 -0.13455445 0
2.0473161 0.72679096 -0.13465607 0
2.1298981 0.75622779 -0.13458729 0
2.2450109 0.73646086 -0.13498625 0
-2.4026973 0.88162524 -0.16017477 0
-2.3183486 0.84831262 -0.16258739 0
-2.2398052 0.83253193 -0.16387169 0
-2.1699018 0.84957385 -0.16425477 0
-2.0431507 0.85757226 -0.16368639 0
-1.9680898 0.835338 -0.16441992 0
-1.8753734 0.84944463 -0.1646007 0
-1.7461246 0.84221798 -0.1656304 0
-1.6474407 0.85748106 -0.16573286 0
-1.5483809 0.85500079 -0.1670403 0
-1.4688851 0.85800493 -0.16408296 0
-1.3767631 0.84801865 -0.16495819 0
-1.2723333 0.86999995 -0.16633333 0
1.3430095 0.85429108 -0.13659896 0
1.4703093 0.85420084 -0.13597816 0
1.6464624 0.85894579 -0.13598083 0
1.7626035 0.85279214 -0.13787693 0
1.8558178 0.8413012 -0.13413261 0
1.9624027 0.8511675 -0.13369329 0
2.048121 0.84109449 -0.13387004 0
2.1612933 0.83692503 -0.13408308 0
2.2160001 0.81800002 -0.134 0
-2.6557434 0.98156309 -0.15293694 0
-2.5492392 0.9693433 -0.15235016 0
-2.4653044 0.93625748 -0.15538763 0
-2.3600419 0.92471808 -0.15667538 0
-1.9523745 0.94046801 -0.1618804 0
-1.849328 0.9617784 -0.16183659 0
-1.7444283 0.93867254 -0.16323456 0
-1.653608 0.96125251 -0.16324285 0
-1.5406415 0.94413269 -0.16438425 0
-1.437906 0.95256001 -0.16528773 0
-1.3396876 0.96549982 -0.16440473 0
-1.221 0.94850004 -0.1655 0
-1.1950001 0.99900001 -0.16599999 0
1.452019 0.94608212 -0.13569793 0
1.5562264 0.93924743 -0.13471724 0
1.6639943 0.95202923 -0.13536711 0
1.7578926 0.95415145 -0.13462543 0
1.862555 0.92936528 -0.13413799 0
1.9383315 0.96864146 -0.13314047 0
2.0379491 0.95928168 -0.13310345 0
2.1449792 0.93178511 -0.13300726 0
-2.9087892 1.081501 -0.1456991 0
-2.8244405 1.0481883 -0.1481117 0
-2.7588692 1.0519445 -0.14444408 0
-2.6523652 1.0397247 -0.14385732 0
-2.0009999 1.072 -0.15899999 0
-1.9337587 1.0285681 -0.16012983 0
-1.8539274 1.0554914 -0.16010211 0
-1.7546289 1.0526103 -0.16134764 0
-1.6466688 1.040616 -0.16222103 0
-1.5530238 1.0690768 -0.16095674 0
-1.4691479 1.0497049 -0.16239573 0
-1.3685313 1.0602447 -0.16290183 0
-1.2460833 1.0422921 -0.16249502 0
-1.1440001 1.0295 -0.163 0
-1.098 1.063 -0.16 0
1.127 1.0599999 -0.138 0
1.4418639 1.062084 -0.13653202 0
1.5611529 1.0408492 -0.13384169 0
1.6390855 1.0486195 -0.13339071 0
1.7564321 1.0578773 -0.13118199 0
1.8430295 1.0402566 -0.13362502 0
1.9516034 1.0612383 -0.1337384 0
2.0475307 1.0442073 -0.13157327 0
-3.1429999 1.174 -0.139 0
-3.0457432 1.1650631 -0.13443694 0
-2.9689131 1.1347725 -0.13716286 0
-2.8611677 1.1218723 -0.13470155 0
-2.076 1.177 -0.15700001 0
-1.928 1.152 -0.15800001 0
-1.8369793 1.125031 -0.15931304 0
-1.7512397 1.158116 -0.15814431 0
-1.6501305 1.1563071 -0.15832603 0
-1.5500972 1.1666424 -0.15943232 0
-1.4337554 1.1513468 -0.15998009 0
-1.3472707 1.1543484 -0.16085505 0
-1.2411655 1.145856 -0.1607489 0
-1.1322773 1.1513519 -0.1592221 0
-1.0445 1.1404999 -0.16 0
1.049 1.1365 -0.138 0
1.1642683 1.1493096 -0.13721937 0
1.2566214 1.1857405 -0.13644764 0
1.307 1.166 -0.13699999 0
1.5434853 1.1494452 -0.13904271 0
1.6372395 1.1560893 -0.13484401 0
1.7482609 1.1443785 -0.13121606 0
1.8608691 1.1500142 -0.13083422 0
1.9454218 1.1598608 -0.13008036 0
2.027 1.135 -0.13150001 0
2.151566 1.1140174 -0.13100694 0
2.2634938 1.1718537 -0.13017477 0
-2.2323999 1.2681859 -0.1562417 0
-2.1541998 1.2225929 -0.15662086 0
-1.9126034 1.2714318 -0.1543037 0
-1.8380001 1.221 -0.155 0
-1.7609698 1.2519581 -0.15438059 0
-1.6681337 1.2722728 -0.15635781 0
-1.5597341 1.2482942 -0.1566627 0
-1.4502568 1.2559142 -0.1575353 0
-1.3647032 1.2604918 -0.15777488 0
-1.2456771 1.2537913 -0.15811884 0
-1.1568913 1.2399387 -0.15808851 0
-1.0574399 1.2450801 -0.15835677 0
-0.95311499 1.259474 -0.15730803 0
-0.56599998 1.279 -0.153 0
0.63099998 1.276 -0.142 0
0.85100001 1.298 -0.138 0
0.93700004 1.229 -0.13749999 0
1.0527384 1.2548172 -0.13683026 0
1.1761061 1.2747153 -0.13620444 0
1.2375 1.243 -0.13749999 0
1.3378886 1.2559109 -0.13586342 0
1.4626039 1.2862694 -0.13754347 0
1.5524288 1.2598666 -0.13939367 0
1.6749722 1.2502813 -0.1352493 0
1.753686 1.2481986 -0.13396937 0
1.858047 1.2500372 -0.12959543 0
1.9670817 1.2191876 -0.13000572 0
2.0248642 1.2237546 -0.12636398 0
2.1015592 1.2711481 -0.1249874 0
-2.3496997 1.3365753 -0.15567297 0
-2.0618103 1.3722956 -0.15291111 0
-1.9496666 1.3572339 -0.14652452 0
-1.8546333 1.3554487 -0.14677675 0
-1.7404171 1.3473349 -0.15128477 0
-1.631 1.3329999 -0.154 0
-1.554451 1.3561064 -0.15483297 0
-1.4289074 1.3479066 -0.15517154 0
-1.3625059 1.3572087 -0.15649386 0
-1.2631315 1.3423371 -0.15597464 0
-1.154147 1.3445187 -0.15617265 0
-1.0475892 1.3628498 -0.15836512 0
-0.97016376 1.3452168 -0.15725034 0
-0.8775 1.359 -0.15899999 0
-0.60015649 1.3596885 -0.15386629 0
-0.52343917 1.353001 -0.15113439 0
-0.45300001 1.359 -0.15000001 0
-0.39399999 1.399 -0.149 0
0.45100001 1.38 -0.14300001 0
0.55299997 1.352 -0.142 0
0.6676687 1.3444185 -0.14043488 0
0.76499999 1.3665 -0.13850001 0
0.89879215 1.3733479 -0.13670832 0
0.96055442 1.3206171 -0.13562681 0
1.0533985 1.3766184 -0.13513042 0
1.1661001 1.3429904 -0.13642503 0
1.2543103 1.3389382 -0.13528997 0
1.3582458 1.3551375 -0.13467956 0
1.4490179 1.3574504 -0.13837305 0
1.5234362 1.3558642 -0.13644394 0
1.6394262 1.3770777 -0.13521682 0
1.7478524 1.3506598 -0.13248201 0
1.8671703 1.3501126 -0.12988888 0
1.9687136 1.3189627 -0.1259279 0
2.0428157 1.3695288 -0.12448902 0
2.1782541 1.3185415 -0.12361082 0
2.2614744 1.3699675 -0.12211712 0
-2.6233997 1.4961506 -0.15434594 0
-2.5451996 1.4505577 -0.15472509 0
-2.4669998 1.4049647 -0.15510425 0
-2.2110169 1.4731593 -0.15151851 0
-2.1364136 1.4227275 -0.15221481 0
-2.0446637 1.4628928 -0.13838729 0
-1.9602423 1.4672233 -0.13663588 0
-1.8659636 1.4527985 -0.13697498 0
-1.750774 1.4533821 -0.14392237 0
-1.6477827 1.4395313 -0.15165919 0
-1.5366278 1.4446684 -0.15318458 0
-1.4509263 1.4372317 -0.15430586 0
-1.3642122 1.4598492 -0.15316248 0
-1.259775 1.4498882 -0.1534265 0
-1.1390063 1.4466479 -0.15669528 0
-1.0453396 1.442928 -0.15754475 0
-0.94425136 1.4460181 -0.1584866 0
-0.84382254 1.4406012 -0.15899999 0
-0.76549995 1.4795001 -0.15800001 0
-0.63431293 1.440377 -0.15473257 0
-0.56375653 1.455004 -0.15153755 0
-0.46360412 1.4654636 -0.14993371 0
-0.333 1.443 -0.148 0
-0.26899999 1.4809999 -0.147 0
0.36299998 1.46 -0.14399999 0
0.45835316 1.4606155 -0.14208822 0
0.54291975 1.4398756 -0.1415455 0
0.6232962 1.4575632 -0.14006977 0
0.74130297 1.453136 -0.13771981 0
0.85979867 1.4598591 -0.13582346 0
0.93929207 1.468348 -0.13520832 0
1.0343316 1.4529257 -0.13444021 0
1.159484 1.4429407 -0.13409092 0
1.2606021 1.4546963 -0.13434847 0
1.3519688 1.4513934 -0.13420266 0
1.4414748 1.4312994 -0.13576849 0
1.5444487 1.447346 -0.13327493 0
1.6461705 1.4665667 -0.13194054 0
1.736241 1.472494 -0.13087566 0
1.8463651 1.4527249 -0.12948279 0
1.9648232 1.4683425 -0.12951243 0
2.003 1.498 -0.12899999 0
2.1439588 1.4385475 -0.12252507 0
-2.7406995 1.56454 -0.15377721 0
-2.3602235 1.5740231 -0.15012592 0
-2.2522759 1.5395343 -0.14492416 0
-2.158277 1.5653658 -0.12691422 0
-2.0676682 1.5677874 -0.12766379 0
-1.9622804 1.5584311 -0.12330803 0
-1.8479948 1.5600275 -0.14044595 0
-1.7582123 1.5371748 -0.14638142 0
-1.6558528 1.5657675 -0.15035346 0
-1.573225 1.5578246 -0.15180776 0
-1.4509178 1.5471296 -0.15146551 0
-1.3521788 1.5666167 -0.15124209 0
-1.224121 1.5427381 -0.15465875 0
-1.1465936 1.570187 -0.16148533 0
-1.0604951 1.5457621 -0.15510769 0
-0.94582283 1.5610628 -0.1585305 0
-0.85407734 1.537652 -0.15988545 0
-0.75902808 1.5544899 -0.1579559 0
-0.65029395 1.542413 -0.15391977 0
-0.5593769 1.5430964 -0.15086913 0
-0.43463302 1.5412157 -0.149 0
-0.35858741 1.551842 -0.1483819 0
-0.2434981 1.543283 -0.14712065 0
-0.15350001 1.58 -0.148 0
0.24643537 1.5701984 -0.14485431 0
0.35855129 1.5630932 -0.14330629 0
0.45064783 1.5482814 -0.14127986 0
0.54148495 1.5295297 -0.14034614 0
0.62555432 1.5593508 -0.13760965 0
0.76636624 1.5640488 -0.1359805 0
0.84306538 1.5393155 -0.13498507 0
0.94841373 1.5513122 -0.13390502 0
1.046488 1.5554452 -0.1335479 0
1.1311592 1.5477209 -0.13228031 0
1.2618234 1.570864 -0.133798 0
1.3569613 1.5328686 -0.13335028 0
1.4382824 1.5458806 -0.13159297 0
1.5460443 1.5467495 -0.13180874 0
1.6519703 1.5585444 -0.13086814 0
1.7498379 1.5608759 -0.1277663 0
3.6789999 1.529 -0.101 0
3.7395916 1.5479805 -0.10026998 0
-2.901 1.658 -0.153 0
-2.8579996 1.6329294 -0.15320848 0
-2.5094304 1.6748869 -0.14873332 0
-2.4348269 1.624455 -0.14942962 0
-2.3039999 1.6160001 -0.13600001 0
-2.2890873 1.6053902 -0.1365305 0
-2.1311791 1.6399015 -0.12690125 0
-2.0261817 1.6721817 -0.1132822 0
-1.9404235 1.6592333 -0.13763769 0
-1.8438663 1.6351162 -0.14420776 0
-1.7389891 1.65151 -0.14911419 0
-1.6360317 1.6390897 -0.15065241 0
-1.5410717 1.6661632 -0.14835019 0
-1.4419911 1.6363447 -0.14929609 0
-1.3375486 1.6483761 -0.15109847 0
-1.2631756 1.6657773 -0.1545679 0
-1.1318753 1.6551503 -0.15834849 0
-1.0471764 1.6649354 -0.15878953 0
-0.9451738 1.6396919 -0.16032808 0
-0.848297 1.6432474 -0.15822491 0
-0.73575395 1.6554875 -0.15577343 0
-0.66052127 1.6416531 -0.15412188 0
-0.56743562 1.6161399 -0.15149571 0
-0.46347475 1.6421617 -0.149 0
-0.38417482 1.660684 -0.14876381 0
-0.23946865 1.6340928 -0.1468628 0
-0.14115627 1.6576818 -0.14702725 0
-0.081500001 1.6294999 -0.14750001 0
0.052999999 1.6765001 -0.14649999 0
0.162 1.6553334 -0.14566667 0
0.2573061 1.6478577 -0.14406542 0
0.35218298 1.6509209 -0.14201112 0
0.45035917 1.6708899 -0.13962781 0
0.54326981 1.6573764 -0.13715586 0
0.64273906 1.6471344 -0.13547952 0
0.75703168 1.6661676 -0.13389367 0
0.84246111 1.6476166 -0.13299631 0
0.94468087 1.6617937 -0.13204393 0
1.0574642 1.652861 -0.13165268 0
1.1630485 1.6548954 -0.13198042 0
1.2447197 1.664941 -0.13107501 0
1.3405708 1.6499815 -0.13157724 0
1.4462404 1.6432698 -0.1302686 0
1.5525103 1.6488537 -0.12939063 0
1.6586682 1.6576707 -0.12768435 0
1.7321343 1.6508449 -0.12941755 0
1.8664157 1.667578 -0.12467389 0
-2.5860169 1.7266594 -0.14801851 0
-2.108 1.781 -0.118 0
-2.0608721 1.7728399 -0.13474394 0
-1.9462432 1.7511803 -0.1403008 0
-1.8461318 1.7514187 -0.14638364 0
-1.7661906 1.7485119 -0.14769448 0
-1.6525347 1.7444293 -0.14672686 0
-1.5437566 1.7560238 -0.14636667 0
-1.4406943 1.7458676 -0.1474749 0
-1.3652705 1.738752 -0.1498155 0
-1.243785 1.7681853 -0.15301621 0
-1.1721731 1.7463489 -0.15740581 0
-1.0655084 1.7608049 -0.15790391 0
-0.96095216 1.7543447 -0.15955853 0
-0.86288303 1.7469033 -0.15853597 0
-0.75261641 1.7554276 -0.15563639 0
-0.65361369 1.7618394 -0.15597425 0
-0.34856763 1.7575661 -0.14824131 0
-0.22960339 1.7620366 -0.14627644 0
-0.14368922 1.7630205 -0.14605951 0
-0.045327585 1.7382327 -0.14624138 0
0.066351213 1.7524703 -0.14568761 0
0.15822801 1.743847 -0.14390552 0
0.24983698 1.7448568 -0.14240442 0
0.35667551 1.7431691 -0.14021999 0
0.45679432 1.7596967 -0.1376155 0
0.551265 1.7660857 -0.13501346 0
0.64656919 1.7388849 -0.13308412 0
0.73786098 1.7630677 -0.13100386 0
0.86305696 1.7523776 -0.13109244 0
0.97214186 1.7713552 -0.1296331 0
1.0534124 1.7439655 -0.13009799 0
1.1390202 1.7631061 -0.13015766 0
1.2474709 1.7550367 -0.12941319 0
1.3446214 1.7490038 -0.12909943 0
1.4513071 1.7426046 -0.12925048 0
1.5584866 1.7495447 -0.12695128 0
1.6508819 1.7494295 -0.12782292 0
1.7448699 1.7544577 -0.12717055 0
1.8 1.765 -0.124 0
-2.2340264 1.8979908 -0.12189625 0
-2.1293027 1.8547646 -0.1227906 0
-2.0774167 1.849939 -0.14308871 0
-1.9502901 1.8613833 -0.14554442 0
-1.8519422 1.8330714 -0.14582427 0
-1.7492988 1.8672872 -0.1432713 0
-1.6720655 1.8492223 -0.14407422 0
-1.5694718 1.8428944 -0.144583 0
-1.4682035 1.836598 -0.14567445 0
-1.3428342 1.8660651 -0.14700392 0
-1.2541087 1.8368759 -0.15129037 0
-1.1527131 1.8384125 -0.15315986 0
-1.04925 1.82925 -0.15975 0
-0.94207078 1.8482456 -0.15836293 0
-0.83152026 1.8544028 -0.15741754 0
-0.77142835 1.8628663 -0.15751037 0
-0.68348491 1.8361192 -0.15796566 0
-0.50599998 1.874 -0.156 0
-0.43500394 1.8267572 -0.14979075 0
-0.35515982 1.8751754 -0.14683066 0
-0.25440493 1.8601898 -0.1457088 0
-0.16343541 1.8435163 -0.14561069 0
-0.046873238 1.8280048 -0.14461049 0
0.058856759 1.8393749 -0.14401494 0
0.15053251 1.8392566 -0.14119907 0
0.24612413 1.8387489 -0.13991813 0
0.35495776 1.8463391 -0.13802919 0
0.43889561 1.8480946 -0.13610284 0
0.55387378 1.8408781 -0.13328925 0
0.64749593 1.8551878 -0.13063966 0
0.75684404 1.8505071 -0.12914945 0
0.84628212 1.8520526 -0.12762186 0
0.94512391 1.8523622 -0.12765503 0
1.0482482 1.8461939 -0.12904792 0
1.1457088 1.8623867 -0.12774077 0
1.2572625 1.8531913 -0.1262272 0
1.3617344 1.8462712 -0.12664177 0
1.4614971 1.8391802 -0.12532774 0
1.5290445 1.8596706 -0.12671092 0
1.6393334 1.8296666 -0.12566666 0
3.1347547 1.8302433 -0.10580307 0
-2.3025398 1.9559863 -0.11334439 0
-2.2333174 1.9747663 -0.10874914 0
-2.1458485 1.9303951 -0.12455944 0
-2.034029 1.9384776 -0.13973947 0
-1.9436041 1.9317871 -0.14410362 0
-1.8347023 1.9403609 -0.14218372 0
-1.7491462 1.9401424 -0.14193329 0
-1.6507953 1.944389 -0.14149366 0
-1.5664161 1.962266 -0.14113854 0
-1.4471376 1.9608493 -0.14165756 0
-1.35093 1.9600422 -0.14488149 0
-1.2562838 1.9351031 -0.14718375 0
-1.1525521 1.9384515 -0.15029496 0
-1.0505377 1.9407917 -0.15323803 0
-0.91949403 1.954881 -0.15438887 0
-0.84824163 1.933659 -0.15753578 0
-0.74014539 1.9334563 -0.15885775 0
-0.64249998 1.9225 -0.16049999 0
-0.53054386 1.9594038 -0.15355672 0
-0.45621487 1.9406947 -0.14700204 0
-0.37181967 1.9638507 -0.14566132 0
-0.24751003 1.9383559 -0.14493699 0
-0.13524166 1.9505656 -0.14394273 0
-0.048418887 1.9177771 -0.14297964 0
0.065515608 1.9440374 -0.14122559 0
0.15248445 1.948897 -0.13839647 0
0.24496756 1.9366212 -0.13765 0
0.33623144 1.9577351 -0.13543729 0
0.45432982 1.959447 -0.13304165 0
0.55861032 1.9483162 -0.1311616 0
0.64636928 1.9474716 -0.12841748 0
0.76358175 1.958598 -0.12524748 0
0.85181564 1.9564495 -0.12484873 0
0.94910753 1.9488237 -0.12498399 0
1.054907 1.9573364 -0.12455601 0
1.135963 1.9709576 -0.12469588 0
1.2434887 1.9425656 -0.12568907 0
1.3694252 1.9253889 -0.1262513 0
1.44775 1.9182501 -0.12375 0
-2.371053 2.0139818 -0.10479251 0
-2.2575464 2.0513935 -0.10642805 0
-2.1475916 2.0677428 -0.13035174 0
-2.0592761 2.0523419 -0.12862405 0
-1.9488846 2.0592954 -0.13224694 0
-1.856686 2.0558164 -0.13245019 0
-1.7444795 2.0642564 -0.12973697 0
-1.6519482 2.016592 -0.14011981 0
-1.4412875 2.0433102 -0.13979694 0
-1.3582588 2.0497737 -0.13939476 0
-1.2565937 2.0536342 -0.13960916 0
-1.1516383 2.0536001 -0.14618117 0
-1.0533181 2.0678847 -0.14640258 0
-0.94300932 2.0485504 -0.15201688 0
-0.84758282 2.0296059 -0.15461265 0
-0.76237684 2.0617654 -0.15612495 0
-0.67258859 2.0334375 -0.15595804 0
-0.53695154 2.070672 -0.14870468 0
-0.45932794 2.0466917 -0.14534038 0
-0.33875027 2.0502367 -0.14447826 0
-0.23223269 2.0447562 -0.14355381 0
-0.1416125 2.0400984 -0.14266409 0
-0.050737359 2.0524352 -0.14053333 0
0.065863557 2.0429611 -0.13857457 0
0.14373913 2.0380089 -0.13642877 0
0.2486009 2.0544527 -0.13438313 0
0.34986243 2.0679657 -0.1324818 0
0.45474744 2.0437739 -0.13096777 0
0.55772722 2.0430717 -0.12896428 0
0.65283233 2.0473301 -0.12602244 0
0.74065357 2.0357282 -0.12387887 0
0.84330601 2.0317523 -0.12396433 0
0.94492692 2.0306165 -0.12427168 0
1.0197918 2.0687313 -0.12452242 0
1.1460502 2.041261 -0.12510054 0
1.24 2.017 -0.126 0
-2.3029122 2.1316764 -0.10171686 0
-2.2184229 2.1482453 -0.12548661 0
-2.0587144 2.1461573 -0.11605859 0
-1.9513167 2.1447225 -0.1046163 0
-1.8414688 2.167897 -0.10249586 0
-1.449491 2.1518979 -0.13791049 0
-1.2420318 2.1524191 -0.14033261 0
-1.1470439 2.1529164 -0.14003986 0
-1.0523294 2.1566463 -0.14397439 0
-0.96491981 2.1580541 -0.14627318 0
-0.86011755 2.1315882 -0.15280238 0
-0.73003578 2.1710901 -0.15053272 0
-0.56052601 2.15663 -0.14653236 0
-0.45968109 2.1534481 -0.14261901 0
-0.35333371 2.139482 -0.143471 0
-0.2510848 2.154434 -0.14247319 0
-0.14798333 2.1296313 -0.14138545 0
-0.053055834 2.1870933 -0.13808702 0
0.053123068 2.1433318 -0.1360406 0
0.1348376 2.151161 -0.13392685 0
0.24071774 2.141377 -0.13195592 0
0.34454805 2.161413 -0.13022707 0
0.44397521 2.1440566 -0.12872228 0
0.54488564 2.1399391 -0.12727715 0
0.64405382 2.144963 -0.12488879 0
0.7387231 2.1706357 -0.12330012 0
0.87041718 2.1224616 -0.12266286 0
1.0224684 2.1647098 -0.12248902 0
1.2128848 2.1640208 -0.12257554 0
-2.3432691 2.2627356 -0.10045984 0
-2.2808461 2.2054904 -0.11297323 0
-2.1504889 2.2759962 -0.10859013 0
-2.0889926 2.2133307 -0.11806008 0
-1.5232613 2.2593248 -0.13243151 0
-1.3101878 2.2666128 -0.1333884 0
-1.2183239 2.2254891 -0.13439494 0
-1.1469879 2.2549534 -0.13611247 0
-1.0573856 2.2497509 -0.14052492 0
-0.96889585 2.2340348 -0.14200731 0
-0.87489718 2.2355824 -0.14700767 0
-0.7592144 2.2539535 -0.1472103 0
-0.60417545 2.215615 -0.14622688 0
-0.53903651 2.2643232 -0.14149109 0
-0.42179918 2.229877 -0.14215329 0
-0.33513933 2.2223575 -0.14278406 0
-0.261731 2.2440424 -0.14159149 0
-0.15435416 2.2191641 -0.14010683 0
-0.054601483 2.2768655 -0.13645613 0
0.046896856 2.2506394 -0.13358684 0
0.14901666 2.2756708 -0.13030337 0
0.25918773 2.2453263 -0.12929289 0
0.35822341 2.2438107 -0.12790078 0
0.45263085 2.2403615 -0.12611671 0
0.53522992 2.2352026 -0.12519713 0
0.65632319 2.2347305 -0.12315497 0
0.73450005 2.2319999 -0.1225 0
0.93078172 2.2361097 -0.120557 0
1.0665936 2.2576165 -0.12027168 0
1.2706852 2.2681992 -0.12051124 0
-1.556 2.3069999 -0.13 0
-0.94643956 2.342335 -0.14138898 0
-0.8510319 2.3324413 -0.1438562 0
-0.75902164 2.3394639 -0.14379752 0
-0.64099127 2.3437207 -0.14256196 0
-0.55984294 2.3518364 -0.13983116 0
-0.43845901 2.3185523 -0.14098395 0
-0.32762057 2.3535929 -0.14138316 0
-0.27237719 2.3336511 -0.14070977 0
-0.17137541 2.3368902 -0.13878743 0
-0.056147136 2.3666377 -0.13482526 0
0.067583136 2.3420026 -0.13075019 0
0.16390422 2.3657699 -0.12768178 0
0.2424648 2.3422506 -0.12564659 0
0.34551278 2.3630934 -0.12503448 0
0.44900388 2.3240333 -0.12463608 0
0.5115 2.3095 -0.1235 0
-0.95187777 2.4555004 -0.13744408 0
-0.86299348 2.4578209 -0.1388717 0
-0.78722596 2.4227567 -0.14055702 0
-0.64352149 2.4572055 -0.13879374 0
-0.55206311 2.4361145 -0.13765201 0
-0.46962777 2.4347019 -0.13943009 0
-0.35349131 2.4591124 -0.14047946 0
-0.23057285 2.4670966 -0.13817587 0
-0.14383793 2.4478383 -0.13570698 0
-0.057692781 2.4564099 -0.13319439 0
0.14819618 2.461231 -0.12519424 0
0.23444265 2.4333119 -0.12410304 0
0.403 2.402 -0.122 0
-1.0363197 2.5558801 -0.13246471 0
-0.95849925 2.5773673 -0.13251248 0
-0.82953244 2.5476961 -0.13569628 0
-0.70235097 2.55723 -0.13645375 0
-0.631841 2.5290968 -0.13678908 0
-0.54414856 2.5513051 -0.13686357 0
-0.45228136 2.5466661 -0.13804388 0
-0.36164436 2.5777082 -0.13937914 0
-0.23907636 2.5566278 -0.13707136 0
-0.15080552 2.5818062 -0.13364837 0
-0.049158957 2.5494547 -0.13104235 0
0.16493881 2.5635068 -0.12168735 0
0.24296814 2.5356178 -0.12133501 0
-2.0480001 2.697 -0.11 0
-1.0075812 2.6620827 -0.12727286 0
-0.92490393 2.628442 -0.13141282 0
-0.85299999 2.6170001 -0.133 0
-0.72694743 2.642817 -0.13400525 0
-0.6401487 2.6452029 -0.1342959 0
-0.5556286 2.6568184 -0.13571377 0
-0.44083422 2.6749554 -0.13742752 0
-0.34281993 2.6650808 -0.13860776 0
-0.24953991 2.6660798 -0.13573343 0
-0.153 2.6240001 -0.133 0
-0.090999998 2.6010001 -0.132 0
0.12882295 2.6475873 -0.12109794 0
-2.0909278 2.7593758 -0.10075036 0
-1.0391625 2.7461653 -0.12254573 0
-0.94131905 2.780087 -0.12331195 0
-0.88060713 2.7032609 -0.12807347 0
-0.44749999 2.7160001 -0.13699999 0
-0.35299999 2.7390001 -0.138 0
-1.886 2.898 -0.106 0
-1.0374398 2.8431137 -0.11826701 0
-0.93582141 2.8757823 -0.11822042 0
-0.16 2.8425 -0.1175 0
-1.1181157 2.9563718 -0.1107279 0
-1.0338476 2.9413059 -0.11395391 0
-0.96342856 2.962043 -0.11329389 0
-0.33700001 2.924 -0.115 0
-0.20221472 2.9497404 -0.11343309 0
-0.13201047 2.9125986 -0.11454954 0
-1.757 3.006 -0.102 0
-1.1654876 3.0824959 -0.1036372 0
-1.0635595 3.0266323 -0.10919239 0
-0.9910357 3.0483036 -0.10836736 0
-0.56300002 3.0190001 -0.111 0
-0.34928641 3.0121794 -0.11086829 0
-0.21042942 3.038481 -0.10986617 0
-0.14102618 3.0454969 -0.10937385 0
-1.0559571 3.1232617 -0.10393585 0
-0.60022569 3.1949761 -0.10204194 0
-0.58161288 3.106988 -0.10652097 0
-0.36771601 3.1444488 -0.10467072 0
-0.21864413 3.1272213 -0.10629927 0
-0.15004191 3.1783953 -0.10419817 0
-0.22685882 3.2159617 -0.10273235 0
-0.15605238 3.266994 -0.10074771 0
0.48699999 -2.961 -0.027999997 0
0.68000001 -2.908 -0.063000001 0
0.77018666 -2.965837 -0.044270921 0
-2.0669999 -2.832 -0.0019999966 0
0.47123197 -2.8526421 -0.039352968 0
0.66899055 -2.8501012 -0.059804212 0
0.73932672 -2.8462148 -0.05572411 0
0.80699998 -2.8169999 -0.039999999 0
0.94300002 -2.832 -0.043000005 0
-2.0180156 -2.7665486 -0.014193945 0
0.44047785 -2.717088 -0.063115925 0
0.64303029 -2.716912 -0.056343101 0
0.75610578 -2.7683458 -0.054813571 0
0.85911179 -2.7519703 -0.04366301 0
0.914029 -2.7417994 -0.05738277 0
-1.9390752 -2.6610708 -0.033845078 0
-1.365 -2.612 -0.043000005 0
-1.2869999 -2.6040001 -0.041999999 0
0.45217362 -2.6445847 -0.058354497 0
0.50400001 -2.6730001 -0.028000005 0
0.65896261 -2.6536117 -0.068937279 0
0.75944865 -2.6552019 -0.062540576 0
0.85303235 -2.6430426 -0.06789133 0
-1.8601348 -2.555593 -0.053496212 0
-1.3237505 -2.5328908 -0.04395242 0
-1.2600055 -2.5477171 -0.037652463 0
-0.013 -2.5250001 -0.042999998 0
0.054000001 -2.5369999 -0.093000002 0
0.17151147 -2.533257 -0.086572781 0
0.39381474 -2.5090785 -0.094502106 0
0.43778715 -2.5594215 -0.068745434 0
0.6422267 -2.5470521 -0.081317611 0
0.7518276 -2.521122 -0.083145395 0
0.82816237 -2.5660932 -0.080838419 0
-1.8075079 -2.4852743 -0.06659697 0
-1.7548809 -2.4149559 -0.079697728 0
-1.531 -2.4949999 -0.044 0
-1.4911554 -2.4305959 -0.049839303 0
-1.2432255 -2.4546139 -0.045518719 0
-0.116 -2.447 -0.1 0
-0.013490414 -2.4699755 -0.049767718 0
0.027107066 -2.4672496 -0.065552443 0
0.12971027 -2.4473338 -0.070528127 0
0.43819344 -2.4568481 -0.071453512 0
0.58201516 -2.461956 -0.084671549 0
0.62909335 -2.4189184 -0.096635461 0
0.70031053 -2.4539785 -0.090573587 0
1.5971686 -2.4236267 -0.084134042 0
1.6289197 -2.4711306 -0.070839137 0
-1.9755576 -2.3700573 -0.074647345 0
-1.7022539 -2.3446372 -0.092798486 0
-1.507 -2.3340001 -0.043000005 0
-1.4656249 -2.3289828 -0.051594913 0
-1.2410614 -2.374315 -0.045893826 0
-1.1706525 -2.3583069 -0.039088655 0
-0.014617811 -2.3434815 -0.065325789 0
0.0032157551 -2.3490839 -0.054434516 0
0.13535234 -2.3488007 -0.085533753 0
0.42389509 -2.371511 -0.082590133 0
0.5616768 -2.3769708 -0.094114363 0
1.5404267 -2.3490608 -0.065309472 0
-1.9170865 -2.297586 -0.089471027 0
-1.439445 -2.2299788 -0.05476331 0
-1.3733344 -2.2401524 -0.067106172 0
-1.2005504 -2.2903001 -0.018749369 0
-1.1366483 -2.2301345 -0.077290878 0
-0.015745208 -2.2169878 -0.080883861 0
0.0051438366 -2.2247226 -0.073956341 0
0.10726704 -2.2584443 -0.082977861 0
0.38770163 -2.2786217 -0.099494815 0
0.43149182 -2.2937264 -0.087958701 0
1.4960001 -2.293 -0.041000001 0
1.5480373 -2.2816081 -0.087680042 0
-1.3471545 -2.1411486 -0.070274562 0
-1.1170278 -2.1364512 -0.04880593 0
-1.0307864 -2.1428246 -0.09591829 0
-0.95899999 -2.108 -0.1 0
-0.86299998 -2.1265001 -0.085500002 0
-0.25099999 -2.1270001 -0.097000003 0
-0.016496804 -2.1326585 -0.091255911 0
0.0064292243 -2.1418149 -0.086970896 0
0.10551136 -2.1766295 -0.092985243 0
-2.5280001 -2.0079999 -0.071000002 0
-1.418 -2.0880001 -0.038999997 0
-1.3671243 -2.0498755 -0.033456244 0
-1.2758125 -2.0294914 -0.082047462 0
-1.0756834 -2.0571637 -0.049776636 0
-0.84260452 -2.077239 -0.093595445 0
-0.77899998 -2.0840001 -0.097999997 0
0.0077146119 -2.0589075 -0.099985451 0
-2.4645081 -1.955727 -0.074739717 0
-1.4000487 -1.9972347 -0.0012286771 0
-1.3291197 -1.950946 -0.023781829 0
-1.2283593 -1.9546186 -0.0896606 0
-2.7539999 -1.823 -0.068000004 0
-2.658669 -1.8493043 -0.066960327 0
-2.3594317 -1.869218 -0.080928758 0
-1.2500854 -1.8642263 -0.066702299 0
-1.1612568 -1.8973546 -0.098186515 0
-2.8859479 -1.7343912 -0.048606619 0
-2.7322266 -1.766633 -0.029562199 0
-2.6397388 -1.7506773 -0.076273605 0
-2.5665193 -1.7457138 -0.077363677 0
-2.4948704 -1.738487 -0.07793653 0
-2.2543557 -1.7827089 -0.087117806 0
-2.1843047 -1.7250361 -0.091243833 0
-3.163692 -1.6624048 -0.058929395 0
-3.0657957 -1.6487643 -0.025453657 0
-2.9614172 -1.6122677 -0.02391924 0
-2.8579128 -1.6655153 -0.028539568 0
-2.7597983 -1.6470971 -0.036930338 0
-2.6354513 -1.6408131 -0.034185145 0
-2.5523398 -1.6292877 -0.038714059 0
-2.4393642 -1.6492643 -0.087705813 0
-2.3454027 -1.6373652 -0.087952398 0
-2.114254 -1.6673634 -0.095369861 0
-2.0442033 -1.6096908 -0.099495888 0
-2.9462876 -1.5431073 -0.069394097 0
-2.8431811 -1.548223 -0.04376604 0
-2.7119107 -1.5599158 -0.036283761 0
-2.6462855 -1.5550833 -0.069688596 0
-2.5494111 -1.5367951 -0.082616277 0
-2.4566 -1.5416908 -0.060458366 0
-2.3345215 -1.5574874 -0.098374225 0
-2.270669 -1.5868044 -0.092960328 0
-2.1959352 -1.5362434 -0.097968265 0
-3.309 -1.443 -0.064000003 0
-3.2560601 -1.4193363 -0.067109659 0
-2.8274302 -1.4778858 -0.075115278 0
-2.7365685 -1.4592917 -0.071271114 0
-2.6461208 -1.4414821 -0.076844029 0
-2.5587935 -1.4725112 -0.065631263 0
-2.4482949 -1.447367 -0.08095371 0
-2.3323908 -1.4519112 -0.084679917 0
-2.2515743 -1.4354091 -0.086306021 0
-3.1754274 -1.3832942 -0.071845949 0
-3.0544786 -1.3292313 -0.07895039 0
-2.6689534 -1.3909239 -0.082743518 0
-2.5558295 -1.3500634 -0.089001536 0
-2.4056761 -1.3851067 -0.094978757 0
-2.1763828 -1.3869393 -0.098204017 0
-2.9335301 -1.2751682 -0.086054824 0
-2.8528976 -1.2391261 -0.090791121 0
-2.772265 -1.2030841 -0.095527411 0
-2.4312384 -1.260481 -0.094185874 0
-2.352 -1.217 -0.097999997 0
-3.23 -1.138 -0.064999998 0
-3.1603549 -1.11414 -0.075317807 0
-3.0513456 -1.0767943 -0.091467321 0
-4.2299852 -0.940889 -0.0061768889 0
-4.1426544 -0.92040753 -0.018314071 0
-4.0553236 -0.89992601 -0.030451257 0
-3.9679925 -0.87944454 -0.042588443 0
-3.8806617 -0.85896301 -0.054725632 0
-3.7496655 -0.82824075 -0.072931409 0
-4.23 -0.72000003 -0.092 0
-4.1741199 -0.71137148 -0.099395886 0
-4.273663 -0.66665393 -0.087285928 0
-6.2608662 -0.17724684 -0.033443063 0
-6.1464291 -0.17832771 -0.05289878 0
-6.0581255 -0.17916174 -0.067911431 0
-5.9698215 -0.17999579 -0.08292409 0
-5.8815179 -0.18082982 -0.097936742 0
3.8225915 1.5739805 -0.099269986 0
-2.1433544 1.7342092 -0.088195428 0
3.231009 1.8814869 -0.087106131 0
-2.4395664 2.0719771 -0.09624064 0
-2.3499374 2.0729446 -0.088725172 0
-2.5423362 2.1589704 -0.083412841 0
-2.4310431 2.1491656 -0.074622847 0
-2.3696404 2.1895955 -0.091146082 0
-2.2292318 2.1729348 -0.084748559 0
-2.1654239 2.1119511 -0.09981142 0
-2.6451061 2.2459636 -0.070585027 0
-2.5479355 2.2471337 -0.057367295 0
-2.4560933 2.2257872 -0.069356106 0
-2.3568478 2.2949021 -0.054622844 0
-2.2534637 2.2516665 -0.073998794 0
-2.1310937 2.2360668 -0.086795583 0
-2.0406668 2.2448106 -0.085679665 0
-1.9732894 2.2221112 -0.090196803 0
-1.8999584 2.236196 -0.089661151 0
-2.7632506 2.3459711 -0.055838149 0
-2.6592529 2.3538442 -0.031539697 0
-2.5364604 2.3343933 -0.064719126 0
-2.4314878 2.3510306 -0.067646503 0
-2.3378425 2.3971806 -0.05203665 0
-2.2400796 2.3569343 -0.074164249 0
-2.1713331 2.3327227 -0.070169985 0
-2.053936 2.3644805 -0.064143464 0
-1.9584481 2.3044951 -0.076826446 0
-2.6392763 2.423636 -0.048431478 0
-2.5562701 2.467108 -0.041117985 0
-2.4844637 2.4168694 -0.024497129 0
-2.3673987 2.462528 -0.059539642 0
-2.2585013 2.4521711 -0.058090154 0
-2.1497562 2.4231946 -0.05134441 0
-2.0754273 2.441093 -0.05115702 0
-2.553 2.5495 -0.0069999993 0
-2.4451075 2.5704916 -0.036428347 0
-2.3754869 2.5288711 -0.052482631 0
-2.2674007 2.55725 -0.025442816 0
-2.1631618 2.5435414 -0.031904943 0
-2.48 2.6389999 -0.033999998 0
-2.3296115 2.628139 -0.011746004 0
-2.250896 2.6459899 -0.012652874 0
-2.3039999 2.7079999 -0.001000002 0
-2.1553197 2.8529396 -0.086875901 0
-2.2243557 2.9532516 -0.072000727 0
-1.9262941 2.9601092 -0.099327102 0
-2.006882 3.0843279 -0.085981317 0
-1.966588 3.0222185 -0.092654213 0
-1.7948246 3.0665762 -0.097449668 0
-1.117 3.0940001 -0.097999997 0
-2.043 3.1400001 -0.079999998 0
-1.8515615 3.1574407 -0.090624176 0
-1.301 3.1389999 -0.096000001 0
-1.2224048 3.1512237 -0.091496438 0
-1.1560782 3.180711 -0.095448203 0
-1.89 3.2190001 -0.086000003 0
-1.3525872 3.2590079 -0.077718228 0
-1.2501348 3.2627783 -0.084584326 0
-1.1660302 3.2725754 -0.086219132 0
-1.04625 3.2208252 -0.098514304 0
-0.61883855 3.282964 -0.097562917 0
-0.38614562 3.2767177 -0.098473154 0
-1.4041743 3.3790162 -0.059436448 0
-1.3044292 3.357343 -0.06397859 0
-1.2353896 3.3407762 -0.078375734 0
-1.1419357 3.3806424 -0.089403763 0
-1.0738572 3.307086 -0.093587771 0
-0.63745141 3.3709521 -0.093083888 0
-0.39843202 3.364897 -0.094341442 0
-0.23918089 3.3490725 -0.097381979 0
-0.16206285 3.355593 -0.097297251 0
-1.4385659 3.4590216 -0.047248598 0
-1.3372389 3.4397907 -0.052971452 0
-1.2427123 3.4485855 -0.077611417 0
-1.1290715 3.4796073 -0.083734706 0
-0.65606427 3.45894 -0.088604867 0
-0.41071844 3.4530764 -0.09020973 0
-0.25150296 3.482183 -0.092031613 0
-0.16807333 3.4441917 -0.093846798 0
-1.4729573 3.539027 -0.035060748 0
-1.3370721 3.5609276 -0.039277829 0
-1.2729129 3.5153475 -0.04682612 0
-1.15 3.5450001 -0.079999998 0
-0.67467707 3.5469282 -0.084125832 0
-0.42300484 3.541256 -0.086078018 0
-0.25971764 3.5709236 -0.088464707 0
-0.1740838 3.5327907 -0.090396337 0
-1.5245445 3.6590352 -0.016778968 0
-1.4192634 3.6459098 -0.025453605 0
-1.335278 3.6838865 -0.02635657 0
-0.69328994 3.6349163 -0.079646811 0
-0.43529123 3.6294353 -0.081946306 0
-0.2689662 3.6708319 -0.084448889 0
-0.18000001 3.6199999 -0.086999997 0
-1.468478 3.7695816 -0.0089428946 0
-1.3664607 3.7681561 -0.016121797 0
-0.7119028 3.7229042 -0.075167775 0
-0.44878882 3.7263074 -0.0774073 0
-1.3976433 3.8524256 -0.0058870241 0
-0.73982203 3.8548861 -0.068449244 0
-0.75 3.9030001 -0.066 0
6.5830002 -5.6149998 0.029999999 0
6.9349999 -5.6479998 0.028000001 0
6.4513378 -5.5092573 0.053858317 0
6.517169 -5.5621285 0.041929159 0
6.7970233 -5.5423574 0.051201791 0
6.8660116 -5.5951786 0.039600894 0
6.3525906 -5.4299507 0.071752056 0
6.6590466 -5.4367156 0.074403577 0
6.728035 -5.4895363 0.062802687 0
6.2538438 -5.3506441 0.089645796 0
6.5555639 -5.3574839 0.091804922 0
6.6799998 -4.7220001 0.017000001 0
6.5339789 -4.6265249 0.044378951 0
6.6069894 -4.6742625 0.030689478 0
6.387958 -4.5310497 0.071757905 0
6.4609685 -4.5787873 0.058068428 0
6.2419367 -4.4355741 0.099136844 0
6.3149476 -4.4833117 0.085447371 0
-0.30994043 -2.568506 0.033978902 0
-2.6300001 -2.4779999 0.0060000001 0
-2.5643928 -2.4180503 0.0126369 0
-0.30030468 -2.4886096 0.030566242 0
-0.29072851 -2.4092071 0.027174681 0
-2.4987853 -2.3581007 0.019273799 0
-0.28115234 -2.3298049 0.023783121 0
-2.4331779 -2.2981508 0.025910698 0
-2.3675704 -2.2382011 0.032547601 0
-1.1330011 -2.2883697 0.010530245 0
-1.0945013 -2.2094619 0.023662809 0
-0.27157617 -2.2504025 0.020391561 0
-2.3019631 -2.1782515 0.039184496 0
-2.2363558 -2.1183019 0.045821395 0
-1.4885731 -2.1163521 0.024156986 0
-1.0560015 -2.1305544 0.036795374 0
-0.26199999 -2.171 0.017000001 0
-2.1707482 -2.0583522 0.052458294 0
-1.4410974 -2.0524693 0.010542646 0
-1.3520566 -2.052669 0.0043139681 0
-1.0175018 -2.0516467 0.049927931 0
-0.71200001 -2.0969999 0.014 0
-0.67947268 -2.0255814 0.025313858 0
-2.1051409 -1.9984025 0.059095193 0
-2.0332668 -1.9327264 0.066366047 0
-1.2802263 -1.9466754 0.0082558729 0
-1.0361009 -1.9686005 0.0055012591 0
-0.96150106 -1.9368696 0.069030248 0
-0.85612279 -1.9530276 0.017167622 0
-0.66600001 -1.9960001 0.029999999 0
-1.2324381 -1.8446394 0.0063329963 0
-1.1844527 -1.8053508 0.013511747 0
-0.97443223 -1.8479631 0.014595244 0
-2.881 -1.747 1.6857726e-15 0
-2.7969999 -1.7869999 -3.798502e-14 0
-1.1616515 -1.7378346 0.014512881 0
-0.93099999 -1.763 0.021000002 0
-1.1224887 -1.6555926 0.025292918 0
-1.0745597 -1.6303421 0.019589206 0
-4.6269999 -1.034 0.049000002 0
-4.5793085 -1.022815 0.042371854 0
-4.4919777 -1.0023335 0.030234665 0
-4.4046469 -0.98185205 0.018097483 0
-4.3173161 -0.96137053 0.0059603006 0
