# .PCD v0.7 - Point Cloud Data file format
VERSION 0.7
FIELDS x y z intensity
SIZE 4 4 4 4
TYPE F F F F
COUNT 1 1 1 1
WIDTH 327
HEIGHT 1
VIEWPOINT 0 0 0 1 0 0 0
POINTS 327
DATA ascii
-7.6089716 0.50962061 2.0303192 11
-7.4698715 0.65057921 2.1713424 12
-7.2918968 0.75660777 1.5963502 10
-7.2945757 1.1677412 2.0184777 11
-6.8432727 1.6717358 1.7425822 11
-6.8272629 1.5906152 2.1615534 12
-6.8016496 2.3479178 2.2648058 12
-6.7997212 2.3650143 1.7768117 11
-4.2748551 1.1219825 0.79807687 9
-4.1569061 1.1609999 0.37007591 6
-4.072474 -2.1698024 2.5522184 18
-3.2018609 1.4806446 0.34180388 6
-3.2750676 -3.3284769 2.0480325 16
-3.1146841 1.4657251 0.08519879 4
-3.1378691 1.4479024 0.50735807 7.5
-3.067297 1.6231247 0.44283184 7
-3.1190968 1.4890939 0.71935332 9.5
-3.1034305 1.5323856 1.1178459 13
-3.0897892 1.6275749 1.3208157 14
-3.1038773 1.5787469 1.7108269 17
-3.1615632 -3.0854847 2.3000412 17.5
-2.8340135 1.5915172 0.05149439 3.5
-2.821708 1.6206863 0.26849067 5.5
-2.8302481 1.5887816 0.49399808 8
-2.8086362 1.6979909 0.6894685 9.5
-2.8404393 1.5829715 0.87399399 11
-2.8305435 1.6130362 0.92198837 12
-2.8198049 1.6283052 1.329989 15
-2.8357501 1.5793216 1.4609987 16
-2.8186126 2.757715 1.5015405 14
-2.8157411 1.9026639 1.7898827 18
-2.9351807 -2.0663533 2.4401126 21
-2.8231483 -1.9953966 2.55511 22
-2.8687816 -1.1096051 2.5207505 23.5
-2.8792853 -0.67094117 2.5063472 24
-2.720403 2.1300352 0.10185395 4
-2.7868264 2.7410033 0.049567711 4
-2.7166486 2.1841817 0.31783503 6
-2.7949693 2.7531073 0.27355763 5
-2.6787994 2.1994061 0.53485382 8
-2.6888003 2.2123518 0.47784215 7
-2.6566086 2.9696743 0.57456213 8
-2.6992548 2.1454277 0.69836193 9.5
-2.6801009 2.2286558 0.97684163 11
-2.7987463 1.647254 1.1319952 13
-2.6817255 2.2492366 1.1203324 12.5
-2.7074149 2.0767319 1.316884 14.5
-2.713177 2.1388531 1.5298556 16
-2.7162485 2.1294425 1.7088574 17.5
-2.69192 2.8521674 1.7035861 15.5
-2.7152083 2.4612145 2.0507262 19
-2.7755826 1.1856929 2.4629257 24
-2.4186502 -3.3867702 1.0359968 11
-2.4677067 -3.2647443 1.3500013 13
-2.4386845 -3.271759 1.4850001 14
-2.5022714 3.0516024 1.5556308 15
-2.5481081 2.8916569 1.9256648 17
-2.5647399 -3.2547343 2.1410043 18
-2.5910578 2.8455923 2.0216551 18
-2.5391393 -1.615422 2.3681278 23
-2.5387673 -3.0687263 2.4870102 20
-2.4391789 1.1228751 2.5584369 26
-2.2494788 0.23838601 0.073521271 4
-2.3616409 -3.2877798 1.252998 12
-2.394613 -3.3977995 1.8539963 16
-2.221148 1.5813401 2.1463974 23
-2.3768964 2.7491894 2.1668346 19
-2.3406174 -3.233808 2.3589985 19
-2.2820413 -1.6375493 2.3430979 24
-2.2834516 1.2622192 2.3684816 25
-2.3310719 -1.5385158 2.538116 25
-2.1815169 0.14231811 -0.067519873 2
-2.0313873 -3.4268975 1.6789926 15
-2.1702504 3.0374696 1.6518549 16
-2.0028048 2.7241082 2.1700919 20
-2.0602918 1.1957899 2.3676524 27
-2.143666 1.5541227 2.3024585 24.5
-2.0535164 -3.0028639 2.4899981 21
-2.0809681 -1.5596352 2.5290873 26
-2.0956893 -0.23526359 2.5648513 29.5
-2.0863001 1.1618176 2.5496492 28
-1.9943066 -0.96530992 -0.035835505 3
-1.8795877 -2.603812 0.38200399 7
-1.9874556 -3.0798855 2.354996 20
-1.8908397 -1.7207346 2.3310533 25
-1.8161976 -0.11837143 2.3713462 31
-1.830283 1.1434951 2.5688236 29
-1.7551382 -1.1305033 -0.041892141 3
-1.7600013 -0.14909028 -0.057670854 2.5
-1.6473966 -2.6898906 0.11399785 4
-1.7281164 -1.1335257 0.054104295 4
-1.610265 -0.68710327 0.11483428 5
-1.6994501 -0.23486219 0.15562816 6
-1.7664917 -0.1410948 0.03433251 4
-1.6936246 -1.04153 0.27961427 7.5
-1.6112615 -0.66894209 0.25167161 7.5
-1.6694199 -0.2687476 0.30178064 8.5
-1.6588849 -2.7263992 0.55249757 8.5
-1.6803885 -0.27927729 0.55927926 13
-1.6201019 -3.4569795 1.6319982 15
-1.6266282 2.7817376 1.6363169 17
-1.6441218 -3.4419763 2.0819976 18
-1.6801095 1.5567209 2.1407652 26
-1.6753409 1.6517503 2.1447318 25
-1.6583369 2.3063707 2.1304874 22.5
-1.7201881 -3.3929632 2.2159958 19
-1.6596884 -1.7848289 2.3380311 26
-1.7231206 1.5127325 2.3737535 27
-1.6093216 -2.724941 2.5469973 24
-1.7197255 -1.7648114 2.4650366 27
-1.7591609 1.0936714 2.5728893 30
-1.4628528 -1.3567164 -0.046949822 3
-1.4443675 -0.39839673 -0.076788023 2
-1.4788537 -1.3687161 0.036050458 4
-1.5790453 -1.1105994 0.094090506 5
-1.5939037 -0.35680559 0.078245036 4.5
-1.5973169 -2.7999184 0.2619966 6
-1.5680513 -1.048606 0.37909809 9
-1.4829619 -1.1106768 0.53707993 12
-1.5160027 -1.0496531 0.67759192 13.5
-1.5472302 -2.9184489 0.93299663 11.5
-1.4180455 1.5173821 2.1679571 28
-1.5391704 -3.0499711 2.3599963 21
-1.2520397 -2.8129923 0.01100086 3
-1.3437611 -1.3517767 0.14254038 5.5
-1.2246834 -1.3188221 0.21503344 7
-1.2051771 -1.2823346 0.50153482 11.5
-1.2577518 -1.2138054 0.60704547 13
-1.3123242 -1.1432701 0.6795584 14.5
-1.2588227 -3.4860241 0.99101299 11
-1.2533213 -3.4800236 1.111513 12.5
-1.2548269 -3.4930151 2.130013 19
-1.3485863 1.7515631 2.1419137 26
-1.3014736 -3.1315 2.3645039 21.5
-1.3131365 1.5077493 2.3775315 29.5
-1.2059511 -2.9780009 2.5430048 23
-1.3514599 -1.8399292 2.5400112 28
-1.1359386 -2.8200107 0.072004445 4
-1.1609485 -2.8530085 0.21300411 5
-1.1431184 -1.3068551 0.32102814 8.5
-1.1937698 -3.5110233 1.5650172 15
-1.1107103 -3.5050235 1.7820221 17
-1.1507468 -3.4910202 1.9270189 18
-1.0744541 1.6882036 2.1426246 27.5
-1.0266477 -3.5210149 2.3100278 20
-0.90934396 1.2404124 -0.054090615 2.5
-0.94855434 -3.5000536 0.093032531 4
-0.80225056 1.1407866 0.18752155 7
-0.90588015 1.2309816 0.06441538 4.5
-0.80254066 1.5202234 0.97737539 19
-0.82966048 1.5352583 1.1663511 21
-0.97759676 -3.5110307 1.3390309 14
-0.82666832 1.5262939 1.2243568 22
-0.93029565 1.6125332 2.1492522 29
-0.72118497 1.1558396 -0.090427294 1
-0.79523617 1.1437778 0.13752533 6
-0.75638825 -2.0255125 0.23300387 6.5
-0.78906673 1.1436259 0.29727975 9.5
-0.77274436 1.1476648 0.45620644 13
-0.66257727 1.540501 0.90246302 18
-0.69762319 1.5185285 1.1204478 21
-0.62720865 1.5167657 1.2819968 23.5
-0.67012513 1.5167667 1.4751343 25.333334
-0.68735868 -3.5360091 1.6070557 16
-0.53051794 1.1360955 0.53121477 15.5
-0.57649308 1.5156392 0.80153155 17
-0.47861701 1.5149581 1.0285982 21
-0.45970964 1.5021204 1.2836164 24
-0.57286787 1.5190352 1.5935329 27
-0.3924728 -2.0900152 0.19502361 6
-0.31486025 -0.93100202 0.19199784 9
-0.39248005 -2.0710139 0.23302291 7
-0.20755826 1.493421 0.85578752 19
-0.22964405 1.4984643 1.0407711 21
-0.051381525 -0.91796035 0.1809981 9
-0.095521793 -0.78147149 0.26049218 12.5
-0.093918242 -0.55653536 0.54055858 26.142857
-0.0061179884 1.0396676 0.57561749 18.5
-0.0086303558 1.0356863 0.62711769 20
-0.18852709 1.4904255 0.78680134 18
-0.068006404 1.1787169 0.9295156 23.5
-0.066101745 1.2307111 0.90999413 22
-0.19959095 1.4934685 0.92579287 20
-0.15875757 1.4782436 1.3573263 25.5
0.013666134 1.0144387 -0.017858509 3
0.094162568 -1.0206561 0.11176258 6.5
0.023600899 1.0374715 0.016137764 4
0.050790738 -0.76258147 0.26399374 13
0.00060304924 -0.41693598 0.3069742 22.5
0.018865287 1.0272269 0.23547263 10
0.073323764 -0.5228765 0.54597729 27.5
0.043304365 1.0737336 0.53213459 17
0.14697659 1.0387347 0.72171617 21.5
0.040619969 1.059454 1.0436393 26.5
0.1427443 1.235126 1.0501244 24
0.34783378 -1.1682808 0.076550335 5
0.397315 1.018132 0.17937183 8
0.37843257 -0.82270443 0.24702673 11
0.39675573 1.0301768 0.289866 11
0.20612557 -0.6983059 0.40399718 18.5
0.33559304 -0.4116087 0.47797236 25
0.36769038 -0.38122222 0.49363714 25.666666
0.35027087 0.99717414 0.45685554 15.5
0.32087371 1.0381552 0.50365305 16.333334
0.2996738 1.0231979 0.68531477 20.5
0.39574611 1.1744953 1.043299 24
0.32504532 1.2265524 1.4122359 28.5
0.51268512 -0.81762469 -0.049454544 1.5
0.48522007 1.0941938 -0.0016163661 3
0.45158184 -0.79965824 0.079034582 6
0.49338594 0.95054811 0.079120517 5.6666665
0.41718158 -0.76865733 0.28902677 13
0.5202288 0.98985022 0.32094955 11.5
0.44976225 -0.45450082 0.47849235 22.5
0.57844591 1.1175293 0.52742064 15.5
0.40192193 1.0724716 0.99634939 25
0.40567425 1.2274969 0.9972803 23
0.49704474 0.94158888 1.0444599 27
0.52667826 1.1177683 1.3163947 28
0.64793301 -0.71447545 -0.068943001 1
0.64700353 -0.59342915 -0.038957477 2
0.72438949 0.90839756 -0.075411126 1
0.63722873 -0.70545226 0.14372085 8
0.74675834 0.92953622 0.097083047 5.5
0.78809953 -0.580203 0.39906636 15
0.76738608 1.0393238 0.28087747 9.666667
0.7690717 -0.58121508 0.45406297 16
0.77409869 0.94071275 0.48909011 14.5
0.78498095 1.0447423 0.45054975 13
0.72809738 0.90271866 0.68758684 19
0.61644286 0.97223932 1.0420048 25.5
0.77574044 0.98205358 1.3925734 29
0.73165512 1.0560341 1.4085213 28
0.8522498 0.92561924 -0.019370656 3
0.8892709 -0.5221194 0.085078247 6
0.86022902 0.92164969 0.044634294 4
0.99533409 -0.43490371 0.35608712 13
0.99132466 -0.4108755 0.44808272 15
0.97675866 1.1040688 0.68060559 16
0.96571374 1.0661441 0.96661693 21
0.93572152 1.0461309 1.045113 22.5
1.0989501 -0.43335474 0.026608504 4
1.1509174 0.84796941 0.10177271 5.5
1.0223621 -0.44239572 0.26759383 10.5
1.1610651 0.89555442 0.26625812 8.5
1.1508693 1.066129 0.31968856 9
1.1846584 1.2502074 0.25262797 7.5
1.0043375 -0.41086742 0.41608533 14
1.161985 0.90488613 0.49650511 13
1.1164534 1.0931641 0.50699818 13
1.1314492 0.89365834 0.67874867 16.5
1.1738236 0.90931332 0.98775768 21
1.0458117 0.94020808 1.0406994 22
1.1637086 1.0123529 1.0007145 21
1.1536982 0.92142248 1.363746 25.5
1.07971 0.91485661 1.4102216 27
1.2895662 0.8278234 -0.084775992 1.5
1.5756085 0.79239488 0.075927623 4.5
1.5650618 0.8254202 0.14191379 6
1.5795559 0.79295349 0.25242865 7.5
1.5819446 0.87253535 0.37990353 9
1.5812473 0.87156665 0.48523685 11
1.5818422 0.89412981 0.65039617 13.5
1.5787382 0.92971945 0.88688362 17
1.5815932 0.93986899 1.335881 22
1.5326079 0.91382682 1.4078746 23
1.5455053 1.1897814 2.3242817 29.5
1.6016471 -0.59242409 -0.098760717 1
1.7586771 -0.37813684 -0.10475447 1.5
1.7276477 -0.40015507 0.02224176 4
1.7629684 -0.3484078 0.076575458 4.6666665
1.7055987 -0.35511088 0.20923018 7
1.7262887 -1.2891988 2.3713341 28
1.7932689 -0.87488925 2.3783138 30
1.9380932 0.72775245 0.092050269 5
1.9515463 0.73281223 0.2380525 6.5
1.9619585 0.74490982 0.51055193 10.5
1.9489276 0.74693036 0.62304801 12
1.9538112 0.78654182 0.90803778 15.5
1.9597113 0.76666105 1.3300451 20.5
1.9693564 -1.0487975 2.3743699 28
1.906196 -0.43546468 2.376287 30
1.8853083 0.87747008 2.3929918 29
1.9265654 1.0991331 2.3554342 27.5
1.8943096 0.82250279 2.5890102 30
2.1245556 -0.91373473 1.4003925 20
2.1354072 -0.77051258 2.0163801 25
2.0568962 -1.0632173 2.326391 26.5
2.1950669 1.0728998 2.3760214 26
2.3422825 0.480003 -0.054780833 3
2.3582423 0.47906119 0.098223388 4.5
2.3686025 -0.36731344 0.59838331 11
2.3621333 0.47118178 0.54222625 10
2.378 0.64129108 0.51518965 9
2.2226672 -0.65763551 0.63938749 11.5
2.3255901 -0.43536514 0.75838286 13
2.3625836 -0.3723017 0.69138247 12
2.3530507 0.53124636 0.68120992 12
2.2685888 -0.54496086 0.9078843 14.5
2.3780215 0.46531707 0.99023169 15
2.2515647 -0.64048404 1.1553921 17
2.2955303 -0.47784948 1.0913817 16.5
2.3917267 0.74455571 1.1841671 17
2.2080498 -0.73155314 1.3148925 18.5
2.2919905 -0.50181699 1.3243841 18.5
2.3869228 0.47942683 1.3262304 18
2.3625739 0.87263328 1.2961253 18
2.3699071 0.46543017 1.4362295 19
2.2756484 0.77351624 1.4081287 19
2.2944257 -0.50924766 1.6473857 21.5
2.2229309 -0.68489331 1.8623906 23.5
2.3864622 0.82079804 1.8841456 23
2.3671908 -0.22685614 2.1763618 26
2.3992302 0.98996991 2.0741026 24
2.341064 1.0800369 2.3190608 25
2.4219079 0.64043128 0.85120106 13
2.4044557 0.84181273 1.8261449 22
2.453733 0.4546982 2.1272531 24
2.6782513 0.39738593 0.21832044 6
2.6419995 0.41761169 1.1613075 16
3.0376394 -0.36457977 0.64553732 9
3.6903589 0.18836267 0.30060291 6
3.7541292 -0.0052846447 1.9036503 17
3.7578731 0.29991773 1.9205991 17
3.7301006 -0.00028137321 2.0086434 18
3.7489288 0.16688436 2.1596205 19
3.7218463 0.29990891 2.0345905 18
