# .PCD v0.7 - Point Cloud Data file format
VERSION 0.7
FIELDS x y z intensity
SIZE 4 4 4 4
TYPE F F F F
COUNT 1 1 1 1
WIDTH 948
HEIGHT 1
VIEWPOINT 0 0 0 1 0 0 0
POINTS 948
DATA ascii
-1.2687461 -2.9576526 -0.17665353 0
-1.2251191 -2.8567288 -0.17898032 0
-0.88289088 -2.843194 -0.17182827 0
-1.8413925 -2.7442946 -0.1681421 0
-1.786 -2.7639999 -0.108 0
-1.1780596 -2.7478642 -0.18149015 0
-0.84956354 -2.7207761 -0.15331309 0
-0.667 -2.7290001 -0.178 0
-1.7845868 -2.6608574 -0.16936372 0
-1.699 -2.605 -0.103 0
-1.5438411 -2.6511664 -0.14195423 0
-1.131 -2.6389999 -0.184 0
-0.82734531 -2.639164 -0.14096963 0
-0.7789346 -2.6481524 -0.1740247 0
-0.64622259 -2.6442828 -0.1695901 0
-1.7343884 -2.5871253 -0.17044327 0
-1.68419 -2.5133932 -0.1715228 0
-1.5148685 -2.5245886 -0.15987004 0
-1.4688576 -2.5592251 -0.15608531 0
-0.80512708 -2.5575519 -0.12862617 0
-0.74573845 -2.5376089 -0.15609875 0
-0.62544525 -2.5595653 -0.16118021 0
-1.6339917 -2.439661 -0.17260233 0
-1.4396231 -2.4503973 -0.16356979 0
-0.75325823 -2.4699266 -0.13021544 0
-0.60466784 -2.474848 -0.15277031 0
-1.5837934 -2.3659286 -0.17368187 0
-1.4197867 -2.3704576 -0.16345447 0
-1.3549796 -2.3473179 -0.17486933 0
-0.87699997 -2.336 -0.12800001 0
-0.73108375 -2.3922729 -0.11806838 0
-0.69 -2.352 -0.126 0
-0.5563345 -2.3551815 -0.14410365 0
-1.5335951 -2.2921965 -0.1747614 0
-1.4833966 -2.2184644 -0.17584093 0
-1.3484752 -2.2548597 -0.16614279 0
-0.85280973 -2.2609425 -0.13907778 0
-0.60327435 -2.2461624 -0.12110785 0
-0.52436352 -2.2579331 -0.13494998 0
-0.49078262 -2.22034 -0.13271867 0
-1.6367168 -2.1462574 -0.12655488 0
-1.546782 -2.1170166 -0.10738273 0
-1.4331983 -2.1447322 -0.17692047 0
-1.2771639 -2.1392615 -0.16883112 0
-0.81731987 -2.1508243 -0.15533017 0
-0.56003565 -2.1367681 -0.12144881 0
-0.47517392 -2.1455102 -0.123078 0
-1.5588794 -2.0468254 -0.13509604 0
-1.493956 -2.0448713 -0.11704233 0
-1.3726448 -2.0558953 -0.17783432 0
-1.2296228 -2.0621963 -0.17062335 0
-0.78182995 -2.0407062 -0.17158255 0
-0.52889043 -2.0436306 -0.11736041 0
-0.47085509 -2.0528934 -0.11114577 0
-0.34200001 -2.0439999 -0.115 0
-0.2775 -2.0534999 -0.1135 0
-1.5285684 -1.9578365 -0.1159788 0
-1.4522372 -1.9299501 -0.13159639 0
-1.3455524 -1.9272985 -0.15653919 0
-1.1583114 -1.9465981 -0.17331168 0
-0.32780588 -1.9617665 -0.10126872 0
-0.24763642 -1.9585772 -0.10450581 0
-1.5289242 -1.8550028 -0.10692985 0
-1.4572814 -1.8490438 -0.12679501 0
-1.3653474 -1.8330965 -0.14953803 0
-1.2291007 -1.8465123 -0.17553762 0
-1.1830757 -1.8321116 -0.18068361 0
-1.0856696 -1.8286686 -0.17598732 0
-1.445066 -1.7769189 -0.12662846 0
-1.3723608 -1.7425379 -0.14610821 0
-1.282652 -1.7562904 -0.15568078 0
-1.1250597 -1.7385861 -0.17697735 0
-1.0540781 -1.7411817 -0.17535393 0
-0.95566177 -1.7257794 -0.17674713 0
-1.508 -1.603 -0.124 0
-1.3483497 -1.6619138 -0.16148198 0
-1.2583752 -1.6455249 -0.17046422 0
-1.1471752 -1.6401527 -0.17567252 0
-1.0586504 -1.6577591 -0.17710444 0
-0.94692081 -1.6510502 -0.17368867 0
-0.89200002 -1.689 -0.17399999 0
0.36000001 -1.632 -0.101 0
-1.5069287 -1.5668037 -0.16902381 0
-1.4515296 -1.5262177 -0.14790678 0
-1.3430732 -1.5435503 -0.14040822 0
-1.248266 -1.5387118 -0.17442897 0
-1.15606 -1.5595257 -0.17567299 0
-1.0447413 -1.5569822 -0.17545187 0
-0.98199999 -1.577 -0.176 0
-1.8 -1.4299999 -0.184 0
-1.6220611 -1.4392414 -0.17634685 0
-1.4001336 -1.491197 -0.12833039 0
-1.367497 -1.4384348 -0.15045935 0
-1.2435756 -1.4704895 -0.15958887 0
-1.1505858 -1.4533725 -0.17606173 0
-1.0632732 -1.4533836 -0.17463891 0
-1.7404567 -1.3808851 -0.18287866 0
-1.6731057 -1.3253301 -0.18161027 0
-1.5487657 -1.3507637 -0.17618537 0
-1.4784555 -1.3331497 -0.17636037 0
-1.3329287 -1.3823037 -0.1710238 0
-1.2601705 -1.3506677 -0.14026621 0
-1.1480908 -1.3485185 -0.16496508 0
-1.0634999 -1.3610001 -0.1735 0
-1.6351167 -1.2389722 -0.17676486 0
-1.5610613 -1.2484474 -0.18017726 0
-1.4436693 -1.2550004 -0.14573552 0
-1.3457912 -1.2478539 -0.14945255 0
-1.2551492 -1.2345821 -0.16413307 0
-1.124 -1.278 -0.17200001 0
-1.5466967 -1.1453559 -0.17421451 0
-1.4473302 -1.1611092 -0.17114636 0
-1.3543836 -1.1565472 -0.16166832 0
-1.2507566 -1.1530026 -0.16566558 0
-1.177 -1.1387501 -0.17275 0
-2.007 -1.035 -0.163 0
-1.970926 -1.0158408 -0.1638211 0
-1.8133106 -1.0362418 -0.17494684 0
-1.7239367 -1.0296739 -0.17820318 0
-1.5179809 -1.0648526 -0.13615651 0
-1.4400138 -1.0494826 -0.14256127 0
-1.3517118 -1.0575633 -0.16702552 0
-1.2797306 -1.0562325 -0.17175217 0
-1.192 -1.039 -0.17299999 0
-1.9162765 -0.94764352 -0.17366932 0
-1.8560505 -0.94302607 -0.17147894 0
-1.7377961 -0.93241376 -0.17614444 0
-1.6598827 -0.9381659 -0.16698481 0
-1.5478582 -0.96572667 -0.1585772 0
-1.452731 -0.95041996 -0.15967019 0
-1.3539344 -0.94841921 -0.15923338 0
-1.2566972 -0.95351928 -0.16912544 0
1.3439417 -0.95496738 -0.17368567 0
-1.924 -0.88700002 -0.17200001 0
-1.8462362 -0.85216403 -0.1584222 0
-1.7483517 -0.85783768 -0.16741794 0
-1.6362638 -0.84842867 -0.17459054 0
-1.5502696 -0.85060298 -0.17065196 0
-1.4544177 -0.83808231 -0.1749139 0
-1.3355721 -0.84728104 -0.16808543 0
-1.2474999 -0.84875 -0.171 0
1.1686503 -0.8298043 -0.13711409 0
1.2387669 -0.87986952 -0.15174273 0
1.3360736 -0.80218816 -0.16740234 0
1.409 -0.84600002 -0.18000001 0
-1.7446667 -0.76033336 -0.18033333 0
-1.6599494 -0.75578278 -0.15699367 0
-1.5531462 -0.73531872 -0.15311109 0
-1.4536722 -0.75076425 -0.17398262 0
-1.3544533 -0.7538026 -0.17465343 0
-1.273 -0.75650001 -0.17199999 0
1.0634755 -0.75470644 -0.11517115 0
1.1902207 -0.71456444 -0.14220703 0
1.2509253 -0.73482907 -0.15233244 0
1.3469731 -0.74942946 -0.16498196 0
1.4459366 -0.73795456 -0.1647142 0
1.543 -0.72399998 -0.1495 0
-1.615271 -0.68431616 -0.1523613 0
-1.543602 -0.6721918 -0.13737591 0
-1.4391011 -0.63891029 -0.12461479 0
-1.3611519 -0.64318502 -0.13607067 0
1.0698874 -0.6267522 -0.12036604 0
1.1489123 -0.65459269 -0.13202111 0
1.2370578 -0.64301801 -0.14369664 0
1.3550237 -0.6426003 -0.11994225 0
1.4685521 -0.66722172 -0.12625194 0
1.5575 -0.64900005 -0.153 0
-1.340711 -0.59196031 -0.11839715 0
0.97144133 -0.58312881 -0.10441405 0
1.0459267 -0.56236601 -0.11076692 0
1.129506 -0.5751816 -0.12387373 0
1.3423996 -0.51490813 -0.13770086 0
1.4621142 -0.54170805 -0.15809886 0
1.5495905 -0.52048177 -0.16263825 0
1.6471996 -0.55850405 -0.14505668 0
1.7079999 -0.58399999 -0.133 0
1.164333 -0.44442344 -0.11008404 0
1.2665327 -0.48487753 -0.12593447 0
1.431 -0.48300001 -0.17649999 0
1.5341311 -0.40441254 -0.15318307 0
1.6634917 -0.42290965 -0.14032194 0
1.7290001 -0.41999999 -0.13866667 0
2.4489713 -0.41215539 -0.13118897 0
2.5379653 -0.42838645 -0.12362678 0
2.6269596 -0.44461751 -0.11606458 0
2.7159538 -0.46084857 -0.10850237 0
2.8049481 -0.47707966 -0.10094017 0
1.3789999 -0.34299999 -0.16850001 0
1.4687033 -0.358289 -0.16392404 0
1.5421981 -0.34424987 -0.16126759 0
1.6380929 -0.35058776 -0.15520811 0
1.754907 -0.33004999 -0.15437345 0
1.8656825 -0.33069116 -0.15250964 0
1.9433621 -0.32596481 -0.15834256 0
2.0370431 -0.3292928 -0.16581702 0
2.1580982 -0.34202945 -0.15867212 0
2.2463906 -0.33309668 -0.14132634 0
2.371716 -0.352723 -0.12571844 0
2.4701457 -0.32002604 -0.10242286 0
1.3693333 -0.23799999 -0.16600001 0
1.4602064 -0.23982412 -0.16407165 0
1.5399487 -0.24911687 -0.16288027 0
1.6449811 -0.24387182 -0.16464704 0
1.7561626 -0.25115764 -0.16586067 0
1.8561575 -0.24383236 -0.16561955 0
1.9635152 -0.24561693 -0.16574372 0
2.049412 -0.25598866 -0.15718181 0
2.1459751 -0.25191626 -0.15387739 0
2.2558255 -0.26155338 -0.1474413 0
2.3478098 -0.23878875 -0.16640347 0
2.4373875 -0.24823596 -0.16600436 0
2.5269649 -0.25768316 -0.16560522 0
2.647048 -0.25498527 -0.16446909 0
2.7491262 -0.2572774 -0.16471215 0
2.848846 -0.27195129 -0.16500318 0
2.9184999 -0.259 -0.16599999 0
-2.060097 -0.19429083 -0.11801581 0
-1.9463879 -0.18316333 -0.10306324 0
1.3572501 -0.13075 -0.16525 0
1.4438535 -0.13953029 -0.16533843 0
1.5303046 -0.15770705 -0.16578457 0
1.6396635 -0.15328446 -0.16556908 0
1.7583125 -0.14972472 -0.16648157 0
1.8696212 -0.14241046 -0.16654983 0
1.9648081 -0.1582457 -0.16638288 0
2.0599101 -0.15991096 -0.16510558 0
2.144603 -0.13211165 -0.16427322 0
2.2281456 -0.14540723 -0.16336682 0
2.3487926 -0.15018693 -0.16299078 0
2.4656289 -0.15184237 -0.16328567 0
2.5541768 -0.15736501 -0.1630615 0
2.6347961 -0.14260256 -0.16199341 0
2.7484396 -0.14908239 -0.16128567 0
2.8640001 -0.15000001 -0.164 0
1.35525 -0.045000002 -0.16500001 0
1.4411023 -0.0484524 -0.1645962 0
1.5269543 -0.051904798 -0.16419239 0
1.6386715 -0.050724458 -0.163469 0
1.7571936 -0.047006261 -0.16531672 0
1.8670834 -0.060624089 -0.16448016 0
1.9507817 -0.061160158 -0.16510788 0
2.0683169 -0.078536212 -0.16417587 0
2.1781278 -0.060725152 -0.16007634 0
2.2785625 -0.065193139 -0.1608633 0
2.3661253 -0.069386281 -0.16172658 0
2.4536879 -0.073579423 -0.16258988 0
2.5412507 -0.077772558 -0.16345318 0
2.6288133 -0.0819657 -0.16431646 0
2.7163758 -0.086158842 -0.16517976 0
2.8477197 -0.092448555 -0.1664747 0
2.901 -0.094999999 -0.167 0
1.33025 0.043000001 -0.164 0
1.4485756 0.054174569 -0.16405647 0
1.5498244 0.04604578 -0.16410485 0
1.6604818 0.057904843 -0.16381939 0
1.7601255 0.038946252 -0.16504452 0
1.8600653 0.055489875 -0.16437493 0
1.9432937 0.030046875 -0.16572665 0
2.0513747 0.07240285 -0.16131279 0
2.1623983 0.075414106 -0.16105095 0
1.285 0.14399999 -0.161 0
1.3489614 0.14361846 -0.16357383 0
1.4552956 0.15554845 -0.16379006 0
1.5552734 0.14538588 -0.16387977 0
1.6446161 0.15070355 -0.16370079 0
1.7432543 0.1576363 -0.16308995 0
1.8553463 0.14792989 -0.1629799 0
1.9121599 0.13800257 -0.164 0
2.0505159 0.1889067 -0.164 0
1.286 0.208 -0.162 0
1.3516073 0.24136074 -0.16416077 0
1.4516729 0.24215104 -0.16277936 0
1.5440698 0.24253248 -0.16204564 0
1.6518875 0.25975788 -0.16225749 0
1.7460346 0.24195425 -0.16217048 0
1.8428081 0.25762877 -0.16093045 0
1.9402366 0.29664454 -0.15515725 0
2.1817119 0.20180824 -0.164 0
2.204 0.204 -0.164 0
1.2494999 0.35374999 -0.16225 0
1.3479505 0.34512505 -0.16225778 0
1.4413835 0.36361846 -0.16116078 0
1.5567664 0.35259342 -0.16117094 0
1.6431398 0.35868555 -0.16205256 0
1.7674158 0.35686305 -0.16045579 0
1.8469353 0.34497699 -0.16010094 0
1.9456229 0.36954033 -0.14891063 0
2.0466208 0.33928496 -0.14560048 0
2.1433377 0.3621113 -0.13500342 0
2.2540426 0.3461076 -0.13280092 0
2.3410711 0.35995114 -0.12697166 0
2.4382162 0.38032177 -0.14463362 0
2.5244188 0.39454207 -0.14173922 0
1.223 0.442 -0.162 0
1.3454195 0.4519054 -0.16110611 0
1.4571673 0.44621965 -0.1609924 0
1.5564349 0.44690606 -0.16073711 0
1.6535666 0.45769066 -0.15993319 0
1.7447337 0.45333931 -0.16001822 0
1.8554608 0.45045435 -0.14719863 0
1.9474305 0.45926663 -0.13515835 0
2.0366676 0.45692515 -0.12776239 0
2.1598437 0.45220342 -0.12447713 0
2.2694583 0.42893469 -0.11750701 0
2.3572335 0.46289226 -0.12304449 0
2.462712 0.46508193 -0.11143713 0
2.5509567 0.48137939 -0.10378529 0
2.6059999 0.40799999 -0.139 0
-1.191 0.579 -0.17299999 0
1.1846 0.53160006 -0.1608 0
1.263603 0.55498534 -0.15727901 0
1.3536476 0.55651212 -0.15975025 0
1.4505936 0.54603761 -0.15998363 0
1.5519323 0.5452221 -0.16006729 0
1.6537251 0.55608279 -0.15834109 0
1.7430176 0.54414219 -0.15491581 0
1.8391728 0.54218757 -0.14586459 0
1.9518023 0.5507772 -0.12931503 0
2.0626273 0.5406999 -0.12083118 0
2.1537008 0.56401819 -0.10919211 0
2.2684853 0.53894401 -0.10153031 0
-1.702 0.69499999 -0.171 0
-1.669 0.68300003 -0.17299999 0
-1.5415568 0.68812019 -0.1684581 0
-1.4376647 0.67523646 -0.1696364 0
-1.3324658 0.67529565 -0.1666614 0
-1.2424601 0.66032749 -0.16552308 0
-1.1465 0.63983333 -0.16416666 0
-1.069 0.68199998 -0.161 0
1.1655 0.63 -0.1595 0
1.255574 0.66226667 -0.14917581 0
1.3520207 0.65052104 -0.14247082 0
1.4451765 0.64182097 -0.15320317 0
1.5666575 0.65772003 -0.15528677 0
1.6758403 0.67461693 -0.14555269 0
1.754395 0.66270697 -0.16609073 0
1.8713851 0.63057095 -0.14952366 0
1.9465313 0.62947911 -0.14245307 0
2.0393739 0.63725752 -0.12270132 0
2.1519012 0.67703819 -0.14416459 0
2.2257493 0.66060227 -0.12039804 0
-2.0535331 0.76810026 -0.17902893 0
-1.8190012 0.75445563 -0.16780484 0
-1.7349737 0.74913925 -0.16562927 0
-1.6513259 0.75211012 -0.164077 0
-1.5449317 0.76099944 -0.16440566 0
-1.4476041 0.74508578 -0.16452226 0
-1.3504486 0.75574791 -0.16391982 0
-1.2449991 0.74798256 -0.16237634 0
-1.1574272 0.74929124 -0.16215843 0
-1.0585001 0.7561667 -0.16116667 0
1.3527952 0.73159379 -0.14327829 0
1.4479581 0.75910103 -0.13207701 0
1.5414209 0.75292778 -0.11877193 0
1.6444572 0.74779505 -0.1404912 0
1.7564989 0.73613852 -0.13997205 0
2.1456516 0.71860307 -0.11036928 0
2.3455844 0.73219848 -0.13213716 0
-3.0074291 0.88119519 -0.17267729 0
-2.9246073 0.8777988 -0.17616932 0
-2.8283384 0.86505133 -0.17320126 0
-2.7249999 0.86900002 -0.171 0
-2.6317205 0.88390452 -0.17100707 0
-2.5486331 0.87102568 -0.1736412 0
-2.4576113 0.86303425 -0.176093 0
-2.3520887 0.84860069 -0.17641045 0
-2.2661991 0.84360158 -0.17417353 0
-2.1811328 0.81340104 -0.17611569 0
-1.9345913 0.86425585 -0.16103142 0
-1.8345368 0.82110357 -0.16243334 0
-1.7382565 0.85692233 -0.1643109 0
-1.6469322 0.85040647 -0.16333258 0
-1.5450103 0.83904237 -0.16381001 0
-1.4435418 0.84687972 -0.16406097 0
-1.3450989 0.8589313 -0.16269083 0
-1.2540215 0.85202479 -0.16260029 0
-1.1503428 0.85733753 -0.16204308 0
-1.0432475 0.85863656 -0.16041517 0
-0.98249996 0.87650001 -0.162 0
-5.2386112 0.98396337 -0.15170762 0
-5.1264443 0.95685357 -0.13883045 0
-5.0516663 0.93878031 -0.13024567 0
-4.9609442 0.91685355 -0.11983044 0
-4.7282515 0.97540665 -0.10110258 0
-4.646626 0.95870334 -0.11355129 0
-4.5650001 0.94199997 -0.126 0
-3.2219999 0.94199997 -0.168 0
-3.1260808 0.9646346 -0.16845572 0
-3.0443594 0.9273501 -0.17390651 0
-2.9554338 0.95765501 -0.1683072 0
-2.873291 0.9557547 -0.16655312 0
-2.7463837 0.94578493 -0.1690668 0
-2.6438155 0.95577663 -0.16910735 0
-2.5453203 0.92939532 -0.17153981 0
-2.4363322 0.90400267 -0.17028922 0
-2.2380955 0.99906975 -0.1613771 0
-2.1553216 0.96230233 -0.16128282 0
-2.0725477 0.92553484 -0.16118854 0
-1.9660066 0.99541783 -0.16079272 0
-1.8635925 0.94398713 -0.16119097 0
-1.6485639 0.9408226 -0.16431107 0
-1.5494657 0.94928592 -0.16218026 0
-1.4500479 0.94702142 -0.16320002 0
-1.3501693 0.96225792 -0.16360402 0
-1.2441515 0.94741976 -0.16263065 0
-1.1420774 0.93727469 -0.16189633 0
-1.0453632 0.94647133 -0.16191082 0
-0.93733329 0.95299989 -0.16033334 0
0.64285761 0.99725312 -0.10688884 0
-4.9450536 1.0915383 -0.12757908 0
-4.8620667 1.0764228 -0.11572385 0
-4.7790804 1.0613074 -0.10386862 0
-2.9501402 1.026949 -0.16482536 0
-2.8642619 1.0425544 -0.16560487 0
-2.7765977 1.0248047 -0.1625206 0
-2.4036434 1.0726047 -0.16156565 0
-2.3208694 1.0358372 -0.16147138 0
-2.1260197 1.0762534 -0.16037819 0
-2.0460131 1.0358356 -0.16058546 0
-1.6296433 1.0394986 -0.16612916 0
-1.5480037 1.0498502 -0.16289419 0
-1.4590721 1.0500492 -0.16257605 0
-1.3737433 1.0588044 -0.16309395 0
-1.2629197 1.0376155 -0.16247901 0
-1.1475352 1.0475587 -0.16164406 0
-1.0469435 1.0556152 -0.16051807 0
-0.95802385 1.0431607 -0.16032809 0
-0.85420001 1.0414001 -0.1602 0
0.56377447 1.0310421 -0.10509375 0
0.67400002 1.0470001 -0.117 0
-5.277 1.152 -0.175 0
-5.1525202 1.1293268 -0.15721714 0
-5.0280399 1.1066537 -0.13943431 0
-2.9419999 1.171 -0.161 0
-2.8169999 1.165 -0.168 0
-2.6519649 1.1829069 -0.16184849 0
-2.569191 1.1461395 -0.16175421 0
-2.4864173 1.109372 -0.16165993 0
-2.3660395 1.1975069 -0.15975638 0
-2.2460296 1.1368802 -0.16006728 0
-1.7685717 1.1742277 -0.16630541 0
-1.6927859 1.1246139 -0.1671527 0
-1.5422989 1.1420777 -0.1652483 0
-1.4484763 1.1503056 -0.16339001 0
-1.3344222 1.149869 -0.1640538 0
-1.2476935 1.149377 -0.16228922 0
-1.1655047 1.1487809 -0.16092226 0
-1.0691711 1.1543797 -0.15995435 0
-0.95396113 1.1658672 -0.16054441 0
-0.86663634 1.1291119 -0.16083956 0
-3.1477888 1.2544144 -0.12453742 0
-3.042212 1.2381151 -0.14025766 0
-2.9790726 1.236243 -0.14540024 0
-2.8980362 1.2006215 -0.15670012 0
-2.7598696 1.2308371 -0.16197138 0
-2.5260525 1.2783426 -0.15934183 0
-2.4460459 1.2379248 -0.1595491 0
-1.9201435 1.2734555 -0.16461082 0
-1.8443576 1.2238417 -0.16545811 0
-1.539946 1.2184776 -0.16686714 0
-1.4615556 1.253049 -0.1639549 0
-1.3550954 1.251892 -0.1607888 0
-1.2341235 1.2473429 -0.16084231 0
-1.1378242 1.2472409 -0.16035174 0
-1.0477731 1.2403067 -0.16160497 0
-0.95176172 1.2523687 -0.16170216 0
-3.3032176 1.3787291 -0.10020073 0
-3.2467217 1.3237853 -0.10708024 0
-3.141145 1.3074861 -0.12280048 0
-2.6320295 1.3318802 -0.15906727 0
-2.0717154 1.3726832 -0.16291623 0
-1.9959294 1.3230693 -0.16376352 0
-1.6247454 1.3872112 -0.16472295 0
-1.5306319 1.3581043 -0.16191809 0
-1.4299477 1.3310158 -0.16339925 0
-1.3525763 1.3556477 -0.16198282 0
-1.266088 1.3374285 -0.15975377 0
-1.1603532 1.3535508 -0.16174331 0
-1.0531119 1.3470275 -0.16063543 0
-2.2232871 1.471911 -0.16122162 0
-2.147501 1.422297 -0.16206893 0
-1.6569339 1.4459532 -0.16202813 0
-1.5441827 1.4629846 -0.15842369 0
-1.4574997 1.4478439 -0.16165374 0
-1.3425231 1.4696195 -0.16320506 0
-1.258247 1.4298576 -0.16273053 0
-1.1381234 1.4392304 -0.16198391 0
-1.0756955 1.4445523 -0.16065851 0
-2.3748589 1.5711386 -0.15952703 0
-2.299073 1.5215248 -0.16037433 0
-1.8212605 1.5789967 -0.16190368 0
-1.752311 1.5199051 -0.16222295 0
-1.6659334 1.5416179 -0.15863374 0
-1.5696564 1.5456609 -0.16140877 0
-1.4354833 1.5350943 -0.16131982 0
-1.3458443 1.5566549 -0.164 0
-1.2694365 1.5684798 -0.1639508 0
-1.1585295 1.519923 -0.1611506 0
-2.4219999 1.602 -0.15899999 0
-1.9391723 1.6486864 -0.16184959 0
-1.8535402 1.6753631 -0.15943736 0
-1.7309324 1.6548814 -0.15908043 0
-1.6431576 1.6325064 -0.16102886 0
-1.5326092 1.6777487 -0.16316918 0
-1.446064 1.6434963 -0.16338694 0
-1.326634 1.6379628 -0.16379997 0
-2.4275048 1.7634059 -0.14950539 0
-2.3610001 1.716 -0.164 0
-2.1138539 1.7939503 -0.16025329 0
-2.0281086 1.7562714 -0.16094591 0
-1.9442102 1.7166204 -0.161 0
-1.8599247 1.7786654 -0.15845089 0
-1.7606882 1.7446496 -0.15982574 0
-1.647768 1.7454864 -0.16252016 0
-1.5704062 1.7750793 -0.16296524 0
-1.4586588 1.7605346 -0.16366555 0
-1.3596189 1.723879 -0.16370481 0
-2.5605142 1.8582177 -0.12051615 0
-2.4940095 1.8108118 -0.13501076 0
-2.1598632 1.869028 -0.16030738 0
-2.0506313 1.8533878 -0.15900001 0
-1.9310656 1.853168 -0.15735209 0
-1.8389512 1.8573117 -0.1600759 0
-1.718152 1.8754997 -0.16374528 0
-1.6305875 1.8427951 -0.1630583 0
-1.5518496 1.8635281 -0.16308534 0
-1.4733648 1.8637983 -0.16350803 0
-2.6270189 1.9056237 -0.10602154 0
-2.2509999 1.908 -0.15899999 0
-2.0282326 1.9804714 -0.16141284 0
-1.940856 1.9379076 -0.16036604 0
-1.8514979 1.9927123 -0.16558385 0
-1.7799997 1.9414166 -0.16393733 0
-1.6548698 1.950047 -0.16339022 0
-1.5302378 1.9337579 -0.16340962 0
-2.1429999 2.0940001 -0.161 0
-2.0444844 2.0349061 -0.16178742 0
-1.9140602 2.0575514 -0.16578183 0
-1.8627632 2.0554528 -0.16276792 0
-1.7604508 2.0357118 -0.164 0
-1.6698192 2.0548604 -0.16289502 0
-1.5871108 2.0037174 -0.16331123 0
-1.9644057 2.1453476 -0.16474496 0
-1.8469982 2.1624744 -0.16339023 0
-1.7270169 2.1243434 -0.16274419 0
-2.0190222 2.2583718 -0.156085 0
-1.859 2.2320001 -0.162 0
-1.7623647 2.2192981 -0.16300802 0
-2.1390665 2.3931153 -0.14025497 0
-2.0790443 2.3257434 -0.14816999 0
-1.8535585 2.3607907 -0.1591458 0
-1.774 2.3180001 -0.16 0
-2.1990886 2.4604871 -0.13233997 0
-1.9615148 2.4385157 -0.15381902 0
-1.8862342 2.4571621 -0.14458323 0
-2.3191328 2.5952306 -0.11650996 0
-2.2591107 2.527859 -0.12442496 0
-2.0460298 2.5430317 -0.14163806 0
-1.9704098 2.5615337 -0.13302064 0
-2.3791549 2.6626024 -0.10859495 0
-2.1305447 2.6475472 -0.12945709 0
-2.0545855 2.6659052 -0.12145805 0
-2.439177 2.7299743 -0.10067993 0
-2.2150595 2.752063 -0.11727611 0
-2.1107025 2.7354863 -0.11374967 0
-2.3277459 2.8914173 -0.10103482 0
-2.2714028 2.8217402 -0.10915546 0
-2.1668193 2.8050673 -0.10604128 0
-1.9638479 -3.0649734 -0.071518391 0
-1.9065218 -2.9679599 -0.083277591 0
-1.8462608 -2.8659801 -0.095638797 0
-1.6223131 -2.8789296 -0.077345893 0
-1.975 -2.721 -0.0099999988 0
-1.7804847 -2.7391105 -0.080931209 0
-1.5608132 -2.7634296 -0.090845898 0
-1.9362732 -2.6653922 -0.01978809 0
-1.7324847 -2.6601102 -0.093931213 0
-1.8659914 -2.5644746 -0.037551664 0
-1.7957094 -2.463557 -0.055315237 0
-1.7176183 -2.3514261 -0.075052537 0
-0.741 -2.322 -0.093000002 0
-1.652434 -2.261307 -0.088063516 0
-0.094999999 -2.276 -0.022 0
-1.6530486 -2.1532416 -0.084114902 0
-1.5996079 -2.1891618 -0.097723119 0
-0.090594739 -2.1866655 -0.014521305 0
-1.6581417 -2.0614049 -0.072114721 0
-1.582535 -2.0328228 -0.097649179 0
-0.086189479 -2.097331 -0.0070426101 0
-1.7343918 -1.9300079 -0.025177671 0
-1.6321925 -1.9515034 -0.068383932 0
-0.27984631 -1.9418474 -0.090417102 0
-1.7213554 -1.8434175 -0.026902536 0
-1.6731603 -1.8575702 -0.036455117 0
-1.5697571 -1.8581442 -0.062750988 0
-0.31361175 -1.8795331 -0.087537438 0
-0.24998274 -1.8469247 -0.081422903 0
-1.7092533 -1.7831709 -0.04481839 0
-1.6320593 -1.7734058 -0.044110157 0
-1.5638769 -1.7414733 -0.056757711 0
-1.4685169 -1.7311153 -0.081302315 0
-0.2552039 -1.7484667 -0.068306789 0
-1.5275224 -1.6682673 -0.066141836 0
-1.4534738 -1.6428709 -0.089661159 0
-1.378 -1.643 -0.097000003 0
-0.23845528 -1.6362925 -0.049087644 0
0.3335 -1.6192501 -0.02475 0
0.447 -1.6210001 -0.020000001 0
-1.5400019 -1.5572596 -0.048619453 0
-1.4410524 -1.5640284 -0.071220808 0
-1.3974555 -1.5612675 -0.08318007 0
-0.24694507 -1.5531998 -0.030204101 0
-0.19081855 -1.5314635 -0.047034852 0
-0.049604405 -1.5432059 -0.031892359 0
0.0060000001 -1.5700001 -0.013 0
0.29172149 -1.5629357 -0.011283356 0
0.34341341 -1.5537264 -0.048867978 0
0.43230182 -1.5694515 -0.022006143 0
-1.5483494 -1.495297 -0.0078566428 0
-1.4501611 -1.4490836 -0.055492993 0
-1.3474528 -1.4463949 -0.078704111 0
-1.286 -1.4015 -0.087499999 0
-0.17945498 -1.4460409 -0.035540655 0
-0.05242037 -1.4347845 -0.034241799 0
0.0096511757 -1.4380145 -0.018297097 0
0.25108361 -1.461952 -0.012639116 0
0.34633863 -1.4340036 -0.033587713 0
0.42327327 -1.4836462 -0.019006748 0
-1.427 -1.38 -0.035999998 0
-1.3411613 -1.3360493 -0.087852404 0
-1.295 -1.345 -0.085000001 0
-0.16799511 -1.368577 -0.017691176 0
-0.037137639 -1.3511089 -0.018846754 0
0.063770257 -1.3490175 -0.016609034 0
0.15487032 -1.3354865 -0.014669808 0
0.25255668 -1.344372 -0.020803757 0
0.32658628 -1.3459114 -0.034519389 0
-0.15159608 -1.2414616 -0.025552943 0
-0.037699368 -1.2446731 -0.024888029 0
0.046222113 -1.2494004 -0.023369431 0
0.13373755 -1.239679 -0.017992029 0
0.25532618 -1.247929 -0.030906228 0
0.32888234 -1.2245243 -0.018639475 0
-2.5539999 -1.1720001 -0.02 0
-2.4754853 -1.1381741 -0.0085871834 0
-0.14300001 -1.173 -0.032000002 0
-0.035180587 -1.1614525 -0.02640795 0
0.047533203 -1.1534184 -0.024254901 0
0.14587608 -1.1597261 -0.025763843 0
0.25181058 -1.1439135 -0.030052474 0
0.31543699 -1.1537697 -0.024806157 0
0.53842914 -1.1310606 -0.056382343 0
0.60399997 -1.1950001 -0.078000002 0
-0.03866272 -1.046501 -0.02698455 0
0.051932365 -1.0437181 -0.027536383 0
0.13923647 -1.0641782 -0.033577692 0
0.25221962 -1.0535495 -0.033091325 0
0.31007645 -1.0763294 -0.024642218 0
0.47626737 -1.0612375 -0.035644192 0
0.55066448 -1.0477866 -0.056060534 0
0.62199998 -1.097 -0.075999998 0
-2.0469999 -0.917 -0.059999999 0
-1.9797053 -0.93645585 -0.0094708297 0
-0.0284974 -0.95911551 -0.038533781 0
0.043041412 -0.95602065 -0.036297351 0
0.15583253 -0.94377863 -0.032214455 0
0.23936084 -0.97210544 -0.039690055 0
0.43177894 -0.95272923 -0.017740322 0
0.54855323 -0.96123481 -0.057304461 0
-2.1010001 -0.88300002 -0.061999999 0
-2.0377972 -0.857795 -0.060642958 0
-1.9605509 -0.84398443 -0.062552273 0
-1.8520572 -0.85162145 -0.04848747 0
-1.7380066 -0.82031983 -0.030963536 0
-0.012 -0.89499998 -0.048 0
1.9186287e-15 -0.88700002 -0.041999999 0
0.16850001 -0.88249999 -0.035 0
0.22799999 -0.87 -0.049000002 0
0.47510648 -0.82546955 -0.038608924 0
0.51182985 -0.89335215 -0.04795669 0
1.528 -0.81099999 -0.089000002 0
-1.8533922 -0.78410912 -0.067943223 0
-1.7441791 -0.75298864 -0.071110383 0
-1.6620982 -0.73492146 -0.064468175 0
-1.5410032 -0.72565991 -0.048481766 0
0.45699999 -0.792 -0.034000002 0
1.3584225 -0.72185338 -0.081825703 0
1.4559277 -0.77318269 -0.086800158 0
1.614 -0.70700002 -0.090000004 0
-1.6154037 -0.68967474 -0.026227221 0
-1.5501367 -0.67741013 -0.060099237 0
-1.4477396 -0.65861607 -0.054841965 0
-1.3602179 -0.63571602 -0.071985126 0
0.78899997 -0.60399997 -0.059 0
0.83183545 -0.61984497 -0.06431143 0
0.95830071 -0.67960858 -0.093228199 0
1.1657268 -0.62027144 -0.07030423 0
1.2604982 -0.66978866 -0.07068029 0
1.3866472 -0.60770261 -0.074595407 0
1.4653304 -0.64208651 -0.079801649 0
1.5546052 -0.63838816 -0.064203158 0
-1.5167868 -0.56595665 -0.03091689 0
-1.4487157 -0.53927553 -0.042889185 0
-1.3858578 -0.51463777 -0.053944591 0
0.8698383 -0.55177236 -0.082272135 0
0.95716017 -0.52446556 -0.082680508 0
1.0487816 -0.53006995 -0.067491554 0
1.1521664 -0.5389874 -0.067812793 0
1.2443924 -0.55342048 -0.073594622 0
1.3341004 -0.54652041 -0.063277766 0
1.4371406 -0.56110203 -0.061180003 0
1.5308867 -0.57981163 -0.034987554 0
2.9690001 -0.50700003 -0.086999997 0
-1.5463924 -0.48704892 -0.03026237 0
-1.4656962 -0.46577445 -0.036131185 0
-1.323 -0.49000001 -0.064999998 0
0.88599998 -0.47 -0.019999996 0
0.94800556 -0.46309081 -0.032101732 0
1.0478401 -0.47412804 -0.04544 0
1.134832 -0.45215905 -0.036485683 0
1.2385035 -0.48163992 -0.067711473 0
2.8939424 -0.49331072 -0.09337797 0
2.369523 -0.32566905 -0.0965795 0
2.4633136 -0.33930141 -0.080947697 0
2.5568368 -0.33053038 -0.092159994 0
2.6557639 -0.34251738 -0.080448568 0
3.1488113 -0.30612728 -0.015872721 0
3.237623 -0.31525454 -0.0067454427 0
3.0599999 -0.29699999 -0.025 0
-1.8705819 -0.175745 -0.093094856 0
-1.7828879 -0.16716334 -0.081563234 0
2.417984 0.36726761 -0.097651221 0
2.5497663 0.38746783 -0.084505051 0
2.625 0.39899999 -0.077 0
2.2037308 0.49140659 -0.094697662 0
2.3850319 0.43579346 -0.091990478 0
2.4357071 0.46180812 -0.059935976 0
2.5516338 0.4712601 -0.04441997 0
2.6392012 0.49767679 -0.096133456 0
2.2613966 0.54777145 -0.091792122 0
2.3376565 0.56172502 -0.083959803 0
2.4388235 0.57496268 -0.082020216 0
2.6577804 0.50335604 -0.078451984 0
2.7311487 0.51465803 -0.088160537 0
2.067426 0.6844089 -0.073593378 0
2.149025 0.64562267 -0.088454753 0
2.2240353 0.65036488 -0.080887444 0
2.3382604 0.63634592 -0.081189431 0
1.557 0.78299999 -0.037 0
1.7490734 0.76252264 -0.05227023 0
1.8575577 0.76508492 -0.04664119 0
1.9618775 0.76706576 -0.049336612 0
2.1481984 0.71755064 -0.061190143 0
2.2576408 0.75681216 -0.085417554 0
2.3180001 0.778 -0.086999997 0
0.87133336 0.88099998 -0.04266667 0
0.95250005 0.87024999 -0.04225 0
1.06478 0.87118471 -0.035801843 0
1.466 0.801 -0.097999997 0
1.6303504 0.8179034 -0.023889072 0
1.7037007 0.85280687 -0.010778142 0
1.86322 0.82406795 -0.031310685 0
1.939 0.81800002 -0.037 0
2.0510001 0.80800003 -0.054000001 0
-4.8098774 0.99211001 -0.088653855 0
0.27950001 0.98299998 -0.0425 0
0.3265 0.97299999 -0.041999999 0
0.43775856 0.97693318 -0.062080484 0
0.54536593 0.93972284 -0.089791663 0
0.61171526 0.94750619 -0.096777678 0
0.87 0.92400002 -0.0089999996 0
0.954467 0.95303094 -0.032231417 0
1.0458637 0.9509542 -0.034203518 0
1.1480601 0.93486947 -0.028103691 0
-5.0688772 1.04511 -0.049153857 0
-4.9731288 1.0255166 -0.063756429 0
-4.8915033 1.0088134 -0.076205142 0
-4.717 1.05 -0.094999999 0
0.17843106 1.0529048 -0.043412287 0
0.24799873 1.0546007 -0.03797961 0
0.33937725 1.0529096 -0.029196169 0
0.9966349 1.0376836 -0.032377381 0
1.0458788 1.0384351 -0.026775023 0
1.1404513 1.042298 -0.024493098 0
0.1885777 1.152512 -0.02703071 0
0.24514565 1.1445328 -0.026309347 0
0.3403402 1.1323736 -0.017050777 0
-3.4358933 1.3711946 -0.073489793 0
-3.3535776 1.3378289 -0.088074833 0
-3.6416821 1.4546089 -0.037027206 0
-3.5448449 1.4620514 -0.062735282 0
-3.4652901 1.4499723 -0.077600963 0
-3.384254 1.4143507 -0.088900842 0
-3.7655778 1.5048288 -0.015074827 0
-2.7509999 1.994 -0.079000004 0
-2.6935234 1.9530296 -0.091526918 0
-2.4991994 2.7973461 -0.092764929 0
-2.5592215 2.864718 -0.084849916 0
-2.2229364 2.8746483 -0.098332897 0
-2.596 2.9059999 -0.079999998 0
-2.3520446 2.9780471 -0.088957086 0
-2.2790534 2.9442294 -0.090624511 0
-2.4389999 3.029 -0.085000001 0
-1.927159 -2.6522188 0.002533433 0
-1.8553975 -2.5490475 0.021333583 0
-1.7836359 -2.4458756 0.04013373 0
-1.7357948 -2.3770947 0.052667171 0
-1.6879537 -2.3083136 0.065200597 0
-1.6619999 -2.2709999 0.071999997 0
-0.361 -2.234 0.013 0
-0.34690201 -2.1478879 0.015667185 0
-0.33280405 -2.0617762 0.01833437 0
-0.081784226 -2.0079963 0.00043608434 0
-0.31870607 -1.9756641 0.021001555 0
-0.077378966 -1.9186618 0.0079147797 0
-0.30460811 -1.8895521 0.02366874 0
-0.29051012 -1.8034401 0.026335925 0
-0.072973706 -1.8293273 0.015393477 0
-1.8279999 -1.761 0.056999996 0
-1.7910479 -1.725891 0.048430063 0
-0.27641213 -1.7173282 0.02900311 0
-0.068568446 -1.7399927 0.022872169 0
-1.7303733 -1.6682425 0.03435839 0
-1.6696986 -1.610594 0.020286713 0
-0.26231417 -1.6312163 0.031670295 0
-0.064163193 -1.6506581 0.030350864 0
0.25637123 -1.649119 0.013384412 0
-1.6090239 -1.5529455 0.0062150359 0
-0.25 -1.556 0.034000002 0
-0.059757933 -1.5613236 0.037829559 0
0.24347599 -1.5468894 0.016434683 0
0.46799999 -1.505 0.035999998 0
0.61146522 -1.5666912 0.032568149 0
-0.053676337 -1.4379946 0.048154127 0
0.022 -1.409 0.027000003 0
0.13699999 -1.421 0.016000003 0
0.26066652 -1.4455487 0.01816923 0
0.44662493 -1.4302853 0.029724754 0
0.57736897 -1.4768991 0.028402541 0
0.022198856 -1.3298557 0.020636629 0
0.13693686 -1.3636469 0.004823959 0
0.22499999 -1.3789999 0.037 0
0.45060885 -1.3617805 0.025506832 0
0.53152668 -1.3561743 0.022801904 0
0.022399142 -1.2501417 0.014227473 0
0.3484531 -1.2292857 0.007715594 0
0.43612427 -1.249398 0.017015912 0
-2.3969705 -1.1043482 0.0028256327 0
0.022599427 -1.1704278 0.0078183152 0
0.36075741 -1.1454489 0.0064866305 0
0.45988479 -1.1571844 0.013180058 0
-2.3184559 -1.0705222 0.014238451 0
-2.2399414 -1.0366963 0.025651265 0
-2.1614265 -1.0028703 0.037064083 0
0.022799714 -1.090714 0.0014091576 0
0.37900001 -1.073 0.0099999998 0
0.44500023 -1.0466954 0.014123794 0
0.56400716 -1.0000437 0.012913356 0
0.60683811 -1.0758625 0.01477557 0
-2.0436547 -0.95213139 0.054183308 0
-1.983 -0.926 0.063000008 0
0.39399999 -0.99400002 0.0060000001 0
0.4743163 -0.92821586 0.0108662 0
0.5263381 -0.93336254 0.011275571 0
0.4606832 -0.85078871 0.0081311734 0
0.51589572 -0.8622005 0.0094691897 0
0.45499998 -0.79500002 0.0050000004 0
1.4828221 -0.60728997 0.037101097 0
1.5596932 -0.63887393 0.046960659 0
1.2531289 -0.51291597 0.0076404382 0
1.3340636 -0.52430218 0.012690538 0
1.4435875 -0.56175339 0.013245855 0
1.5700001 -0.597 0.021 0
1.092907 -0.43333119 0.026942234 0
1.1723208 -0.44353226 0.017376142 0
1.2636209 -0.48092791 0.010223714 0
2.180635 -0.41364759 0.031719316 0
2.2602935 -0.43130946 0.039649148 0
2.3039999 -0.44100001 0.044 0
2.9511423 -0.41100574 0.048477307 0
3.0838563 -0.43000764 0.064636409 0
3.1723325 -0.44267556 0.075409144 0
3.2608085 -0.45534351 0.086181879 0
3.3492846 -0.46801144 0.096954606 0
1.862 -0.34299999 -2.3599629e-14 0
1.9416587 -0.36066189 0.0079298289 0
2.0213175 -0.37832379 0.015859658 0
2.1434882 -0.37449282 0.011894743 0
2.2479079 -0.35744846 0.010379769 0
2.331408 -0.3634485 0.024379769 0
2.553 -0.354 -1.3009178e-13 0
2.6414762 -0.36666793 0.010772735 0
2.7299521 -0.37933588 0.02154547 0
2.8184283 -0.3920038 0.032318205 0
3.3264344 -0.32438183 0.0023818333 0
3.415246 -0.33350912 0.011509115 0
3.5484633 -0.34720004 0.02520003 0
3.6816804 -0.36089095 0.03889095 0
3.7704921 -0.37001821 0.048018225 0
3.8593035 -0.3791455 0.057145499 0
3.9260001 -0.38600001 0.064000003 0
3.1371088 -0.15985164 0.049398888 0
3.2456155 -0.1640314 0.041540951 0
3.3320127 -0.1673595 0.035284128 0
3.4184103 -0.1706876 0.029027302 0
3.5480065 -0.17567974 0.019642064 0
3.6776025 -0.1806719 0.010256825 0
3.7639999 -0.184 0.0040000002 0
2.668 0.375 0.011 0
2.7554264 0.38514769 0.023154942 0
2.8428526 0.39529541 0.035309885 0
3.4330001 0.324 0.014 0
3.5446968 0.33953401 0.021397151 0
3.656394 0.35506803 0.028794304 0
3.7329292 0.36571202 0.03386287 0
2.6534719 0.45499033 0.0065141544 0
2.7419441 0.46798065 0.018028308 0
2.830416 0.48097098 0.029542465 0
2.9245834 0.4497022 0.044260725 0
3.0177054 0.41559082 0.059619769 0
3.1488452 0.43081236 0.077852182 0
3.2799845 0.44603392 0.096084602 0
3.0515962 0.51344681 0.058327846 0
3.184304 0.53293228 0.075599074 0
3.2727761 0.54592264 0.087113231 0
3.361248 0.55891293 0.098627381 0
1.956444 0.77746737 0.044531476 0
1.777051 0.88771027 0.002332788 0
2.0599439 0.81996739 0.02653148 0
2.155 0.85900003 0.0099999998 0
0.94594133 0.96740347 0.043773081 0
1.8504013 0.92261368 0.015443716 0
1.9473758 0.96875858 0.032777321 0
0.98129272 1.0447719 0.0057454044 0
1.0404413 1.0589035 0.025773082 0
1.0722743 1.1246668 0.01265027 0
1.118 1.1339999 0.011 0
1.1676159 1.2469649 0.030431755 0
-4.3531046 1.4645512 0.06149267 0
-4.2420001 1.426 0.067000002 0
-4.7059999 1.587 0.044 0
-4.6275787 1.5597892 0.047887258 0
-4.5491576 1.5325783 0.05177452 0
-4.4707365 1.5053675 0.055661779 0
3.4388804 -0.4808397 0.10786367 0
3.3674109 0.45618165 0.10823955 0
3.4519999 0.46599999 0.12 0
3.4568601 0.57295167 0.11107077 0
