# .PCD v0.7 - Point Cloud Data file format
VERSION 0.7
FIELDS x y z intensity
SIZE 4 4 4 4
TYPE F F F F
COUNT 1 1 1 1
WIDTH 429
HEIGHT 1
VIEWPOINT 0 0 0 1 0 0 0
POINTS 429
DATA ascii
-7.2426739 1.4361318 0.26355621 4
-7.2948937 0.76361531 1.5823526 10
-7.311677 1.1137968 1.5874629 10
-7.3171296 1.4676627 1.440576 9.166667
-7.3328433 0.75757951 1.944356 11
-7.306704 1.0064477 1.857179 10.5
-7.3907871 1.4046245 1.7685654 10.333333
-7.4182711 1.6400694 1.874645 11
-7.4763556 0.69111031 2.1238554 11.5
-7.3158846 1.045675 2.1504421 12
-7.3310986 1.4333602 2.2014337 11.6
-6.8752356 1.7608293 1.5621159 10
-6.8881044 1.906382 1.6931661 10.5
-6.8053761 2.1599126 1.8562422 11
-6.8526607 1.7547275 2.0426106 12
-6.8317676 2.2419231 2.0957732 12
-6.7815566 1.945812 1.7971665 10.5
-6.7678218 2.2083941 1.9417539 11
-6.7820477 1.9027474 2.0506518 12
-6.7896266 2.194694 2.1645851 12
-5.0032239 0.68571872 -0.085640945 3
-5.069633 0.75840908 0.25730729 4.5
-5.0417457 0.98684782 0.1986611 4.1999998
-5.0664573 1.0018234 0.48046917 6
-4.6463304 4.216538 0.035761885 3
-4.2637234 1.5203036 -0.003785094 3
-4.1753321 1.3849177 0.21588175 4.6999998
-4.2015882 1.6132309 0.38424098 6
-4.1665144 1.40589 0.52176315 6.8000002
-4.2010069 1.6486876 0.68975377 8
-4.2718248 1.1549852 0.85608798 9
-4.254725 1.2950306 0.89446777 9
-4.2374673 1.6476709 0.9034242 9.5
-4.0667219 -2.1730559 2.5492177 18
-3.60127 1.5578234 0.74051857 9
-3.9919469 -2.3118918 2.5461898 18
-3.5707779 1.4988488 -0.061871599 3
-3.5373793 1.5890365 0.78554618 9
-3.3271856 1.5390234 0.96120054 11.333333
-3.5094888 1.6211516 0.83055055 10
-3.268075 -3.2624707 2.1610365 16
-3.2350876 -3.1414592 2.1715419 17
-2.954653 1.0179998 -0.17261626 2
-3.0350182 1.5696592 -0.042500917 3
-2.8240478 1.6259972 -0.052013036 3
-3.1106987 1.5423323 0.19667011 5
-2.9183929 1.6461159 0.19309835 5
-2.8623035 2.8690288 0.39846718 6
-3.0409024 1.5652961 0.54569525 8
-2.9039688 1.6830779 0.59311539 8.5714283
-2.879775 2.7478354 0.63925421 8
-2.8642955 2.8141351 0.6274879 8
-3.0319476 1.5471529 0.99820507 12
-2.8983874 1.6827776 1.0223883 12.428572
-2.8820627 2.7411294 1.0388944 11
-2.8185914 2.8479953 1.0595045 11
-2.8457441 1.571807 1.4864951 16
-2.8700273 1.6912706 1.3689317 15
-2.8875825 2.7719698 1.3704897 13
-2.9606469 2.8322122 1.2174178 12
-2.9290574 -3.3551598 1.8449649 15.2
-2.8429451 1.7883793 1.7710773 18
-2.9920533 -3.3102534 2.0703523 16.333334
-3.0225461 -3.1693692 2.2667155 17.5
-2.8681736 -2.0003648 2.3871136 21
-2.867785 -1.2331339 2.3797269 23
-2.8745537 -0.9355256 2.3700366 23.5
-2.8895373 -0.70673203 2.3643398 23.5
-2.9218886 -0.26320124 2.3692524 23.333334
-2.9601316 0.19746757 2.3646011 23
-2.8451655 0.68458164 2.3672504 23.5
-2.8309271 0.96531665 2.3691714 23
-2.8211513 -1.9773928 2.5511117 22
-2.8387656 -1.3331869 2.4272058 23
-2.8257713 -1.1456411 2.519238 24
-2.8088298 0.82860315 2.4067976 24
-2.570797 1.4207047 -0.16110037 2
-2.6987903 1.8275918 -0.10409515 2.5
-2.7245338 2.0737712 -0.020293191 3
-2.6935003 2.8377216 -0.037409514 3
-2.772634 1.8277383 0.21183568 5.25
-2.7220743 2.0778372 0.19556101 5
-2.7900031 2.7716148 0.25605345 5
-2.5808766 2.9387839 0.22876301 4.8888888
-2.7765651 1.8146548 0.56074053 8.375
-2.7218888 2.07865 0.58952755 8.5
-2.785223 2.751405 0.77556485 9
-2.5816858 2.9497323 0.60920262 7.9166665
-2.5026917 -3.397748 1.1819986 11
-2.7639217 1.8434725 0.94263756 11.555555
-2.7119186 2.1265354 0.99852777 11.625
-2.7823524 2.7710059 0.94055885 10.5
-2.5912917 2.9511626 1.0169319 11
-2.4436805 -3.3102579 1.3049994 12.5
-2.7638397 1.8475591 1.3846334 15.285714
-2.735837 2.0626128 1.3922043 15
-2.786505 2.7626746 1.2735597 13
-2.5883982 2.9620168 1.4405047 13.916667
-2.5589602 -3.3751831 1.8865631 16
-2.7739108 1.8270245 1.7565231 18
-2.7298293 2.0633819 1.8076872 18
-2.7167263 2.6259363 1.8907714 17.333334
-2.5598359 2.8944111 1.778375 16.285715
-2.5732782 -3.2498968 2.154505 17.799999
-2.428695 -3.1332681 2.3615041 19
-2.5796697 -1.5058706 2.3821478 23.5
-2.7807069 0.70154065 2.389549 24
-2.7787344 0.98314071 2.3852508 23.5
-2.5678344 1.4289764 2.3108573 23
-2.5937092 1.7987076 2.2100682 21.5
-2.7169909 2.045624 2.0758896 19.5
-2.6013207 2.5737996 2.1193497 18.6
-2.5980115 2.82058 2.0396607 18
-2.4096918 -3.0907726 2.5180047 20
-2.674705 -1.384801 2.5543649 24
-2.5878248 -0.99025029 2.551194 25.25
-2.529269 -0.6139012 2.5528455 26.200001
-2.428221 -0.36210451 2.5548627 27
-2.6666183 0.75333971 2.4873791 25
-2.646028 1.0085846 2.5224104 24.833334
-2.6207371 1.2521527 2.5127683 24.5
-2.1245241 -0.1230979 -0.067861967 2.5
-2.2288342 0.22105043 -0.049320564 2.6666667
-2.1335447 2.0319006 -0.16522124 2
-2.1295114 -0.090343855 0.040898714 3.5
-2.2222149 0.20035684 0.032004908 3.6666667
-2.3792644 3.0992818 0.35269234 6
-2.3855276 3.0722601 0.66653246 8.333333
-2.3218846 3.2208111 0.57293093 8
-2.1925681 -3.4141548 1.1069046 11.333333
-2.3884025 3.0287242 0.94204819 10.333333
-2.1955657 -3.323725 1.3401616 13
-2.351542 2.9875154 1.4110059 14
-2.2027121 -3.4023886 1.8249938 16
-2.1935947 2.8679554 1.8438915 17.5
-2.1843393 -3.3269656 2.0405498 17.666666
-2.0384903 -3.0688715 2.3639967 20
-2.0624509 -1.6241466 2.3635783 25.5
-2.2743046 -1.5702878 2.3571057 24.5
-2.1778908 1.4069209 2.3437078 25.142857
-2.2522664 1.629271 2.1473582 23
-2.208349 2.7359362 2.1644511 19.5
-2.2599573 2.8104229 2.041887 19
-2.3867028 -3.019767 2.4060063 20
-2.1721759 -1.4033878 2.5345817 26.200001
-2.1922154 -0.98442423 2.5456564 27.5
-2.2346478 -0.6154958 2.553941 28.200001
-2.1846159 -0.3093172 2.5606763 29
-2.0094931 0.32906541 2.563123 30
-2.0852909 1.1692921 2.4971466 27.5
-2.1023755 1.2107332 2.4546194 27
-1.6072563 -2.9969337 -0.093004078 2
-1.8485236 -2.7538319 -0.16800041 2
-1.6526268 -2.126802 -0.0019874759 3
-1.6769739 -1.9425057 -0.044227347 2.5
-1.6369802 -1.3426206 -0.17543107 1
-1.8452425 -1.0148845 -0.091148429 2
-1.7440701 -0.20291851 -0.048189361 2.5
-1.6136471 1.071486 -0.17000683 1
-1.8758708 2.1645963 -0.16560207 2
-1.7204847 -2.6780841 0.21194124 5.1999998
-1.6707867 -2.1639729 0.14967842 5
-1.655198 -1.9557725 0.10627067 4.5
-1.7821789 -1.0509622 0.12931198 5.1538463
-1.6171263 -0.56322545 0.19734935 6.5999999
-1.6668111 -0.28668895 0.15398817 6
-1.6499904 -2.7260115 0.50444198 8
-1.6603824 -0.30229479 0.52460319 12.333333
-1.8038596 -3.4461896 1.0637454 11.5
-1.6363113 -0.40738922 0.84623772 17
-1.7879851 -3.3835022 1.3397222 13.545455
-1.7602202 -3.4184134 1.8336157 16.555555
-1.6459277 2.7680225 1.7955598 18.5
-1.760263 2.8499062 1.8392013 18.5
-1.6953944 -3.3437126 2.2271209 19.5
-1.7992778 -2.9988379 2.3867455 21
-1.7953305 -1.6922476 2.353406 26
-1.8449483 -0.092595682 2.3728583 30.5
-1.6303072 1.1829165 2.3869407 29
-1.8201987 1.4322139 2.3033204 26.666666
-1.7102993 1.6356584 2.1417146 25
-1.70108 2.2270772 2.1668901 22.799999
-1.7712545 2.7451198 2.0833478 20.333334
-1.8541157 -2.9296613 2.4924116 22
-1.6908069 -2.6815047 2.5436654 23.5
-1.7500327 -1.6452827 2.4852989 27.5
-1.8342799 -1.4090447 2.5415318 28
-1.7905561 -0.99399132 2.5495672 30
-1.899803 -0.65729415 2.55598 30.333334
-1.9655634 -0.33147228 2.5623224 30.5
-1.9807476 0.370942 2.5661175 30.5
-1.9691346 0.45487663 2.5656474 30.5
-1.8258274 1.1000527 2.4920433 29.25
-1.9244125 1.207234 2.5157373 28
-1.3425404 -3.0179908 -0.10499886 2
-1.532802 -2.7189207 -0.094502538 2.5
-1.3834496 -2.0708804 -0.1779951 1
-1.3406174 -1.6418251 -0.15197992 1
-1.4222207 -1.3639331 -0.07975328 2.2
-1.3260189 -1.0176026 -0.16993737 0.33333334
-1.3234031 -0.6653291 -0.11873928 1
-1.4943937 -0.36468548 -0.071938314 2
-1.5718918 1.1576248 -0.17001148 1
-1.3686122 1.3508784 -0.16544716 1
-1.3324353 -2.819978 0.24039938 5.5999999
-1.4330561 -2.7742178 0.16759944 4.8000002
-1.3394724 -1.2752219 0.22006282 6.8888888
-1.4454622 -1.1589478 0.27698416 7.7272725
-1.5988574 -0.42535463 0.27772748 8
-1.5982194 -0.34723765 0.092310764 4.75
-1.3549038 -3.4605155 0.79100776 10
-1.409157 -2.8673565 0.56202322 8.5
-1.5002508 -2.7707539 0.52118456 8.25
-1.2697449 -1.2534685 0.46359831 11
-1.4067738 -1.1240268 0.57660484 12.538462
-1.5992669 -0.60044444 0.47318497 11
-1.4060907 -3.4618595 1.0402837 11.555555
-1.5327139 -2.9344532 0.9089967 11.5
-1.4326917 -3.4481258 1.3724428 14
-1.3787277 -3.4692428 1.8194894 17
-1.4064771 -3.4291546 2.2368217 19.333334
-1.4246764 -3.0878782 2.3702164 21.5
-1.5622987 1.1780857 2.3799877 30
-1.4368218 1.4807589 2.283452 28.307692
-1.3863842 1.6545925 2.1439493 26.5
-1.5997372 2.7150652 2.164362 21
-1.4168779 -2.9464815 2.5006893 22.666666
-1.3866414 -1.727084 2.546206 28.666666
-1.4714385 -1.4321017 2.5495739 30
-1.5798609 -1.183778 2.5480814 31
-1.5109025 1.4102691 2.409935 29
-0.93907261 -3.4055536 -0.095469601 2.5
-1.1298853 -2.9540198 -0.1129925 2.5
-0.98060733 -1.7491844 -0.17555265 0.66666669
-0.99489468 -1.526705 -0.17227402 0
-0.95026153 0.94258302 -0.16178784 0
-0.95868462 1.2909006 -0.09689381 1.75
-1.0279509 -3.4833496 0.083826669 4
-1.1699589 -2.845407 0.1870037 5
-0.80893141 -2.0520074 0.38900298 8
-1.1638929 -1.2939566 0.33308619 9
-0.88762915 1.2267795 0.071429648 4.5
-0.80560791 1.5389109 1.0303659 19.333334
-1.0008392 -3.5100832 1.4619461 15
-0.80264693 1.5193379 1.2043759 22
-1.1078736 -3.5025227 1.7171059 16.5
-1.1302304 -3.5092661 2.3042703 20
-1.084455 1.556538 2.1660228 28.75
-1.0309535 1.6509027 2.1384599 28
-1.0536566 -1.8473153 2.5458264 29.5
-0.70435113 -3.4670537 -0.0049487776 3
-0.55439329 -2.0882776 -0.1387362 1.5
-0.74791247 -1.9425117 -0.17599705 1
-0.5769431 1.1444232 -0.075665943 1.5
-0.60823661 -2.0470307 0.2863577 7.3333335
-0.57364571 1.138736 0.1857722 7.5714288
-0.78191102 -2.0360093 0.4400034 9.5
-0.58086473 1.1428126 0.46558526 13.857142
-0.4583042 1.5156747 0.76721174 17
-0.55333167 1.5203636 1.0012399 20
-0.71037412 -3.5415144 1.5210538 15.5
-0.63349313 1.5193934 1.3562258 24.125
-0.76842707 -3.5300159 1.6130483 16
-0.58282357 1.4980178 1.6005348 27
-0.59907198 -2.0568347 2.5496247 29.5
-0.76042479 -1.9794956 2.5473034 29.5
-0.26217052 -2.6010139 -0.15794316 1
-0.2017232 -2.1814997 -0.1224554 1.5
-0.18390734 -1.4754956 -0.036485694 2.5
-0.052346297 -1.0149695 -0.027997555 2.5
-0.21661226 1.1104386 -0.055668946 1.7142857
-0.12571169 -0.89751935 0.1889939 9.4285717
-0.088071831 -0.78356934 0.26432553 13
-0.19995418 1.1076013 0.18819632 8.25
-0.098020315 -0.81496441 0.45949322 18.5
-0.074372508 -0.64050812 0.53758657 24.142857
-0.22613911 1.1104554 0.45996708 15
-0.27635652 1.501084 0.77940571 17.5
-0.042845346 1.1750126 0.93211716 23.5
-0.21033947 1.4500048 0.98613137 21.25
-0.19599028 1.4869536 1.3603537 25.666666
0.13955256 -1.4663959 -0.0069560092 3
0.25178793 -1.0403998 -0.029769301 2.4000001
0.24365519 1.0365645 -0.032983951 2.2222223
0.22766289 -1.3393565 0.010546407 3.5
0.29742825 -0.97794735 0.12920611 7.1666665
0.12197511 -0.64635038 0.29848099 16.666666
0.2104959 1.1062683 0.20154594 8.636364
0.18619061 -0.51136982 0.48877934 25
0.38074213 -0.36152843 0.50996804 26
0.19002531 1.0341278 0.54346174 17.5
0.24927732 1.0556409 1.041999 26.166666
0.17701757 1.2158431 1.0438204 24.333334
0.38107818 1.1946269 1.4117818 29
0.35716209 1.2250969 1.4106295 28.5
0.5297085 -0.82080936 -0.038718238 2
0.64160025 -0.67485511 -0.029209496 2.2857144
0.60600048 0.93039477 -0.055690799 1.7142857
0.43345952 -1.2177346 0.025066333 4
0.46058807 -0.94806498 0.058080316 5
0.62245691 -0.70389092 0.085827604 5.8888888
0.59950888 1.0159587 0.14889081 6.9200001
0.66609621 -0.52257591 0.46425989 18.5
0.4087562 -0.3945173 0.48297721 24.5
0.70481884 1.037062 0.53848368 15.384615
0.52220631 1.0008171 1.0299653 25.5
0.41016269 1.2379967 0.97827786 22.5
0.67314041 1.035459 1.3698407 28.5
0.40349686 1.2446545 1.3892713 28
0.92771226 -0.49591178 -0.038742445 2.25
1.1942325 0.59074652 -0.16117889 0
1.0536636 0.90218627 -0.055733889 2
0.95709628 -0.48578641 0.19266991 8.5263157
1.1314303 0.98745596 0.16269396 6.4000001
1.1800379 1.2255132 0.21096945 7
0.95441711 -0.4351806 0.4523288 15.5
1.1166703 0.99706137 0.59133691 14.642858
1.059981 1.0091262 0.98364133 21.1
1.0374486 0.93359435 1.3903317 26.888889
1.4766649 -0.82446593 -0.13377303 1
1.3370138 -0.66795051 -0.12032671 1
1.5466514 -0.20741288 -0.16650191 0
1.3187528 0.22070991 -0.16552703 0
1.4554454 0.70662224 -0.092122048 1.5
1.3167049 0.8361823 -0.073656373 1.8
1.291345 -2.7173021 0.048323039 4
1.5502958 -0.59400547 0.18670025 6.6666665
1.5678272 0.79542005 0.18042436 6.5
1.540681 0.93845832 0.20298968 6.5333333
1.5477072 0.9532119 0.58601183 12.75
1.5620387 0.94123262 0.96637446 18
1.5464326 0.97010851 1.3677346 22.5
1.5260385 1.1514263 2.3801222 30
1.4789536 1.2222474 2.3807468 30
1.4725157 -1.3796815 2.5673461 30.25
1.5851794 -1.1712596 2.5742927 31
1.6720302 -0.49755916 -0.07245367 2
1.8076398 -0.26366135 -0.1183005 1.4
1.802809 0.1958001 -0.16210149 0.75
1.7829452 0.66621608 -0.11330876 1.3333334
1.6539073 -0.483035 0.20779015 6.9000001
1.7285177 -0.37794575 0.15253872 6
1.9452003 0.7418704 0.15835373 5.5
1.9084364 0.86791736 0.21175061 6.25
1.9491919 0.75801599 0.60925311 11.75
1.9629192 0.88227361 0.566517 11
1.946353 0.74850619 0.88754678 15.5
1.9530612 0.74064761 1.360884 20.666666
1.7504942 -1.2348431 2.3775351 28.5
1.8315097 -0.98297566 2.3763487 28.799999
1.9264712 -0.5161218 2.3774266 29.5
1.9697454 -0.20317562 2.3786948 29.666666
1.9516894 0.21832483 2.3822129 29.5
1.9242287 0.65986425 2.3880231 29.333334
1.8941797 1.0529673 2.317271 27.833334
1.6952491 -1.2674973 2.5162253 29.5
1.7780354 -0.98759717 2.5261707 30
1.8820468 -0.10089217 2.4458954 30.5
1.9461612 0.26175791 2.479337 30.333334
1.9267347 0.62819195 2.5268152 30.200001
1.8463337 0.80544221 2.5850019 31
2.3180711 -0.34984571 -0.077297658 2
2.3112028 0.59190238 -0.072774179 2.5
2.355705 -0.35793504 0.10362884 4.5
2.3639445 0.59158349 0.188223 5.5714288
2.2719073 -0.55865008 0.65412313 11.5
2.3536012 -0.38333231 0.62938207 11
2.3689337 0.61620009 0.63424957 11
2.2372186 -0.63103569 0.9840374 15.333333
2.3545949 0.64417922 1.0042132 15
2.3730319 0.83119708 0.98747265 14.666667
2.1790736 -0.9041757 1.3700711 19
2.2426543 -0.61232609 1.3931963 19.6
2.3714311 -0.39213312 1.4433875 20
2.3611474 0.6281963 1.4111763 19
2.3701069 0.83962053 1.2918862 17.5
2.255605 -0.57513189 1.8061351 23
2.3733501 0.64552319 1.720437 21.75
2.3935032 0.8047685 1.7911519 22
2.0973151 -0.98580056 2.2858515 26.5
2.172884 -0.58104974 2.2102203 26.5
2.2666843 -0.2009427 2.2398999 26.5
2.2460027 0.19265634 2.272332 26.923077
2.3021548 0.60825819 2.2719536 26.111111
2.2804186 0.91548187 2.2912581 25.888889
2.0086131 0.50638711 2.5391283 30
2.6473236 0.39227921 -0.047686048 3
2.620822 0.40375197 -0.068694972 2.5
2.5916691 0.42944652 0.18464938 5.4285712
2.6051793 0.43638027 0.4012942 8
2.6820266 0.39662766 1.1123216 15
2.6650174 0.41636586 1.0890633 14.5
2.4881716 0.56559128 1.339902 17.666666
2.428323 -0.44146121 2.072407 24
2.4025161 0.67881411 2.1981866 25
2.4051783 1.0006901 2.2127681 24.666666
2.9576221 -0.23076743 -0.1190564 2.3333333
3.0914519 0.22812948 -0.15804674 2
3.1004131 -0.19847313 0.1841971 5
3.0890615 -0.2408586 0.67869771 9.833333
3.1165314 -0.19281694 0.95703053 12.285714
3.0954235 -0.22728714 1.265031 15
3.4353189 0.36309364 -0.078489773 3
3.447258 0.43215021 -0.060500253 3
3.4363389 0.33431879 0.20474926 5
3.4488537 0.44768843 0.17043042 4.5999999
3.4325118 0.33424741 0.58718181 8.333333
3.4735684 0.54260486 0.59053147 8.2857141
3.4498508 0.34909302 0.84926635 10.5
3.4676151 0.51710421 1.0063877 11.8
3.4401729 0.29428166 1.4233577 15
3.4703093 0.56685269 1.2522285 13.5
3.5908325 0.28379136 2.1585622 19
3.8996279 -0.014654891 -0.19531406 2
3.7014256 0.21429741 -0.060399078 3
3.8477573 -0.28080574 0.034713559 3.5
3.7551024 0.20353678 0.18794872 4.625
3.7943115 0.16782747 0.55983102 7.5999999
3.7092872 0.20755947 0.94910407 11
3.9511192 0.13390397 1.4686739 14
3.8631644 0.16221459 1.8109813 16.166666
3.699086 -0.0052983989 2.0866373 19
3.7119536 0.1738797 2.0829604 18.5
4.0071006 0.086995006 1.7086951 15
5.0610576 -0.055575907 0.25221467 4.5
5.0781245 0.099417485 0.13294452 4
5.0624871 -0.056582794 0.55813187 6.6666665
5.0564108 0.038547181 0.55019933 6.5
5.0063329 0.060820788 0.80793405 8
