# .PCD v0.7 - Point Cloud Data file format
VERSION 0.7
FIELDS x y z intensity
SIZE 4 4 4 4
TYPE F F F F
COUNT 1 1 1 1
WIDTH 450
HEIGHT 1
VIEWPOINT 0 0 0 1 0 0 0
POINTS 450
DATA ascii
-24.29673 6.3113961 -0.26299056 3
-22.885885 5.1635661 -0.13265409 3
-22.467081 4.6054711 0.2672132 4
-22.745005 5.0868368 0.49514407 4
-22.799746 4.8523664 0.83179587 4
-22.587914 5.0057268 1.454926 5
-22.366829 4.7883687 1.2164521 5
-22.374987 4.8118749 2.0884955 6
-19.734449 5.8758211 0.44280332 4
-19.721117 5.7423291 1.1555711 5
-19.756289 5.9295478 1.2909073 5
-19.773458 5.6291261 2.0964098 6
-19.497976 6.0713177 -0.21299151 3
-19.456587 5.9670916 0.21580909 4
-19.390528 6.2643566 0.43928245 4
-19.32551 6.0994248 1.1159658 5
-19.23418 6.439002 1.0945016 5
-19.349178 6.3308153 1.2733762 5
-19.330711 6.1209478 1.8570067 6
-19.150679 6.3709846 2.4283419 7
-18.526773 6.2544956 0.6288079 4
-18.481981 6.4506111 0.4241246 4
-18.491936 6.3022223 1.0518723 5
-18.716669 6.6106448 5.1485319 11
-18.611086 6.8290548 5.4558601 11
-18.262287 6.6531901 -0.20263739 3
-18.303745 6.5776062 0.19925246 4
-18.233841 6.6271563 0.61130321 4
-18.3328 6.6031537 1.0543133 5
-18.089487 7.5995955 5.3659616 11
-18.129131 8.5142069 17.379156 25
-6.9880571 2.9834042 -0.058966413 3
-7.1249452 2.7956121 0.39278111 5
-6.9568577 3.0101776 0.24113679 4.2857141
-7.1774664 2.7475271 0.47972673 5
-6.9636784 3.0273261 0.5074324 5.3333335
-6.7432466 3.2828412 -0.10456497 3
-6.7490849 3.2765772 0.16342711 4
-6.3396015 -0.58860421 -0.12457675 3
-5.0817561 -1.2659341 -0.042895537 3
-4.8960276 -1.3525349 0.058946855 4
-4.8376293 -1.3067962 0.66295356 7
-4.5524302 -1.8585083 -0.048528939 3
-4.4884405 -1.4708959 -0.10232247 3
-4.4983516 -1.4936786 0.39066476 6
-4.6330986 -1.422538 0.46277592 6.5
-4.125783 -2.2057266 -0.038826637 3
-4.1564994 -1.9682149 -0.042724997 3
-4.1727815 -1.5476825 0.49449286 6.5
-3.8351679 -2.2916317 -0.074426487 2.5
-3.6063409 -0.32120425 -0.19982748 2
-3.8508875 1.7457621 -0.16379046 2
-3.8599527 2.0983567 -0.14817692 2
-3.704298 -3.0378518 0.12895328 4
-3.9645076 2.3288176 0.22828764 4.6666665
-3.6239173 2.7590799 0.18944362 4.5
-3.9218419 2.380645 0.42735824 6
-3.6358886 2.7556076 0.53931051 6.6666665
-3.6171277 2.7591739 0.9118914 9
-3.5564747 -2.3593295 -0.10799504 2
-3.3698053 -1.3827189 -0.19839337 2
-3.2368743 -0.98284364 -0.19056213 2
-3.5942051 -0.15304986 -0.20065896 2
-3.3755498 0.630346 -0.023063691 3
-3.4280047 3.0312998 -0.066699035 3
-3.2526124 3.342272 -0.061849982 3
-3.315624 0.62963343 0.1703998 4.75
-3.4130499 3.0680263 0.15426768 4.3000002
-3.2726481 3.3182209 0.1577014 4.5
-3.5958009 2.7924378 0.69644183 8
-3.3968024 3.0838804 0.56029266 7
-3.2722216 3.3220959 0.55308437 7
-3.4257677 3.0569458 1.0470443 10
-3.2901065 3.2785501 1.0397922 10
-3.4933717 2.9811761 1.2421193 11.5
-3.3055084 3.265099 1.2931701 12
-3.3697214 3.5195282 2.7591844 19
-3.2594457 3.5200982 2.8101423 19
-3.2208161 3.319778 4.344903 26
-2.8435798 -2.5554574 -0.055046804 3
-3.0495834 -1.6067768 -0.13592321 2
-2.8281615 0.87738895 -0.19078162 1
-2.8426759 2.1810303 -0.15757258 2
-3.1206734 3.5274546 -0.059837531 3
-2.8990932 3.8396444 -0.056574214 3
-3.0717063 -1.7319133 0.069048561 4
-3.0732653 3.5917614 0.2419766 5
-2.9199057 3.8213351 0.15559545 4.4285712
-3.1073048 3.5582631 0.54894871 7
-2.8897169 3.8651829 0.53128701 6.8333335
-3.0854533 3.5619605 1.0622227 10
-2.8712647 3.8991098 1.1042582 10
-3.120039 3.5183747 1.3102084 12
-2.9229515 3.7831585 1.2697579 11.5
-2.9360008 3.9102213 2.8598549 19
-2.8677466 4.0118494 2.8250918 19
-2.9526534 -1.2432783 3.6731837 29
-3.144037 3.4203224 4.383431 26
-2.9521909 3.5091448 4.5156174 26.75
-2.9141762 3.6939878 4.4500923 26
-2.6496437 -2.1666257 -0.0090575796 3
-2.6558588 -1.2617558 -0.19991931 1
-2.7220995 1.0711321 -0.18654442 1
-2.5419853 2.3237293 -0.16665718 2
-2.7040114 4.1111126 -0.052807361 3
-2.7088881 4.0896821 0.22023812 4.6666665
-2.7081423 4.1035676 0.57645518 7
-2.7922647 3.9567332 1.3492951 12
-2.5773318 4.1857147 4.2180476 25
-2.5698781 3.8392267 4.5362687 26.6
-2.1989231 -2.1381817 -0.015025818 3
-2.172323 -1.8834667 -0.14205316 2
-2.1686528 -1.1536701 -0.20601399 1
-2.1700494 1.3231542 -0.061958726 2.6666667
-2.189785 2.4305675 -0.18179318 2
-2.1942637 3.0405724 -0.1515992 2
-2.0298944 3.4515488 -0.0011312841 3
-2.0198631 5.1297212 -0.031013271 3
-2.2054305 -2.1369016 0.050722875 4
-2.062711 1.3561803 0.19381203 5.5
-2.068424 3.5352752 0.51397365 7.5
-2.0600755 4.9942813 1.3589073 11
-2.1485665 -1.7552795 2.971854 28
-2.1474855 -1.5271624 2.9797683 28.666666
-2.3090689 4.5094538 4.2856956 25
-2.2824211 3.9345658 4.548861 27
-1.7121806 -1.8382037 -0.18373087 1.25
-1.7754914 -1.342893 -0.19540152 1
-1.9561819 -0.98875129 -0.19451278 1
-1.9309253 1.4119484 -0.18144807 1
-1.9490823 1.7296141 -0.19588098 1
-1.7472028 2.6862719 -0.16474155 2
-1.6364241 5.6706901 -0.064096756 3
-1.9084468 -2.2623074 0.08707127 4
-1.9596574 3.547627 0.27387434 5.3333335
-1.9622333 3.6803327 0.034471869 3.5
-1.7862284 4.1531796 0.037786569 3.5
-1.6063967 4.6699924 0.074976057 4
-1.8231012 5.39116 0.022997325 3
-1.9722306 3.5806513 0.42639527 6.5
-1.652064 -2.3729737 1.0742154 14
-1.7690253 -1.7828006 1.9369872 23
-1.7480304 -1.714635 2.0159771 24
-1.7670478 -2.8818994 3.4934738 27.333334
-1.6488851 5.1454921 4.5707097 24.5
-1.5153619 -2.819407 -0.032506321 3
-1.4765687 -2.3805766 -0.023684401 3
-1.3237695 -1.3561071 -0.1934306 0
-1.4152977 -1.1223027 -0.19502635 0
-1.5469108 0.62516183 -0.18844612 0
-1.2963415 1.0485357 -0.18283173 0
-1.5610223 1.4998083 -0.18845962 1
-1.4048278 1.7220926 -0.18500054 1
-1.4555832 2.6115663 -0.16435193 2
-1.4654217 4.2240105 -0.134157 2
-1.3356856 4.5552416 -0.13263179 2
-1.4137185 5.9523401 -0.082067132 3
-1.4860219 -2.3524599 0.15496421 5
-1.3382765 -2.3097277 2.6247046 26.5
-1.3389354 -2.9757266 3.4813187 28
-1.3956366 4.2007146 4.5597377 27
-1.5545776 5.145721 4.5688267 25
-1.3798054 5.2317152 4.5719166 24.333334
-1.0152208 -2.3046768 -0.13936311 2
-1.1992422 1.242746 -0.18572564 0
-1.0020379 1.877972 -0.17088163 1
-1.1406908 2.6010568 -0.160579 2
-0.85087556 4.7097311 -0.012240633 3
-0.86294085 6.6404467 -0.009019766 3
-1.1228648 -3.1832273 0.0040145298 3
-1.128103 -2.6144745 0.31569281 6.5
-1.1271741 -2.6034226 0.45068762 8
-1.0421273 4.8259439 0.47569817 6.5
-1.0949485 -2.8803842 1.6878713 18
-1.1891656 6.1087093 2.3843563 14
-0.85261041 -3.2451336 2.5453353 23
-1.1373069 6.2078214 2.5767617 15
-0.97350091 -2.9297876 2.9365199 26.5
-0.81983566 -3.530622 3.9135432 28
-0.8044154 -3.3915021 4.0154786 29
-0.82294196 5.4768419 4.3946342 24
-0.94036275 4.368412 4.5577374 27
-0.6926201 -2.4727378 -0.15075909 1.5
-0.50252807 1.7477052 -0.16635501 1
-0.43886435 3.1679542 -0.14813012 2
-0.70182341 3.3275943 -0.14807354 2
-0.57453078 7.0294538 -0.00010781447 3
-0.5876013 -2.8853979 0.56057513 8.833333
-0.64357275 -2.971251 1.1414158 14
-0.78023368 -3.2820251 2.5494404 23
-0.79689091 -3.1469536 2.6583405 24
-0.7322064 -3.6044738 3.8246915 27
-0.59664899 -3.3654196 3.8550191 28.6
-0.73465031 4.4277835 4.5585823 27
-0.7256096 5.3609252 4.5553412 24.5
-0.049359113 -2.4205337 -0.091586597 2
-0.15697953 -2.3621931 -0.038957674 2.6666667
-0.27762571 1.77352 -0.16605271 0.5
-0.031516287 2.7203233 -0.15486479 2
-0.28175342 3.1042581 -0.14937699 2
-0.043204479 -2.4266143 0.020426895 3.5
-0.11873237 -2.3322084 0.10308459 4.6666665
-0.25695032 7.4980578 0.0096564963 3
-0.11752507 4.1703324 4.2342038 27
0.22088744 1.801527 -0.16134773 1
0.22521205 2.6944418 -0.15493461 2
0.14675122 8.1524563 -0.064843431 3
0.29917383 -2.4699025 0.1885346 5.5
0.12624767 -2.3496594 0.2602475 6.3333335
0.38144186 3.1477568 0.22724719 5.3333335
0.22741802 3.2833948 0.33934575 6.5
0.23786189 -2.4272361 0.43323585 8.666667
0.22464488 -2.3976219 0.46636254 9
0.39770564 3.124841 0.40720183 7
0.25914386 3.2671952 0.42749918 7
0.093195811 -3.4462743 1.2632493 13.5
0.39543924 -3.4660587 2.8082581 24
0.19464906 4.9520149 4.0578461 24
0.55386174 1.9196174 -0.15820009 1
0.60739988 2.5421755 -0.14980058 2
0.55593753 3.0100298 -0.037846062 2.8
0.57237947 8.7673178 -0.076172985 3
0.75287229 -2.8605087 0.19915771 5.5
0.60988224 2.9810784 0.15671 4.75
0.79542565 -2.8603346 0.52865523 8.5
0.79725027 2.7965839 0.70804799 10
0.64176434 2.9544361 0.57237321 9
0.46525243 -3.5616777 2.7194302 23
0.4357253 -3.4938016 2.8083417 23
1.1492926 -3.1306572 -0.21453868 1
1.0638634 -2.2268295 -0.19975182 1
1.1734424 -1.9534919 -0.19495109 1
1.0659422 1.0293016 -0.16043641 0
0.99622196 1.3394184 -0.15630037 0.75
1.0775504 1.9464899 -0.15088227 1
0.89165205 2.1335211 -0.15235911 1
0.90371412 2.5010984 -0.14458001 2
1.1756728 -3.2137413 0.049550466 3.5
1.0459954 -3.0457969 0.21882321 5.1999998
0.91688037 2.7420239 0.31462824 6.5
0.81193143 -2.8596609 0.58368641 9
0.80469501 2.7953794 0.57607222 9
1.4265599 -3.674011 -0.21675536 2
1.2007991 -3.2090933 -0.03540305 3
1.2175056 -1.8258595 -0.19289488 1
1.549719 -0.56885278 -0.16317815 0
1.5223525 -0.33646122 -0.1600415 0
1.4528219 1.3304083 -0.14860699 1
1.5801759 1.9522941 -0.14270714 2
1.3113234 2.1464689 -0.14431679 2
1.3973452 2.8421862 -0.14240649 2
1.548998 2.2602556 0.35081437 7
1.5179359 2.6839597 0.063326284 4
1.3039769 2.8258159 0.078387417 4
1.5205768 2.2837772 0.66848105 10.5
1.3120259 2.4455547 0.72342438 10.666667
1.354375 -3.8318791 2.092057 17.5
1.6404613 -3.3822324 -0.16846614 2
1.9893955 0.3169547 -0.16214542 1
1.7593623 0.52978224 -0.15839012 1
1.7776741 2.1582608 0.23056443 5.7272725
1.6339998 2.5991397 0.07383655 4
1.9795991 1.9557633 0.6369949 10.333333
1.6753774 2.1704659 0.6195811 10
2.169106 -3.9785416 -0.21417679 2
2.2512512 -3.5159502 -0.17419463 2
2.2825549 -2.7241414 -0.2094056 1
2.2394786 -2.2080483 -0.21131466 1
2.3435144 -1.9111372 -0.20851682 1
2.0703878 -0.55486161 -0.16619945 1
2.0681326 -0.13196418 -0.16441564 1
2.036474 0.17191947 -0.16393545 1
2.3317938 1.16153 -0.14764714 1
2.2186072 1.2380306 -0.1469779 1
2.252228 2.2582452 -0.1469257 2
2.2585597 -3.7401991 0.33940604 5.5
2.2140784 1.8010277 0.23719056 5.909091
2.1404593 2.1357548 0.10060655 4
2.2336838 -3.7677622 0.58586764 7.5
2.2366967 1.7591873 0.59527457 9.2666664
2.120424 1.8664979 0.81264567 12
2.4106824 -3.2266686 -0.21697788 2
2.6870143 -1.0748397 -0.19009335 1
2.59179 1.0926061 -0.14857931 2
2.6327238 1.4721209 -0.052362729 2.5
2.6018898 1.4980837 0.16150695 4.9166665
2.4481409 1.6155305 0.36645421 7
2.6020002 1.4896076 0.53771412 8.333333
2.4347856 1.6035581 0.57278466 9
2.9880219 0.87900084 -0.15458538 2
2.8582187 1.2862664 -0.0497289 2.5
2.990603 6.6989317 -0.094515413 3
3.0385001 1.1846455 0.26220611 5.5
2.874871 1.2968925 0.12605442 4.5
3.0825636 1.1257274 0.49724504 7.5
2.8251846 1.3364397 0.47438389 7.5
3.4952214 -5.1615129 -0.052090406 3
3.5059867 -4.2346277 -0.22242258 2
3.3911006 0.29796481 -0.15973534 2
3.2434452 0.60897958 -0.15831663 2
3.5918107 2.2498722 -0.13019212 2
3.3224123 3.8108623 -0.10411269 3
3.3947537 6.7191463 -0.10143927 3
3.9440699 -0.94134498 -0.17484351 2
3.8583059 -0.62130463 -0.16919281 2
3.8439205 -0.22168669 -0.17100209 2
3.8381572 0.056868836 -0.17574145 2
3.843791 4.0177226 -0.10440903 3
3.8724608 6.1405001 -0.10261633 3
3.6945829 6.5257697 -0.10310318 3
4.3936071 -1.2654203 -0.19485047 2
4.2841411 4.0826044 -0.10057817 3
4.0803709 5.8357902 -0.10229797 3
4.7015734 -3.3961256 -0.23435989 2
4.7347813 -2.948277 -0.22646426 2
4.7797709 -5.4403563 0.0782957 3.5
4.697814 -4.4237185 0.0647569 3.5
4.7272644 -4.356514 0.34104067 5
4.8329215 -4.7208099 -0.095618568 3
5.1632795 -6.1484108 0.025570784 3
4.8565116 -5.3629999 0.22366747 4
4.8050089 -5.3403902 0.40055794 5
5.1482754 -4.8363976 3.6300485 17
5.1273112 -4.7342391 3.6914694 18
5.320446 -5.2651691 -0.18345848 2
5.5563869 -4.5860996 -0.094251305 3
5.4708085 -3.7535143 -0.067734145 3
5.2028131 -5.6505885 0.021456689 3
5.4745622 -4.6552892 0.17528185 3.8333333
5.4066124 -3.7500668 0.18539087 4
5.5655036 -4.5749073 0.57409638 5.6666665
5.3937373 -3.6242688 0.51956779 6
5.4265633 -4.7668757 0.80956429 7
5.5313559 -4.6340246 1.4120115 9
5.4417462 -4.7836742 1.647601 10
5.5038714 -4.695415 2.5985656 13.5
5.4594526 -4.565743 3.5103064 17
5.4168324 -4.4739666 3.6541061 17.5
5.9762006 -5.2835188 -0.23116921 2
5.6097856 -4.4777007 -0.27618861 2
5.6550841 -4.0782485 -0.071252801 3
5.6836057 -3.2944491 -0.064509593 3
5.8318381 -2.1298041 -0.10926857 2.6666667
5.640348 -4.4862027 0.19137466 4
5.7250438 -2.4248681 0.07068298 4
5.7914824 -2.2077792 0.22899854 4.1999998
5.6494627 -4.4667368 0.58813542 5.5
5.7921844 -3.2137415 0.4676635 5
5.7075911 -3.1918981 0.6818276 6
5.7340508 -2.1988065 0.55734998 5.8571429
5.8282523 -1.9242687 0.61311817 6
5.6298637 -4.5181775 0.8038674 7
5.6297083 -4.4761729 1.455852 9
5.8542714 -4.2246852 2.6381919 13.8
5.7726088 -4.1420612 3.5180027 17
5.6771269 -4.0962915 3.6580508 17.75
5.940444 -3.7566948 3.6552854 17.666666
6.1270008 -4.0367465 2.596643 13
6.214519 -3.7561805 2.6584289 13.6
6.353333 -3.5505905 2.6318729 13.5
6.065093 -3.7422581 3.5121562 17
6.337594 -3.4003496 3.4847782 17
6.2469463 -3.299907 3.6654389 17.5
6.3189435 -3.0081961 3.7315674 18
6.0232749 -11.72803 4.7096367 14
6.1772137 -11.562371 4.4428487 13
6.682126 -7.2693772 -0.22702397 2
6.773303 -1.6042362 -0.063369662 3
6.5337753 -3.2710986 2.6819227 13.5
6.6225805 -3.1006665 2.713176 14
6.6486425 -3.0287359 2.8171911 14
6.4371719 -3.2621465 3.4899046 17
6.5277262 -3.1877363 3.2640398 16
6.4983468 -3.0116384 3.6565697 17
6.9200168 -4.5091233 -0.086650394 3
7.0724063 -3.7162516 -0.088702299 3
6.8668175 1.8532972 -0.13460569 3
6.9214058 -1.6956903 0.24995314 4
6.8953819 -1.6674206 0.45188907 5
6.9489865 -2.5930469 3.3055265 16
7.3710561 -2.1121309 -0.039983306 3
7.4312754 -0.62029451 -0.10093357 3
7.4200749 1.391027 -0.14103287 3
7.2972445 -4.7560577 1.1901734 7
7.3741436 -4.7696462 1.4553263 8
7.440208 -4.7193971 1.6841809 9
7.9025517 -1.4632629 -0.06746161 3
7.703846 -1.0628414 -0.074105598 3
7.8567648 -1.4132117 0.19642222 3.6666667
7.8023067 -1.4024777 0.49331883 5
8.175725 -10.912725 -0.11764065 3
9.0935469 -4.2277946 0.75330859 5
8.9650049 -4.1327682 1.0470238 6
9.0983839 -4.1936898 1.3293014 7
9.0774269 -4.2079458 1.7572702 8.5
9.1121607 -4.0420198 2.1042516 9.5
10.138931 -12.150198 1.7916601 7
10.289732 -12.129607 2.3309426 8
10.320864 -11.975798 3.1889391 9
11.149787 -5.7326703 0.38086158 4
11.486686 3.6748996 0.057967868 3
11.824713 3.1613348 0.20532134 4
12.120114 -8.8649292 0.47210085 4
17.945131 -0.68886596 0.62135291 4
18.151955 0.3450872 0.090686448 3
19.587158 1.3314682 0.091107853 3
19.361429 2.2630508 0.086644851 3
20.948338 4.5796967 0.35745525 4
23.916391 -3.3467402 3.0560594 7
23.948347 -3.3450871 4.320116 8
24.04393 -0.75230283 -0.071037948 3
24.252312 -4.0017385 3.1211739 7
24.327141 -3.690634 3.0930562 7
24.475231 -2.2759705 4.3421226 8
24.538488 -1.8982354 4.4928966 9
24.417303 -2.073468 4.9418435 9
24.571836 -1.646054 5.0617251 9
24.683258 -1.9393233 5.6211867 10
24.937513 -1.7493244 4.3934522 8
26.292051 0.99782544 3.9020658 8
26.182396 1.1459618 4.620719 8.5
26.636902 1.2478026 2.8373899 6
26.506704 0.83692938 3.2986081 7
28.686548 3.0242717 3.5639203 7
28.84903 3.3153241 3.9058561 7
29.079638 3.1847022 4.2834134 8
28.858334 3.2539203 4.8869481 8
29.159948 3.3263054 5.5733852 9
29.508966 -17.576508 28.419821 24
29.985029 -16.899727 28.416376 24
30.224253 -17.031635 27.184877 23
30.05938 -17.694519 28.012899 24
30.68796 -16.447359 27.247446 23
31.001856 -16.425186 28.172016 24
31.238012 -16.212593 26.667343 23
32.272427 -9.4517946 27.005287 24
33.599857 -6.5096264 7.6745129 10
33.905014 -6.7715316 5.3372469 8
33.960518 -5.9406643 6.3337021 9
33.809681 -6.6582565 7.147995 9
33.737583 -6.2579637 7.03056 9
34.156689 -5.8224587 7.7889543 10
38.691727 -5.0912356 9.6002769 10
38.864269 -4.8261251 8.8463507 10
38.83947 -3.8038263 13.963428 14
39.247471 -4.2434201 11.725522 12
39.398762 -3.9452858 15.085527 14
41.836365 -1.5605825 12.345535 12
42.081547 -0.42125463 16.135838 14
42.467339 -0.58903944 12.493669 12
