# .PCD v0.7 - Point Cloud Data file format
VERSION 0.7
FIELDS x y z intensity
SIZE 4 4 4 4
TYPE F F F F
COUNT 1 1 1 1
WIDTH 1154
HEIGHT 1
VIEWPOINT 0 0 0 1 0 0 0
POINTS 1154
DATA ascii
0.17900001 -3.503 -0.105 0
0.1737158 -3.437407 -0.11373041 0
0.28291786 -3.4293916 -0.18600914 0
0.18048361 -3.3433161 -0.15618084 0
0.23694524 -3.373261 -0.18650609 0
0.17522085 -3.2482226 -0.17212115 0
0.26047263 -3.2631307 -0.18850304 0
-1.1484039 -3.1456573 -0.1046806 0
0.14996493 -3.1425862 -0.152971 0
-1.1186026 -3.0667715 -0.11812039 0
-0.96803045 -3.0512218 -0.1745162 0
0.13978598 -3.0162344 -0.16978839 0
-1.0386974 -2.9511092 -0.14086737 0
-0.92141831 -2.9459331 -0.17670973 0
0.133 -2.9319999 -0.18099999 0
-1.0357929 -2.8648479 -0.13572897 0
-0.95731592 -2.8488972 -0.1267253 0
-0.89399999 -2.8840001 -0.178 0
-1.0192722 -2.7799757 -0.15775664 0
-0.9513486 -2.7404356 -0.14069995 0
-0.667 -2.7290001 -0.178 0
-0.95305711 -2.6636636 -0.15780403 0
-0.88518858 -2.6316299 -0.1404735 0
-0.7789346 -2.6481524 -0.1740247 0
-0.64622259 -2.6442828 -0.1695901 0
-0.26300001 -2.6010001 -0.15800001 0
-0.94030559 -2.5717015 -0.16184565 0
-0.86745799 -2.5351315 -0.14631096 0
-0.74573845 -2.5376089 -0.15609875 0
-0.62544525 -2.5595653 -0.16118021 0
-0.25536817 -2.5185761 -0.15138574 0
-1.102 -2.4289999 -0.18000001 0
-1.0089999 -2.4159999 -0.121 0
-0.83837175 -2.44944 -0.15134394 0
-0.72360766 -2.4639134 -0.14414814 0
-0.60466784 -2.474848 -0.15277031 0
-0.24773632 -2.4361522 -0.14477147 0
-1.0657089 -2.3500729 -0.17124444 0
-0.98393875 -2.3584032 -0.12704547 0
-0.82696062 -2.3382306 -0.16371554 0
-0.76042527 -2.3691216 -0.14576672 0
-0.69 -2.352 -0.126 0
-0.5563345 -2.3551815 -0.14410365 0
-0.24010447 -2.3537283 -0.1381572 0
-0.192 -2.306 -0.13500001 0
0.30399999 -2.306 -0.109 0
-1.201 -2.26 -0.178 0
-1.0294176 -2.2711461 -0.16248888 0
-0.93056267 -2.2510386 -0.12939616 0
-0.80740476 -2.2481728 -0.16215341 0
-0.7557497 -2.2478948 -0.16393298 0
-0.60327435 -2.2461624 -0.12110785 0
-0.52436352 -2.2579331 -0.13494998 0
-0.49078262 -2.22034 -0.13271867 0
-0.23247263 -2.2713044 -0.13154294 0
-0.1327267 -2.2437065 -0.12763225 0
-1.311 -2.175 -0.178 0
-1.2643886 -2.1001086 -0.16760466 0
-1.139223 -2.1408587 -0.16552287 0
-0.96187788 -2.1542816 -0.12981994 0
-0.87855369 -2.1427057 -0.13626371 0
-0.74882627 -2.1539707 -0.17032941 0
-0.69966787 -2.1359124 -0.16826424 0
-0.56003565 -2.1367681 -0.12144881 0
-0.47517392 -2.1455102 -0.123078 0
-0.22142038 -2.1519403 -0.12196434 0
-0.1386801 -2.1281195 -0.11439672 0
-1.2177771 -2.0252175 -0.15720931 0
-1.077446 -2.0217173 -0.15304576 0
-0.92054415 -2.0343652 -0.13622218 0
-0.85735828 -2.0410259 -0.14606206 0
-0.73990083 -2.0815287 -0.17369223 0
-0.67500001 -2.046 -0.176 0
-0.52889043 -2.0436306 -0.11736041 0
-0.47085509 -2.0528934 -0.11114577 0
-0.34200001 -2.0439999 -0.115 0
-0.16723257 -2.0436747 -0.1056977 0
-0.098307744 -2.0376835 -0.10299247 0
-1.1711657 -1.9503262 -0.14681394 0
-1.0362614 -1.9422898 -0.14472768 0
-0.8645404 -1.9579002 -0.13504858 0
-0.75522798 -1.9738512 -0.16816202 0
-0.32780588 -1.9617665 -0.10126872 0
0.32100001 -1.974 -0.13600001 0
-1.311 -1.887 -0.17399999 0
-1.2634248 -1.8197707 -0.16736281 0
-1.1245544 -1.875435 -0.1364186 0
-1.077943 -1.8005438 -0.12602325 0
-0.99507678 -1.8628623 -0.1364096 0
-0.83750731 -1.858428 -0.12377329 0
-0.77766675 -1.8610001 -0.17366667 0
0.30633309 -1.8848846 -0.12745978 0
-1.2151164 -1.7515104 -0.16072819 0
-1.0313315 -1.7256526 -0.11562789 0
-0.95826602 -1.7223454 -0.15963762 0
-0.82404959 -1.7789724 -0.11387733 0
0.28433275 -1.7512115 -0.11464944 0
-1.1410657 -1.6376369 -0.16428789 0
-1.015 -1.654 -0.176 0
-0.95128846 -1.6522713 -0.16567089 0
-0.87152278 -1.6245797 -0.11145535 0
-0.76778102 -1.6582327 -0.12404833 0
0.26233238 -1.6175385 -0.10183911 0
-1.351055 -1.5092068 -0.10681646 0
-1.266 -1.513 -0.176 0
-1.110106 -1.5448958 -0.1760186 0
-1.0580646 -1.5400238 -0.15899594 0
-0.96499997 -1.568 -0.17399999 0
-0.83033818 -1.5451522 -0.10313727 0
-0.7473613 -1.5358001 -0.11266479 0
-1.8 -1.4299999 -0.184 0
-1.6269373 -1.4436427 -0.1763289 0
-1.5541241 -1.4015101 -0.17527431 0
-1.401 -1.469 -0.17200001 0
-1.3483193 -1.4122218 -0.17200001 0
-1.2633135 -1.4596833 -0.14480762 0
-1.1821713 -1.416597 -0.17460285 0
-1.0400177 -1.4674826 -0.17416976 0
-0.73150003 -1.456 -0.1145 0
-0.67400002 -1.457 -0.141 0
1.0779999 -1.4069999 -0.16500001 0
1.136 -1.411 -0.171 0
-1.7404567 -1.3808851 -0.18287866 0
-1.6696467 -1.3550221 -0.18065053 0
-1.5527387 -1.3314269 -0.17617783 0
-1.4904368 -1.3440918 -0.17456193 0
-1.2420392 -1.3514775 -0.15581904 0
-1.1607276 -1.33724 -0.15670179 0
-1.0789213 -1.3306117 -0.13801464 0
1.0525398 -1.3391027 -0.15738288 0
1.107 -1.311 -0.163 0
-2.4860001 -1.219 -0.16500001 0
-1.6395875 -1.235729 -0.17632364 0
-1.5580703 -1.2532048 -0.17852683 0
-1.4498678 -1.2582711 -0.15072709 0
-1.3441379 -1.2509155 -0.15280928 0
-1.2574036 -1.2398257 -0.16539502 0
-1.1537677 -1.2589524 -0.17233384 0
-1.0249213 -1.2986116 -0.11501466 0
-0.97799999 -1.242 -0.127 0
0.97031444 -1.2346892 -0.14197487 0
1.0379655 -1.2590408 -0.15166402 0
1.102 -1.243 -0.16 0
-2.4104753 -1.1820871 -0.1558876 0
-2.3349504 -1.1451741 -0.14677522 0
-2.2594256 -1.1082612 -0.13766281 0
-1.546823 -1.1462469 -0.163239 0
-1.439244 -1.1526308 -0.17565303 0
-1.3413435 -1.1601464 -0.16543734 0
-1.2528177 -1.1380074 -0.16794339 0
-1.1663333 -1.15 -0.17466666 0
0.86444116 -1.1239498 -0.11838995 0
0.95036745 -1.1465739 -0.13347563 0
1.0440838 -1.1767781 -0.14810251 0
-2.1461384 -1.0528919 -0.12399422 0
-1.9126992 -1.0547469 -0.12389288 0
-1.8232133 -1.034415 -0.16203384 0
-1.7497674 -1.0285954 -0.17007846 0
-1.511981 -1.0848526 -0.12382319 0
-1.4377578 -1.0484523 -0.13621987 0
-1.3571341 -1.055325 -0.160428 0
-1.2762464 -1.0543953 -0.16941907 0
-1.1853334 -1.045 -0.17233332 0
0.85078907 -1.0555369 -0.11559828 0
0.92825168 -1.0443343 -0.12430751 0
-2.0328512 -0.99752247 -0.11032562 0
-1.9467659 -0.96238613 -0.14680159 0
-1.839606 -0.91395229 -0.16842036 0
-1.7542082 -0.96714902 -0.14455815 0
-1.6678953 -0.95094395 -0.1625797 0
-1.5601133 -0.97379452 -0.1504588 0
-1.4630076 -0.93821311 -0.15643996 0
-1.3561696 -0.96208119 -0.14380513 0
-1.2447219 -0.95639056 -0.16819774 0
-1.1305244 -0.92586923 -0.14989388 0
0.74728608 -0.92777526 -0.10392779 0
0.82813311 -0.96713507 -0.10797243 0
-1.7473507 -0.86837035 -0.16680849 0
-1.635756 -0.85356158 -0.14445783 0
-1.5404267 -0.86784285 -0.16350389 0
-1.4559857 -0.82173395 -0.16002163 0
-1.3400829 -0.84121746 -0.13949625 0
-1.2786479 -0.85083425 -0.13749813 0
-1.0607622 -0.86893463 -0.14594695 0
-0.991 -0.81199998 -0.142 0
1.3360736 -0.80218816 -0.16740234 0
1.4395001 -0.84100002 -0.18099999 0
-1.7446667 -0.76033336 -0.18033333 0
-1.6693631 -0.74145997 -0.17100726 0
-1.5633711 -0.74265021 -0.14512476 0
-1.4390401 -0.7122398 -0.10550847 0
-1.3612293 -0.77188277 -0.17552097 0
-1.2480986 -0.74222279 -0.13783208 0
-1.1380986 -0.71422285 -0.10433208 0
1.1902207 -0.71456444 -0.14220703 0
1.2551618 -0.73378801 -0.15014148 0
1.3531792 -0.74831921 -0.162119 0
1.459 -0.78399998 -0.17900001 0
1.5270727 -0.72695434 -0.13357046 0
1.6059999 -0.74833339 -0.133 0
-1.615271 -0.68431616 -0.1523613 0
-1.5464725 -0.67607838 -0.14968365 0
-1.4458632 -0.63946867 -0.13599341 0
-1.367552 -0.62522417 -0.13118848 0
-1.2829056 -0.60432893 -0.12489416 0
-1.062 -0.667 -0.106 0
1.0714974 -0.62580353 -0.11907107 0
1.1508611 -0.65392947 -0.13085914 0
1.2365407 -0.66407698 -0.14199775 0
1.3668604 -0.66087329 -0.11407254 0
1.4511452 -0.69090861 -0.11964092 0
1.5700001 -0.60500002 -0.17299999 0
-1.3348539 -0.59021223 -0.12659001 0
-1.2479119 -0.56330132 -0.12022968 0
-1.151 -0.54400003 -0.107 0
0.97144133 -0.58312881 -0.10441405 0
1.0422229 -0.57022732 -0.11042719 0
1.3423996 -0.51490813 -0.13770086 0
1.4561999 -0.55995405 -0.15535042 0
1.551443 -0.51600659 -0.16686165 0
1.6339999 -0.56950003 -0.1295 0
-1.864 -0.42199999 -0.177 0
-1.7853594 -0.40604115 -0.16777079 0
1.164333 -0.44442344 -0.11008404 0
1.2665327 -0.48487753 -0.12593447 0
1.46 -0.48500001 -0.18000001 0
1.543938 -0.44821617 -0.10829341 0
1.6614928 -0.43619657 -0.12948588 0
1.72475 -0.42725 -0.1375 0
-1.7067189 -0.3900823 -0.15854159 0
-1.6280785 -0.37412348 -0.14931238 0
-1.5494379 -0.35816464 -0.14008316 0
-1.4628987 -0.34060287 -0.12992698 0
1.373 -0.31999999 -0.168 0
1.4758831 -0.33236852 -0.15105866 0
1.5495527 -0.34592623 -0.1428266 0
1.6467385 -0.34901959 -0.14405547 0
1.7450104 -0.33885604 -0.14169416 0
1.8482077 -0.33594432 -0.14637314 0
1.943194 -0.33228213 -0.15501107 0
1.262 -0.242 -0.1435 0
1.3596346 -0.25357497 -0.14360316 0
1.4663227 -0.23983499 -0.16367488 0
1.5444876 -0.24922583 -0.16258267 0
1.637278 -0.24410288 -0.15299307 0
1.7536144 -0.24245866 -0.15263774 0
1.8543491 -0.25853702 -0.16245662 0
1.943993 -0.26343304 -0.16494462 0
2.022773 -0.2948451 -0.16799508 0
-2.227 -0.156 -0.132 0
-2.1547582 -0.14847481 -0.11920718 0
1.3429999 -0.111 -0.1645 0
1.4306824 -0.11830489 -0.16446796 0
1.5189098 -0.14840652 -0.16462396 0
1.6498883 -0.1365671 -0.16438785 0
1.7661402 -0.12614864 -0.1646699 0
1.8722266 -0.14122969 -0.16453849 0
1.9545107 -0.14725369 -0.16491029 0
2.0460079 -0.14068317 -0.1633037 0
2.1352782 -0.14586212 -0.16281721 0
2.2183514 -0.15060644 -0.16234472 0
2.347054 -0.13731931 -0.16153419 0
2.4876013 -0.14277175 -0.13676432 0
2.5754189 -0.14712095 -0.14385429 0
2.6632366 -0.15147012 -0.15094423 0
2.7523696 -0.15587954 -0.15802281 0
1.35525 -0.044999998 -0.16500001 0
1.4411021 -0.0484524 -0.1645962 0
1.5269543 -0.051904801 -0.16419241 0
1.6386715 -0.05072445 -0.163469 0
1.7610443 -0.043255482 -0.16440214 0
1.8609372 -0.049799412 -0.16315559 0
1.9427907 -0.048739474 -0.16447739 0
2.0630074 -0.058267064 -0.16075915 0
2.1716917 -0.060587727 -0.16011453 0
1.33025 0.043000001 -0.164 0
1.4486983 0.05415938 -0.16407178 0
1.5506421 0.045944571 -0.16420686 0
1.6576827 0.054107565 -0.16357782 0
1.7692891 0.044470958 -0.1640662 0
1.8637979 0.049799792 -0.16385636 0
1.9619824 0.035991807 -0.16527484 0
2.0513747 0.07240285 -0.16131279 0
2.1623983 0.075414106 -0.16105095 0
1.285 0.14399999 -0.161 0
1.3423077 0.15041231 -0.16338257 0
1.4409841 0.16257903 -0.16348617 0
1.5494995 0.14215769 -0.16397239 0
1.6487017 0.14898813 -0.16401403 0
1.7555219 0.14865346 -0.16325684 0
1.8534275 0.14256629 -0.16304925 0
1.9690968 0.14863005 -0.16708729 0
2.063174 0.16839315 -0.16090807 0
2.150177 0.17548481 -0.15581612 0
2.250015 0.15914872 -0.13744837 0
2.3346868 0.16453163 -0.1272645 0
2.4193583 0.16991454 -0.11708061 0
2.50403 0.17529744 -0.10689674 0
1.286 0.208 -0.162 0
1.3625638 0.24305819 -0.16280988 0
1.4649814 0.25690144 -0.161965 0
1.5505805 0.24071331 -0.16246951 0
1.6540897 0.25743183 -0.16138372 0
1.7414869 0.24768348 -0.16296217 0
1.8417519 0.25288358 -0.1622538 0
1.9503407 0.26114205 -0.16468643 0
2.0338182 0.28745568 -0.16246906 0
2.2342026 0.20628345 -0.164 0
2.3852153 0.21770073 -0.164 0
2.4758227 0.22455111 -0.164 0
2.5664303 0.23140149 -0.164 0
2.657038 0.23825186 -0.164 0
2.7476454 0.24510223 -0.164 0
2.838253 0.25195259 -0.164 0
2.9288607 0.25880298 -0.164 0
3.0194683 0.26565334 -0.164 0
3.153038 0.27575189 -0.164 0
3.3459072 0.26706237 -0.11686078 0
3.4762714 0.27870825 -0.13824052 0
3.5631809 0.28647217 -0.15249367 0
3.6500905 0.29423606 -0.16674684 0
1.26 0.35233334 -0.162 0
1.3569411 0.35252455 -0.16244642 0
1.4395862 0.35942963 -0.16189124 0
1.5327201 0.36991417 -0.16162364 0
1.64335 0.36190677 -0.16066861 0
1.765341 0.36803138 -0.16007043 0
1.8183638 0.32415888 -0.16114573 0
1.9556227 0.37681174 -0.15822558 0
2.0677485 0.3973425 -0.14992499 0
2.1507652 0.30487922 -0.1620509 0
2.2541437 0.31990501 -0.162 0
2.3432875 0.33281001 -0.162 0
2.4324315 0.34571505 -0.162 0
2.5215752 0.35862005 -0.162 0
2.6552911 0.37797755 -0.162 0
2.7890067 0.39733505 -0.162 0
3.737 0.30199999 -0.18099999 0
1.2386667 0.45533332 -0.16266666 0
1.3418528 0.44891986 -0.16139619 0
1.4459815 0.46561706 -0.16058046 0
1.5458796 0.45867321 -0.160676 0
1.660823 0.44929361 -0.15968286 0
1.7403843 0.45230231 -0.15878208 0
1.8436062 0.45893297 -0.1490825 0
1.9461411 0.46815184 -0.13978927 0
2.0158403 0.4732298 -0.14090267 0
2.1290405 0.44800091 -0.14511845 0
2.241246 0.42802754 -0.13377498 0
2.3279946 0.44337004 -0.12569997 0
2.4147432 0.45871258 -0.11762497 0
2.5448663 0.48172635 -0.10551245 0
2.8781505 0.41024005 -0.162 0
2.9672942 0.42314506 -0.162 0
3.0597191 0.43652505 -0.162 0
-1.191 0.579 -0.17299999 0
1.1825 0.53275001 -0.1605 0
1.2565118 0.56756872 -0.16163625 0
1.3606049 0.54363573 -0.16365983 0
1.4683427 0.55563569 -0.16124423 0
1.5651782 0.54150164 -0.16194503 0
1.657041 0.56583267 -0.15686946 0
1.7385231 0.54554069 -0.15643378 0
1.8413198 0.54623532 -0.15025415 0
1.9633211 0.55687016 -0.14266321 0
2.076689 0.54100585 -0.12690262 0
2.1665986 0.5507493 -0.12369021 0
2.2711806 0.53295958 -0.12230533 0
2.3590217 0.5488044 -0.14042708 0
2.456584 0.57381684 -0.1373869 0
2.5335822 0.52034807 -0.15392441 0
2.6206641 0.54769617 -0.14384878 0
-4.5819998 0.69599998 -0.113 0
-1.728292 0.69966978 -0.1705119 0
-1.6470417 0.68547541 -0.17166667 0
-1.521 0.6825 -0.169 0
-1.4233295 0.69247288 -0.16927278 0
-1.3426158 0.67220187 -0.16829482 0
-1.2428331 0.66481262 -0.16578519 0
-1.1395 0.63800001 -0.1645 0
-1.069 0.68199998 -0.161 0
1.1702501 0.63475001 -0.16125 0
1.2482597 0.66345388 -0.15676212 0
1.346467 0.64318579 -0.1593349 0
1.4349462 0.64313483 -0.16242348 0
1.551265 0.64852184 -0.16093419 0
1.639185 0.63429147 -0.16299336 0
1.7486953 0.65070319 -0.1563288 0
1.850715 0.63950711 -0.15312192 0
1.945706 0.64751381 -0.13713339 0
2.0539482 0.64561266 -0.12844476 0
2.1384659 0.64714271 -0.128971 0
2.2412331 0.6516909 -0.13807496 0
2.3326795 0.65020704 -0.13391984 0
2.4192767 0.67273664 -0.13033694 0
2.5255132 0.67526376 -0.13781798 0
2.613348 0.69729304 -0.13546443 0
3.2524412 0.65860403 -0.11490227 0
3.3817763 0.6864416 -0.1383609 0
-4.664125 0.70720643 -0.10497149 0
-1.8172752 0.76376295 -0.16827944 0
-1.7496969 0.75184727 -0.16942707 0
-1.6425297 0.74324936 -0.16795234 0
-1.5472511 0.74761021 -0.16700324 0
-1.4525203 0.75774306 -0.16579941 0
-1.3433086 0.75993925 -0.16462269 0
-1.2485523 0.75838572 -0.16303416 0
-1.1565192 0.74723071 -0.16268452 0
-1.0475 0.76224995 -0.16150001 0
1.1618781 0.74646133 -0.15555158 0
1.2690198 0.73905778 -0.15990236 0
1.3562365 0.75089675 -0.15350743 0
1.4587591 0.7507695 -0.15356943 0
1.5543114 0.73617643 -0.16572292 0
1.6532947 0.7512784 -0.16244766 0
1.7702699 0.76476121 -0.16603026 0
1.8691868 0.72941303 -0.16948502 0
1.9535388 0.73855448 -0.16331607 0
2.0472789 0.75616562 -0.13580805 0
2.1451497 0.7447449 -0.13133618 0
2.2511778 0.77473575 -0.10054059 0
2.3455844 0.73219848 -0.13213716 0
2.4630001 0.70899999 -0.117 0
2.668 0.71100003 -0.134 0
3.4679999 0.70499998 -0.154 0
-2.918 0.89600003 -0.178 0
-2.8069999 0.87800002 -0.177 0
-2.6849999 0.88499999 -0.18000001 0
-2.5492191 0.88748497 -0.17450547 0
-2.4529505 0.87444329 -0.17649509 0
-2.3525 0.83599997 -0.1785 0
-1.7369621 0.85868263 -0.16461276 0
-1.6604941 0.85393178 -0.16603091 0
-1.5512834 0.84549636 -0.16594785 0
-1.4516474 0.85023105 -0.16598776 0
-1.3481758 0.84985757 -0.16439024 0
-1.2713927 0.85762429 -0.16357355 0
-1.1656854 0.85925829 -0.16269957 0
-1.0580791 0.85839432 -0.16069196 0
-0.98249996 0.87650001 -0.162 0
1.2471191 0.85048509 -0.15534748 0
1.3572201 0.86822397 -0.1343151 0
1.4385619 0.82984602 -0.15910947 0
1.5396832 0.84651929 -0.14309479 0
1.6533947 0.8504703 -0.15263771 0
1.7272294 0.8585692 -0.17360479 0
1.8460343 0.854895 -0.15433809 0
1.9456556 0.80941892 -0.18279599 0
2.0585001 0.82350004 -0.15549999 0
-5.238061 0.98859113 -0.15205525 0
-5.1242428 0.97536457 -0.14022097 0
-5.0483642 0.96654689 -0.13233146 0
-4.960743 0.95636463 -0.12322098 0
-4.7282515 0.97540665 -0.10110258 0
-4.646626 0.95870334 -0.11355129 0
-4.5650001 0.94199997 -0.126 0
-3.1270001 0.98299998 -0.117 0
-3.0456929 0.94186324 -0.15374915 0
-2.9575961 0.95558339 -0.16089737 0
-2.8559558 0.95501727 -0.16589965 0
-2.7428238 0.94137591 -0.17138216 0
-2.6574948 0.9255591 -0.17263387 0
-2.569242 0.92458749 -0.17473255 0
-1.8366907 0.94501042 -0.16314888 0
-1.6563995 0.9542613 -0.16686645 0
-1.547462 0.94444203 -0.1656712 0
-1.4491109 0.93816757 -0.16528703 0
-1.35151 0.95982456 -0.16449808 0
-1.2384712 0.94146448 -0.16411227 0
-1.129361 0.94502407 -0.1624933 0
-1.0373427 0.94712591 -0.16270685 0
-0.93124998 0.94525003 -0.16125 0
1.3571122 0.95102489 -0.1485903 0
1.4279044 0.94983041 -0.1494267 0
1.5252057 0.9621073 -0.15156892 0
1.7501065 0.92664689 -0.1718896 0
1.853 0.96200001 -0.192 0
-3.1329999 1.053 -0.1505 0
-3.0661776 1.0314045 -0.15395045 0
-2.9476337 1.0355986 -0.16663456 0
-2.8541913 1.0256062 -0.17092052 0
-2.415 1.076 -0.169 0
-1.6261376 1.0373487 -0.16683225 0
-1.543225 1.0494827 -0.16515516 0
-1.4639187 1.0576662 -0.16540276 0
-1.3726721 1.0459565 -0.16592598 0
-1.2513574 1.0442598 -0.1630411 0
-1.1514789 1.0484687 -0.16280115 0
-1.0539958 1.056042 -0.16116549 0
-0.95502478 1.0415214 -0.16064437 0
-0.87650001 1.0185001 -0.16150001 0
0.54361212 1.0912447 -0.10711437 0
-2.6345446 1.1744983 -0.16484645 0
-2.561363 1.1416656 -0.16623098 0
-2.4881816 1.1088327 -0.16761549 0
-1.535377 1.1496025 -0.16604143 0
-1.4353346 1.1555307 -0.16422987 0
-1.3334363 1.150068 -0.16488932 0
-1.2370321 1.1560946 -0.16309106 0
-1.1619624 1.1445986 -0.16133295 0
-1.071854 1.1556301 -0.16044335 0
-0.98449349 1.1468775 -0.16229185 0
-0.86517376 1.1465257 -0.11023457 0
0.57655609 1.1551224 -0.11980718 0
-2.7578781 1.2298317 -0.16251312 0
-1.505 1.2410001 -0.163 0
-1.4519942 1.2561886 -0.16500062 0
-1.3423747 1.2525815 -0.16379167 0
-1.235458 1.245802 -0.16262169 0
-1.1349696 1.2379762 -0.16116332 0
-1.053377 1.2328166 -0.16292487 0
-0.94584215 1.2560322 -0.13166822 0
0.59100002 1.2180001 -0.131 0
0.62800002 1.22 -0.134 0
-1.6247454 1.3872112 -0.16472295 0
-1.5559635 1.352362 -0.16531278 0
-1.4439943 1.3220555 -0.16420238 0
-1.3549068 1.3663216 -0.16331333 0
-1.260591 1.3387135 -0.16214889 0
-1.1649446 1.3463693 -0.16287097 0
-1.0143368 1.3490129 -0.1498673 0
-1.6445665 1.4541143 -0.16443291 0
-1.5299642 1.4465283 -0.16325715 0
-1.4508617 1.450104 -0.16425964 0
-1.345822 1.4620132 -0.16319768 0
-1.258247 1.4298576 -0.16273053 0
-1.0599999 1.411 -0.162 0
-1.8343632 1.561528 -0.16280738 0
-1.7510014 1.5280334 -0.16448198 0
-1.6858622 1.5519757 -0.163 0
-1.5527273 1.5544864 -0.16332796 0
-1.4213148 1.5392138 -0.16252339 0
-1.3458443 1.5566549 -0.164 0
-1.9293432 1.6610922 -0.16289973 0
-1.8306535 1.6520708 -0.164 0
-1.7324471 1.6414629 -0.16277327 0
-1.6448431 1.6443608 -0.16355795 0
-1.5454841 1.6707073 -0.16277944 0
-1.4587374 1.6276578 -0.16331808 0
-2.4275048 1.7634059 -0.14950539 0
-2.3610001 1.716 -0.164 0
-2.1138539 1.7939503 -0.16025329 0
-2.0439811 1.7358447 -0.16089182 0
-1.9758563 1.7441298 -0.16500001 0
-1.8614459 1.7660599 -0.16254652 0
-1.7593225 1.7568412 -0.1632085 0
-1.657533 1.7524254 -0.16355637 0
-1.5704062 1.7750793 -0.16296524 0
-1.4939181 1.7277467 -0.164 0
-2.5605142 1.8582177 -0.12051615 0
-2.4940095 1.8108118 -0.13501076 0
-2.3521733 1.8775868 -0.15622601 0
-2.2880001 1.8329999 -0.16500001 0
-2.1459627 1.8563187 -0.16230738 0
-2.0288587 1.8327756 -0.164 0
-1.9259453 1.8283584 -0.16243315 0
-1.8342429 1.8502302 -0.16325475 0
-1.7317375 1.8679477 -0.16316353 0
-1.6305875 1.8427951 -0.1630583 0
-2.6270189 1.9056237 -0.10602154 0
-2.4451437 1.9649627 -0.14135018 0
-2.3379855 1.9676707 -0.1501269 0
-2.2398 1.9230001 -0.1622 0
-2.1454566 1.9542693 -0.16366667 0
-2.054944 1.9529554 -0.16220641 0
-1.9496671 1.9481049 -0.16269937 0
-1.8599826 1.9523973 -0.16339597 0
-1.7799997 1.9414166 -0.16393733 0
-1.6716067 1.9330566 -0.164 0
-2.623982 2.082926 -0.11165455 0
-2.5515091 2.0592816 -0.12232836 0
-2.4606807 2.0580955 -0.13717294 0
-2.3586597 2.0450528 -0.13707468 0
-2.2515824 2.0597811 -0.14886925 0
-2.1568182 2.0651014 -0.1576332 0
-2.0390632 2.0474885 -0.16256039 0
-1.955161 2.0686536 -0.16294545 0
-1.8627632 2.0554528 -0.16276792 0
-1.7604508 2.0357118 -0.164 0
-2.6181557 2.1704721 -0.11399873 0
-2.5389428 2.1421824 -0.11750762 0
-2.4333148 2.1499372 -0.11115076 0
-2.3394215 2.1476381 -0.12656252 0
-2.2381527 2.1572347 -0.1438081 0
-2.1330583 2.1439385 -0.14158168 0
-2.0472264 2.156076 -0.15256685 0
-1.9704056 2.1298475 -0.16524495 0
-1.8651476 2.1566834 -0.164 0
-2.6587214 2.2363458 -0.10706674 0
-2.5802777 2.2090685 -0.11130089 0
-2.4342625 2.247035 -0.11665168 0
-2.348953 2.2371185 -0.11775702 0
-2.2450488 2.2621794 -0.12281023 0
-2.151706 2.252975 -0.12739688 0
-2.0966809 2.232816 -0.13596559 0
-2.466248 2.3361239 -0.10551444 0
-2.3798258 2.3420777 -0.11224173 0
-2.2305415 2.3580723 -0.11002322 0
-2.151581 2.3199739 -0.12670667 0
-2.4390323 2.4040973 -0.10005216 0
-2.3286264 2.4169409 -0.10250919 0
-2.2639685 2.4472899 -0.10051113 0
-1.263 -3.4489999 -0.053000003 0
-1.2229071 -3.3428717 -0.071081102 0
-1.1782053 -3.2245431 -0.091240793 0
-0.97183919 -2.9515624 -0.09482117 0
-1.809 -2.885 -0.057 0
-1.7602768 -2.809773 -0.04843108 0
-1.7115535 -2.7345457 -0.03986216 0
-1.4556501 -2.7518942 -0.026894575 0
-1.6628302 -2.6593184 -0.031293239 0
-1.4006002 -2.6375771 -0.011578295 0
-1.6141069 -2.5840914 -0.022724319 0
-1.5653837 -2.5088644 -0.014155399 0
-1.3639003 -2.5613656 -0.0013674404 0
-0.45321772 -2.5096455 -0.0094206817 0
-1.5166603 -2.4336371 -0.0055864789 0
-0.99309587 -2.4339581 -0.083134219 0
-0.43810886 -2.4228227 -0.024210341 0
-1.022 -2.312 -0.082000002 0
-0.95773584 -2.3482137 -0.096944362 0
-0.42300001 -2.336 -0.039000001 0
-1.0020332 -2.2694101 -0.089712478 0
-0.10377828 -2.2786057 -0.022221714 0
-0.094999999 -2.276 -0.022 0
0.29238507 -2.2173493 -0.098079979 0
0.347 -2.283 -0.090999998 0
-1.6518544 -2.151032 -0.076140016 0
-1.1389352 -2.1695616 -0.021477945 0
-1.0301529 -2.1586094 -0.049493499 0
-0.97409916 -2.1009448 -0.086754665 0
-0.10046954 -2.1881375 -0.020757567 0
-0.090722263 -2.1340265 -0.01270426 0
0.28077015 -2.1286986 -0.087159969 0
0.32509029 -2.1498232 -0.077109516 0
-1.665 -2.066 -0.078000002 0
-1.5704176 -2.0431283 -0.067560069 0
-1.4158032 -2.0039937 -0.0051972158 0
-1.1370592 -2.0447721 -0.019490074 0
-1.0622286 -2.0474331 -0.03285379 0
-0.96743798 -2.0380075 -0.062825799 0
-0.091318324 -2.0330658 -0.017615121 0
0.2691552 -2.0400479 -0.076239951 0
0.30318055 -2.0166464 -0.063219033 0
-1.6098086 -1.9964348 -0.071635991 0
-1.5353718 -1.949031 -0.063556038 0
-1.3649528 -1.9298694 -0.012922566 0
-1.132339 -1.9474975 -0.012947019 0
-1.0461622 -1.9475725 -0.04022919 0
-0.96291083 -1.9431407 -0.047330972 0
-0.15897676 -1.9562328 -0.095930263 0
-0.086914651 -1.930922 -0.042939294 0
0.27305716 -1.9396296 -0.059639327 0
-1.4562683 -1.8612939 -0.055142757 0
-1.3141023 -1.8557453 -0.020647913 0
-1.0495709 -1.8683742 -0.032197129 0
-0.9439854 -1.8453484 -0.059262525 0
-0.88314456 -1.8282816 -0.066058129 0
-0.31361175 -1.8795331 -0.087537438 0
-0.15072095 -1.8687911 -0.086162828 0
-0.089652576 -1.8449936 -0.060097605 0
0.25994647 -1.8509121 -0.049549155 0
0.44245368 -1.8650635 -0.0025024302 0
-1.4442346 -1.787739 -0.052543953 0
-1.371148 -1.7367793 -0.045430072 0
-1.2378267 -1.7445589 -0.032235935 0
-1.0366884 -1.7586819 -0.019116824 0
-0.94194627 -1.7572703 -0.058521263 0
-0.86354244 -1.7584414 -0.075524405 0
-0.29232052 -1.756183 -0.066940509 0
-0.14246514 -1.7813492 -0.076395392 0
-0.086349607 -1.7574105 -0.056450613 0
0.24683577 -1.7621944 -0.03945899 0
0.42296913 -1.7820424 -0.012668287 0
-1.505 -1.683 -0.086000003 0
-1.4604251 -1.632678 -0.092027426 0
-1.3338518 -1.6486086 -0.039815925 0
-1.271816 -1.6474812 -0.036100257 0
-1.1615511 -1.6333727 -0.043823957 0
-1.0152518 -1.6801494 -0.0092894742 0
-0.93855858 -1.6344705 -0.043248259 0
-0.84201193 -1.6678264 -0.081373692 0
-0.76800001 -1.601 -0.1 0
-0.27102932 -1.6328329 -0.04634358 0
-0.13008143 -1.6501865 -0.061744235 0
-0.082193539 -1.6467148 -0.052306831 0
0.23372506 -1.6734768 -0.029368822 0
0.34359998 -1.6186001 -0.0264 0
0.43035498 -1.6288602 -0.017976305 0
-1.40574 -1.5709424 -0.099421941 0
-1.3340417 -1.5698783 -0.00042696856 0
-1.2519584 -1.5450232 -0.018481988 0
-1.1580571 -1.5383806 -0.030135646 0
-0.92966592 -1.5760598 -0.069330849 0
-0.86729777 -1.5456126 -0.072179981 0
-0.7836445 -1.5377209 -0.085457243 0
-0.25341758 -1.5307997 -0.029306147 0
-0.121 -1.554 -0.050999999 0
-0.039336037 -1.5431166 -0.032948684 0
0.0060000001 -1.5700001 -0.013 0
0.19946569 -1.5081441 -0.010719873 0
0.25335672 -1.5585502 -0.02593872 0
0.35643697 -1.5621854 -0.02742639 0
0.4438116 -1.5626237 -0.038511015 0
-1.4649985 -1.408272 -0.0012172339 0
-1.223 -1.438 -0.021 0
-1.1407328 -1.4436271 -0.039081167 0
-1.0298719 -1.4570211 -0.073217995 0
-0.98699999 -1.427 -0.083999999 0
-0.83399999 -1.4910001 -0.075999998 0
-0.76849997 -1.4679999 -0.094500005 0
-0.019078379 -1.4252996 -0.029010892 0
0.0049767634 -1.4535217 -0.017945644 0
0.2396096 -1.4617362 -0.030179013 0
0.35496226 -1.4325172 -0.024676247 0
0.43592548 -1.4664103 -0.036431659 0
0.52720749 -1.4420834 -0.012419958 0
-1.404 -1.349 -0.011 0
-0.01864865 -1.3387496 -0.031675745 0
0.064608306 -1.3451735 -0.023610368 0
0.15487032 -1.3354864 -0.014669808 0
0.24944107 -1.3450004 -0.02722957 0
0.34976852 -1.3374093 -0.031814814 0
0.43568462 -1.3630955 -0.029642452 0
-1.6379414 -1.2095435 -0.040917132 0
-0.01821892 -1.2521996 -0.034340598 0
0.044829965 -1.2422082 -0.026832443 0
0.13373755 -1.239679 -0.017992029 0
0.24670736 -1.2488858 -0.027780194 0
0.35758147 -1.2335083 -0.034341604 0
0.43208984 -1.2590107 -0.027025945 0
-1.7920001 -1.12 -0.090000004 0
-1.5415996 -1.1768008 -0.068198688 0
-1.4504706 -1.1247152 -0.084775478 0
-0.017789189 -1.1656498 -0.037005447 0
0.04249832 -1.1527708 -0.020499552 0
0.15165287 -1.1612453 -0.030086718 0
0.25321475 -1.1499914 -0.028788542 0
0.33698869 -1.1429793 -0.038199656 0
0.41113833 -1.1237223 -0.039613307 0
0.56692922 -1.1395607 -0.050382342 0
0.60399997 -1.1950001 -0.078000002 0
-1.938 -1.01 -0.1 0
-1.8108183 -1.0640683 -0.040273234 0
-1.7421656 -1.0657969 -0.040657971 0
-1.6564101 -1.0358493 -0.08188504 0
-1.4524708 -1.0731182 -0.038380299 0
-1.3466554 -1.0431334 -0.087823585 0
-0.018945031 -1.0537151 -0.039098155 0
0.055284392 -1.0402759 -0.02534995 0
0.14355104 -1.0619246 -0.035581034 0
0.25060377 -1.0641388 -0.034833752 0
0.33109492 -1.0506176 -0.042263802 0
0.52543747 -1.0578613 -0.035847269 0
-1.9178622 -0.94071096 -0.097045228 0
-1.8485672 -0.93528378 -0.089556307 0
-1.765365 -0.95235062 -0.084341854 0
-1.658579 -0.97415525 -0.031119229 0
-1.5623589 -0.96849495 -0.068112925 0
-1.467278 -0.91847312 -0.074943617 0
-1.3239238 -0.96459103 -0.067469165 0
-1.2610488 -0.94409466 -0.077515975 0
-1.1736302 -0.90716368 -0.092903778 0
-0.016371643 -0.94957721 -0.044358216 0
0.055953126 -0.95503151 -0.036259867 0
0.15583254 -0.94377863 -0.032214455 0
0.24200495 -0.97440797 -0.040567044 0
0.31549999 -0.97550005 -0.048750002 0
0.49199998 -0.96899998 -0.037500001 0
0.62260854 -0.93744922 -0.070383966 0
0.7442956 -0.93665433 -0.090822168 0
1.702 -0.90600002 -0.082000002 0
-1.7595867 -0.86213291 -0.079135701 0
-1.6664394 -0.85228801 -0.069111995 0
-1.5456526 -0.84692347 -0.066024087 0
-1.4432422 -0.86239564 -0.032724604 0
-1.3498472 -0.83466464 -0.054133594 0
-1.2385075 -0.85795915 -0.051807038 0
-1.1474435 -0.8384338 -0.057106715 0
-1.0873971 -0.80540168 -0.053738803 0
-0.012 -0.89499998 -0.048 0
1.9186287e-15 -0.88700002 -0.041999999 0
0.16850001 -0.88249999 -0.035 0
0.22799999 -0.87 -0.049000002 0
0.45147786 -0.84095973 -0.050915655 0
0.55471718 -0.82989848 -0.056267932 0
0.67131895 -0.84982145 -0.083062969 0
0.73472416 -0.84784526 -0.085527882 0
1.5495478 -0.82527494 -0.079853587 0
1.6469367 -0.87669182 -0.079271786 0
-1.6013112 -0.78355479 -0.061226163 0
-1.5221734 -0.74426579 -0.052271396 0
-1.4486173 -0.75493234 -0.059926491 0
-1.3711017 -0.7477414 -0.048981518 0
-1.2603052 -0.74392116 -0.043616805 0
-1.1423138 -0.7351746 -0.036861662 0
-1.0476117 -0.74854034 -0.052360699 0
-0.97933334 -0.73466665 -0.05433334 0
0.58574635 -0.75456858 -0.057563689 0
0.65329665 -0.77107644 -0.076460376 0
0.83999997 -0.72899997 -0.064999998 0
1.3697152 -0.72973192 -0.073200926 0
1.4489501 -0.77177733 -0.075473085 0
-1.3416857 -0.67376667 -0.052210759 0
-1.2493612 -0.64234591 -0.049843054 0
-1.1317894 -0.64487875 -0.049269147 0
-1.0377239 -0.65678757 -0.055284131 0
-0.94002134 -0.67488432 -0.05547148 0
0.58600003 -0.653 -0.054000005 0
0.7684769 -0.64801884 -0.051067226 0
0.80366111 -0.61499584 -0.057167359 0
1.1715281 -0.62441951 -0.065638855 0
1.2631131 -0.65225363 -0.078528471 0
1.3440222 -0.64342874 -0.078259446 0
1.4552819 -0.65118378 -0.088043243 0
1.5597831 -0.63380855 -0.065878205 0
1.627 -0.62800002 -0.054000001 0
-1.5167868 -0.56595665 -0.03091689 0
-1.4487157 -0.53927553 -0.042889185 0
-1.3858578 -0.51463777 -0.053944591 0
-1.2015601 -0.59285975 -0.07126271 0
-1.1720001 -0.57800001 -0.067000002 0
0.89325744 -0.5361585 -0.0909082 0
0.95683211 -0.52422857 -0.081892587 0
1.0558889 -0.53411132 -0.056618802 0
1.1534667 -0.55231875 -0.066416614 0
1.2413735 -0.57459253 -0.072974801 0
1.357206 -0.52887893 -0.039777476 0
1.4512306 -0.54122555 -0.059357028 0
1.5411959 -0.56247342 -0.048107799 0
1.6320524 -0.55513489 -0.025278574 0
-1.5463924 -0.48704892 -0.03026237 0
-1.4656962 -0.46577445 -0.036131185 0
-1.323 -0.49000001 -0.064999998 0
0.88599998 -0.47 -0.02 0
0.93831885 -0.46455717 -0.030042894 0
1.0423268 -0.47786784 -0.042257767 0
1.1515 -0.45100001 -0.042000003 0
1.2475334 -0.46145391 -0.04674745 0
1.3490793 -0.44521603 -0.040357757 0
1.4472166 -0.44114026 -0.043884665 0
1.5585144 -0.45668954 -0.024055194 0
1.6496868 -0.45001793 -0.041478373 0
1.705 -0.44800001 -0.078000002 0
1.1900001 -0.35500002 -0.052000001 0
1.2442459 -0.36595497 -0.023930682 0
1.3463669 -0.35012037 -0.065393515 0
1.4678316 -0.36952004 -0.070187382 0
1.617514 -0.30089295 -0.037070587 0
1.7362759 -0.31798863 -0.03653181 0
1.8644724 -0.33955574 -0.031484831 0
2.063 -0.30500001 -0.097000003 0
1.175 -0.28799999 -0.054000005 0
1.2516425 -0.27030772 -0.034253538 0
1.3446311 -0.23717333 -0.048113275 0
1.4505218 -0.25290501 -0.047870554 0
1.5336362 -0.25596198 -0.048851982 0
1.6429771 -0.25704354 -0.038348489 0
1.7651067 -0.25404721 -0.06534595 0
1.879264 -0.26569736 -0.076860189 0
1.966632 -0.27734867 -0.086930096 0
2.0450001 -0.273 -0.097000003 0
1.2605941 -0.18868072 -0.01813947 0
1.369028 -0.18073988 -0.035483431 0
1.4442866 -0.19077909 -0.046784975 0
1.5347075 -0.19492781 -0.091582455 0
2.042563 -0.11799036 -0.035199646 0
2.1478601 -0.12360814 -0.053349376 0
2.2345943 -0.12823555 -0.068299465 0
2.3213286 -0.13286296 -0.083249554 0
2.4080629 -0.13749036 -0.098199651 0
2.5475001 0.15800001 -0.0495 0
2.987 0.235 -0.057999998 0
3.041724 0.23988867 -0.066974722 0
3.1286335 0.24765259 -0.081227876 0
3.2155428 0.25541651 -0.095481038 0
2.2269394 0.56463158 -0.093328469 0
2.3319144 0.57191914 -0.087250963 0
2.4388235 0.57496268 -0.082020216 0
2.5639999 0.57200003 -0.0060000001 0
2.6693258 0.52323824 -0.036882695 0
2.7480707 0.5288443 -0.068295754 0
2.8421652 0.55238557 -0.065020122 0
2.9503782 0.56568289 -0.074578315 0
3.0805805 0.57371932 -0.078055598 0
3.1674757 0.58839911 -0.075569503 0
2.236851 0.66015065 -0.094530515 0
2.3445337 0.63423723 -0.079634786 0
3.0368824 0.61220807 -0.075804539 0
3.1231058 0.63076645 -0.091443628 0
3.2543707 0.60307896 -0.073083401 0
3.3412657 0.61775881 -0.070597298 0
3.4475803 0.6357193 -0.067555606 0
-5.073 0.76300001 -0.064999998 0
-4.9515619 0.74642909 -0.076871723 0
-4.8283749 0.72961938 -0.088914476 0
-4.7462497 0.71841288 -0.096942984 0
2.0831616 0.74961317 -0.098847374 0
2.1680014 0.75916153 -0.090379976 0
2.2537236 0.74805546 -0.092334636 0
2.3408201 0.75851619 -0.08107435 0
1.6950001 0.85100001 -0.052000001 0
1.7592396 0.8652361 -0.048716098 0
1.8355986 0.86848223 -0.047656223 0
2.3635302 0.81084895 -0.089737475 0
-4.8098774 0.99211001 -0.088653855 0
0.47299999 0.98299998 -0.085000001 0
0.50199997 0.98199999 -0.086000003 0
0.88256055 0.94623464 -0.042152703 0
0.95180529 0.95163578 -0.045047257 0
1.0287989 0.94723541 -0.038252652 0
-5.0688772 1.04511 -0.049153857 0
-4.9731288 1.0255166 -0.063756429 0
-4.8915033 1.0088134 -0.076205142 0
0.085239649 1.0669252 -0.032248005 0
0.15369333 1.0598826 -0.037715677 0
0.23204724 1.0644984 -0.038105104 0
0.32504371 1.0415158 -0.036232989 0
0.49453044 1.0258784 -0.093393221 0
0.52680594 1.0288557 -0.095449895 0
0.95729965 1.0163283 -0.038771287 0
1.0404947 1.039284 -0.032054584 0
1.1322763 1.0463433 -0.028570663 0
0.089479305 1.1658504 -0.015996005 0
0.16006002 1.1688609 -0.021485269 0
0.24357086 1.1614977 -0.024157654 0
0.36083749 1.1540315 -0.020215979 0
1.0734653 1.1301498 -0.025500942 0
1.1279538 1.1868664 -0.012334589 0
-3.0428402 1.2967522 -0.018875433 0
-2.9609201 1.2603761 -0.028437715 0
-2.8789999 1.224 -0.037999999 0
-3.1247604 1.3331283 -0.0093131512 0
-2.7509999 1.994 -0.079000004 0
-2.6935234 1.9530296 -0.091526918 0
-2.7619727 2.1908889 -0.085981824 0
-2.6735964 2.1366069 -0.08593002 0
-2.8552344 2.2727044 -0.058023483 0
-2.752156 2.2383642 -0.077439718 0
-2.6996953 2.2477651 -0.089761779 0
-2.564923 2.2676153 -0.080379769 0
-2.452363 2.2740288 -0.085663892 0
-2.9215295 2.3526413 -0.040016972 0
-2.8371441 2.3457832 -0.07393647 0
-2.7525482 2.3410327 -0.084152691 0
-2.6363528 2.369025 -0.070440814 0
-2.5433512 2.3616924 -0.079040043 0
-2.3478613 2.3607953 -0.093938947 0
-2.2749355 2.3972898 -0.087316804 0
-2.9100213 2.4210739 -0.05207134 0
-2.86835 2.4724617 -0.069570795 0
-2.7623355 2.4441326 -0.034223285 0
-2.6588848 2.4487259 -0.054802831 0
-2.5943475 2.4545736 -0.083320215 0
-2.4593594 2.4578617 -0.078301281 0
-2.3616371 2.4689384 -0.081595592 0
-2.836 2.51 -0.017000005 0
-2.7416389 2.5267217 -0.036225446 0
-2.6676986 2.5223989 -0.070611551 0
-2.5596058 2.552702 -0.061193831 0
-2.4610257 2.5646391 -0.065037616 0
-2.367857 2.5472901 -0.073043108 0
-0.5619899 -3.1347022 0.097053461 0
-0.54387087 -3.030582 0.079317272 0
-0.52876204 -2.9437592 0.064527616 0
-1.252 -2.813 0.011 0
-0.51365316 -2.8569365 0.049737956 0
-1.498 -2.7409999 0.086999997 0
-1.2195318 -2.7336805 0.013990498 0
-0.49854431 -2.7701137 0.034948301 0
-1.4452024 -2.6455088 0.071488008 0
-1.1870635 -2.6543612 0.016980996 0
-0.48343545 -2.683291 0.020158637 0
-1.3815619 -2.530407 0.052790411 0
-1.1545953 -2.5750418 0.019971495 0
-0.4683266 -2.5964682 0.0053689778 0
-1.3331677 -2.4694133 0.024584375 0
-1.2905006 -2.4089429 0.019054268 0
-1.1221269 -2.4957223 0.022961993 0
-1.0896587 -2.4164031 0.025952492 0
-1.467937 -2.3584099 0.0029824451 0
-1.2682631 -2.3366241 0.024173534 0
-1.0571904 -2.3370836 0.028942991 0
-1.4192138 -2.2831829 0.011551362 0
-1.3704906 -2.2079558 0.020120282 0
-1.2189269 -2.2492347 0.019965071 0
-1.0243611 -2.2568822 0.031966746 0
-0.361 -2.234 0.013 0
0.52200001 -2.204 0.038999997 0
-1.656 -2.1530001 0.066 0
-1.541929 -2.1531699 0.032596309 0
-1.3208838 -2.1313643 0.028844595 0
-0.34690201 -2.1478879 0.015667185 0
0.51064968 -2.1556375 0.03307806 0
-1.6058223 -2.086844 0.057964083 0
-1.5456817 -2.0328474 0.06809815 0
-1.4583979 -2.0658042 0.015812926 0
-1.2232552 -2.0439482 0.034631576 0
-0.33280405 -2.0617762 0.01833437 0
0.48142281 -2.0311058 0.01782928 0
-1.6440001 -1.938 0.057000004 0
-1.4730558 -1.9425777 0.062239315 0
-1.3795403 -1.9502951 0.032910645 0
-1.1802586 -1.9687471 0.025552627 0
-0.31870607 -1.9756641 0.021001555 0
-0.090584293 -1.9377395 0.0027674697 0
0.46193823 -1.9480847 0.0076634251 0
-1.7539999 -1.801 0.024 0
-1.6116457 -1.8995743 0.051005609 0
-1.5561249 -1.8336351 0.040719092 0
-1.4435482 -1.872896 0.031976052 0
-1.3670241 -1.8374425 0.040792853 0
-1.2799006 -1.8044919 0.046851084 0
-1.139007 -1.8965977 0.016842101 0
-1.0977552 -1.8244483 0.0081315748 0
-0.30460811 -1.8895521 0.02366874 0
-0.29051012 -1.8034401 0.026335925 0
-0.078510717 -1.8457201 0.0063992403 0
-1.8279999 -1.761 0.057000004 0
-1.7540207 -1.7445109 0.035664555 0
-1.6783295 -1.7221911 0.02225644 0
-1.5006042 -1.7676959 0.030432576 0
-1.4450833 -1.7017567 0.020146063 0
-1.3323408 -1.7456737 0.032299079 0
-1.2300806 -1.7315903 0.053821295 0
-0.27641213 -1.7173282 0.02900311 0
-0.074312866 -1.7587641 0.012079089 0
-1.7089921 -1.6453602 0.037913833 0
-1.6186079 -1.6599925 0.020880366 0
-1.3895625 -1.6358175 0.009859547 0
-1.2607231 -1.6547674 0.026057446 0
-1.1802607 -1.6586888 0.060791515 0
-0.26231417 -1.6312163 0.031670295 0
-0.072743341 -1.651872 0.020505957 0
0.26654565 -1.6403227 0.011356201 0
-1.6479937 -1.5860882 0.028131064 0
-1.5729408 -1.5623051 0.018926295 0
-1.4991647 -1.5355955 0.01812822 0
-1.1510098 -1.5650289 0.044999298 0
-1.0930001 -1.531 0.072999999 0
-0.25 -1.556 0.034000002 0
-0.055 -1.585 0.019000001 0
0.034413561 -1.544584 0.057774596 0
0.2484912 -1.5264447 0.024004877 0
0.38432539 -1.5459608 0.0052448269 0
0.47643286 -1.5601226 0.012807691 0
-1.5259968 -1.4675441 0.008565532 0
-1.4394431 -1.473397 0.016752146 0
-1.3797216 -1.4111985 0.015376073 0
-1.119 -1.472 0.013 0
0.032022603 -1.4328067 0.044624325 0
0.17061692 -1.4178311 0.0057333806 0
0.26162523 -1.447232 0.017824311 0
0.36132538 -1.4534608 0.021744827 0
0.45117059 -1.4764957 0.0042417534 0
0.55859715 -1.4449481 0.031906746 0
-1.3200001 -1.349 0.014 0
0.030218083 -1.3484454 0.034699459 0
0.15120265 -1.3609852 0.0051179687 0
0.21296757 -1.3870773 0.019301608 0
0.45923892 -1.3644694 0.026244586 0
0.51799643 -1.3389351 0.022508435 0
0.028413562 -1.2640841 0.024774592 0
0.4508993 -1.2504871 0.011101687 0
0.58560658 -1.2527932 0.02817684 0
0.026609041 -1.1797228 0.014849729 0
0.46868753 -1.1520698 0.0094182836 0
0.54414207 -1.1610576 0.017902452 0
-1.7511928 -1.0701146 0.0074869744 0
-1.6407712 -1.0044585 0.014947898 0
0.024804521 -1.0953614 0.0049248645 0
0.484 -1.028 0.003 0
0.54610312 -1.0607613 0.010210896 0
0.61185133 -1.0847454 0.014977925 0
-1.5525078 -0.9387576 0.010363357 0
-1.4935422 -0.91691697 0.024895795 0
0.52778375 -0.94074845 0.0024926418 0
-1.4275233 -0.86635351 0.021280669 0
-1.354028 -0.82172418 0.026136801 0
-1.2727664 -0.77229744 0.031496465 0
1.4418778 -0.51379973 0.010036523 0
1.5804489 -0.51820713 0.012931116 0
1.6435001 -0.51749998 0.014 0
1.2367302 -0.42989326 0.044018783 0
1.3286684 -0.45972925 0.031030044 0
1.4426336 -0.45911172 0.014397253 0
1.5184891 -0.46142825 0.0082413461 0
1.1803851 -0.34133071 0.024474926 0
1.275617 -0.36410236 0.034583092 0
1.3556936 -0.3858819 0.024266474 0
2.1860001 -0.35299999 -8.3173336e-14 0
2.2479079 -0.35744846 0.010379769 0
2.331408 -0.3634485 0.024379769 0
1.1900001 -0.226 0.0009999983 0
1.235 -0.21699999 0.024999999 0
1.3434854 -0.23794438 0.016654968 0
1.4714503 -0.26264954 0.0068115145 0
1.5567602 -0.27911961 0.00024921261 0
1.3049999 -0.183 0.001000002 0
2.269774 0.11002335 0.02497665 0
2.3713653 0.1206978 0.0143022 0
2.4441826 0.1283489 0.0066510998 0
2.6521113 0.58881515 0.0051460378 0
-5.0650001 0.68000001 0.039000001 0
-4.9769273 0.67066848 0.052001245 0
-4.8448176 0.65667117 0.071503118 0
-4.712708 0.64267385 0.091004983 0
2.7402227 0.60563028 0.016292077 0
2.8283339 0.62244546 0.027438115 0
2.9164453 0.63926059 0.03858415 0
3.0486124 0.66448331 0.055303209 0
3.1807795 0.68970603 0.072022274 0
-5.072 0.79699999 0.034000002 0
-4.9840403 0.78581077 0.047157716 0
-4.8521004 0.76902688 0.066894285 0
-4.7201605 0.75224304 0.086630858 0
-4.6322007 0.74105382 0.099788576 0
3.2688909 0.70652115 0.083168313 0
3.3570023 0.72333628 0.094314359 0
1.28 0.89899999 0.026000001 0
0.86900002 0.97500002 0.011 0
1.327776 0.9263556 0.019064782 0
1.404 0.97000003 0.0080000004 0
0.94873595 1.0662471 0.024476491 0
1.0284718 1.1574942 0.037952986 0
1.081629 1.2183255 0.046937313 0
1.1568933 1.2595785 0.02796082 0
-3.2066808 1.3695045 0.00024913251 0
1.153 1.3 0.059 0
-3.4524412 1.4786328 0.02893598 0
-3.3705211 1.4422567 0.019373696 0
-3.2886009 1.4058806 0.0098114163 0
-3.71 1.5930001 0.059000004 0
-3.6572416 1.5695732 0.052841689 0
-3.5343614 1.5150089 0.038498264 0
-2.1519444 2.4684777 0.049509861 0
-2.2244761 2.5525334 0.042731188 0
-2.3376508 2.6836889 0.032154128 0
-2.2810636 2.6181111 0.037442658 0
-2.394238 2.7492666 0.026865594 0
-2.5074127 2.8804224 0.016288532 0
-2.4508252 2.8148446 0.021577064 0
-2.5639999 2.9460001 0.011 0
-1.637 -2.184 0.104 0
-4.2486715 0.59350812 0.15950561 0
-4.6246352 0.63334233 0.10400623 0
-4.5365624 0.6240108 0.11700746 0
-4.4484892 0.61467922 0.13000871 0
-4.3604164 0.60534769 0.14300996 0
-4.2516804 0.69264841 0.15670973 0
-4.544241 0.7298646 0.11294629 0
-4.4562812 0.71867532 0.12610401 0
-4.3683214 0.70748609 0.13926172 0
3.4630568 0.74357569 0.10773019 0
