# .PCD v0.7 - Point Cloud Data file format
VERSION 0.7
FIELDS x y z intensity
SIZE 4 4 4 4
TYPE F F F F
COUNT 1 1 1 1
WIDTH 387
HEIGHT 1
VIEWPOINT 0 0 0 1 0 0 0
POINTS 387
DATA ascii
-7.3103456 1.1033109 1.5855613 10
-7.4122462 1.5336986 1.4183813 9
-7.4028478 1.6688554 1.4606581 9
-7.289618 1.0371561 1.8928851 10.666667
-7.4104915 1.3768387 1.7748023 10.4
-7.4028263 1.6297479 1.6156507 10
-7.3039088 1.1374468 2.0985677 11.5
-7.3426542 1.3846326 2.2572761 11.666667
-5.0719919 0.7589829 -0.065319657 3
-5.0912261 0.92344922 -0.14029022 2
-5.0786433 0.9816916 0.16130573 4
-5.0774713 1.1030222 0.47174653 6
-4.5809422 0.69239193 -0.11329193 2
-4.2064829 0.57060528 0.16971615 4.5999999
-3.2115614 0.909733 0.341876 6
-3.0108676 1.0386177 -0.087371044 2.5999999
-2.9099331 1.4173733 -0.039759953 3
-2.8261452 1.6335304 -0.048888765 3
-2.9116714 2.4015455 -0.062680587 3
-3.0156474 1.0688169 0.21677691 5.3636365
-2.8876698 1.4099805 0.20346704 5.2222223
-2.8861353 1.660933 0.21879466 5.125
-2.8779006 2.4727468 0.16407821 4.5
-2.9983356 1.1059211 0.56121814 8.5
-2.895854 1.3822651 0.57016021 8.5555553
-2.9235461 1.7026305 0.57942694 8.3999996
-2.8802848 2.4851387 0.5426814 7.5
-3.0476382 1.0665327 0.88676542 11.166667
-2.9334202 1.4772111 0.95544147 11.75
-2.8693759 1.7001233 1.0483692 12.666667
-2.8891735 2.4909937 0.98151517 10.666667
-2.8539736 1.1849003 1.2449841 15
-2.9363399 1.5247675 1.4195668 15.25
-2.9088254 1.7123508 1.4071397 15.2
-2.8791893 2.6572082 1.4426978 13.8
-2.9580147 2.8411889 1.2214388 12
-2.9414618 -3.3484759 1.8536713 15.25
-3.1090727 1.5715814 1.6090581 16
-2.8317821 1.8551247 1.7427571 17.75
-2.8246212 2.348402 1.830317 17
-2.9141877 2.4565489 1.6696682 16
-2.9682007 -3.2978754 2.1937163 17
-3.0425503 -3.1687763 2.3493607 18
-2.8909509 -0.99018449 2.3766294 23
-2.9603128 -0.22082987 2.3558714 23
-2.9696302 0.29434696 2.3629065 23
-2.8946085 0.59459984 2.364275 23.333334
-2.8443985 0.90546286 2.3641791 23.333334
-2.9067147 -0.94107288 2.4086289 23
-2.7711146 1.3905072 -0.16844983 2
-2.675292 1.8614028 -0.12300216 2.4000001
-2.7309463 2.0980959 -0.05674199 3
-2.6566505 2.5601952 -0.038096815 3
-2.7780187 1.839041 0.1742581 4.8000002
-2.753705 2.0733526 0.18787256 5
-2.5851939 2.5765517 0.22870456 5.1428571
-2.4575765 2.9825799 0.12255456 4
-2.7832382 1.8250809 0.56257796 8.375
-2.7458885 2.0839434 0.60971004 8.5
-2.5862718 2.572624 0.46508422 7.3333335
-2.542381 3.0027237 0.61904734 8.333333
-2.7756882 1.8423747 0.94762218 11.555555
-2.7518191 2.0488143 0.96774071 11.5
-2.5821033 2.969677 1.0076318 11
-2.777173 1.8288209 1.3572737 15
-2.7671902 2.0308738 1.4389836 15.5
-2.7434039 2.5117326 1.5523764 15
-2.6007242 2.9013655 1.2715095 13
-2.6432228 -3.4195552 1.8286716 15.333333
-2.7640293 1.8720478 1.721063 17.75
-2.7601674 2.2351761 1.880349 18
-2.6666915 2.4664016 1.8501083 17.6
-2.7152452 -3.3196397 2.162796 17.5
-2.4408162 -1.3604126 2.3736775 24
-2.4868243 -0.97581732 2.3791637 25
-2.5232918 -0.75806761 2.3836629 25
-2.6904078 0.32036567 2.3751912 25
-2.7408931 0.60310036 2.3818529 24.5
-2.433718 0.80740756 2.3819308 26
-2.778991 1.926636 2.0742013 20
-2.595583 2.296598 2.0977199 19.5
-2.4900856 2.4209821 2.0897214 19.333334
-2.4332123 -1.2927425 2.4131746 25
-2.5273058 -0.96357769 2.5416589 25.666666
-2.4627252 -0.66572446 2.4955053 26.5
-2.6458657 0.6304611 2.5060513 25.428572
-2.7740259 0.9473877 2.4291806 24
-2.1280444 -0.14972278 -0.062377539 2.5
-2.1344936 2.0388403 -0.16216853 2
-2.0873609 2.469964 -0.002534227 3
-2.1731126 -0.18663926 0.1373641 5.125
-2.2061205 0.17079142 0.076799951 4
-2.1020687 2.4775205 0.21413231 5.4000001
-2.0981302 2.4804235 0.61330044 9
-2.0968199 2.4576278 0.81446081 11
-2.0320401 2.4843652 1.3206457 15
-2.3587947 -3.40308 1.8887349 16.333334
-2.2239771 2.4375181 1.9505457 19.333334
-2.3070102 -3.3438668 2.2385654 18.5
-2.0745378 -2.9846179 2.3786397 20.666666
-2.183089 -2.7781646 2.3579507 21
-2.3792272 -2.076673 2.360769 23
-2.1909382 -1.6469215 2.355334 24.6
-2.260592 -1.5820656 2.3647168 25
-2.0960088 0.90401405 2.3769975 27
-2.1114435 1.3025602 2.1874466 25
-2.1404467 1.6568089 2.1554658 23.5
-2.2590296 2.4439621 2.0329306 19.666666
-2.0843015 -3.003093 2.4515307 21
-2.055037 -2.7292182 2.5434673 22
-2.2878618 -2.061183 2.4785311 23.5
-2.2227378 -1.6285541 2.5107272 25
-2.152308 -1.4281586 2.5349398 26.166666
-2.1985345 -1.0547082 2.5436318 27.166666
-2.2945099 -0.73516864 2.5576806 27.5
-2.0089767 0.29453501 2.5634694 30
-2.3010097 0.74356169 2.5632622 27.5
-2.0554812 0.86521292 2.5334916 28.5
-1.8273692 -2.7618101 -0.16796991 2
-1.634841 -1.3326013 -0.13206677 1.6666666
-1.7928213 -1.0922031 -0.011275371 3
-1.6899364 -0.24499688 -0.043571752 2.5
-1.6175398 1.0759007 -0.16788203 1
-1.9388573 2.1415606 -0.16260636 2
-1.6123892 -0.55626768 0.18250366 6.3000002
-1.6380374 -0.31494892 0.18407652 6.5555553
-1.9545631 2.5014715 0.33116305 6.5
-1.9734691 2.4961872 0.64899182 9.5
-1.9410499 -3.4418907 1.0611912 11.5
-1.9602218 2.4849086 0.80349064 11
-1.882113 -3.4066193 1.2506977 12.5
-1.7367549 -3.4592972 1.8006569 16.4
-1.8187184 2.5071106 1.7779726 19
-1.6852672 -3.4132414 2.1944253 18.799999
-1.790367 -3.1175683 2.3661397 20.5
-1.7833068 -1.7014573 2.3532414 26
-1.8439693 -0.089594208 2.3745265 30.5
-1.8036419 1.1806269 2.3823721 28
-1.7252357 1.3299044 2.3150988 27.75
-1.711297 1.6397295 2.1442802 25
-1.8108184 -2.9493284 2.4884679 22
-1.6703613 -2.6881294 2.5437171 23.5
-1.7365086 -1.6511091 2.4850488 27.5
-1.8114905 -1.3943621 2.5420434 28.142857
-1.741536 -0.95022595 2.5513971 30.5
-1.863447 -0.66076523 2.5566366 30.6
-1.9827461 0.35122198 2.5656936 30.5
-1.9649676 0.44883916 2.5661862 30.5
-1.9263278 1.2108458 2.5181127 28
-1.4068992 -3.0296209 -0.0657745 3
-1.451678 -2.7966249 -0.031858813 3
-1.2922283 -2.1806967 -0.17799184 1
-1.31506 -1.3713355 -0.077083103 2.2
-1.2347944 -0.90054631 -0.089568123 1.5
-1.3124175 -0.55010349 -0.056967661 2.1666667
-1.5845301 -0.33295184 -0.021243725 3
-1.5756228 1.1621118 -0.16784748 1
-1.3719461 1.3552272 -0.16324922 1
-1.206504 -2.1663504 0.036026932 4
-1.3012717 -1.3310925 0.15801066 5.7857141
-1.3319033 -1.0218508 0.24077918 7.4736843
-1.3512958 -0.6155777 0.21274318 7.4499998
-1.5922483 -0.35093766 0.091816254 4.75
-1.32788 -3.4667685 0.79139149 10
-1.2451136 -1.2675928 0.46621493 11
-1.3769993 -1.1898868 0.51944655 11.333333
-1.3199102 -0.65104252 0.5508762 14.083333
-1.2976701 -3.4766595 0.97982198 11.166667
-1.3345699 -3.4829259 1.4007117 14.2
-1.3885641 -3.4819138 1.7759728 16.555555
-1.3955643 -3.4210718 2.2259922 19.375
-1.3756657 -3.1137292 2.3659794 21.5
-1.571027 1.1665136 2.388155 30
-1.4055597 1.4398824 2.2014101 28.333334
-1.4333225 1.6782422 2.1462693 26
-1.3886236 -2.9569261 2.4997506 22.666666
-1.3725706 -1.732818 2.5450995 28.666666
-1.4783984 -1.4104438 2.5483799 30
-1.569008 -1.1885113 2.5477569 31
-0.95080853 -3.4929233 -0.029962 3
-0.95823586 -2.9763486 -0.10814156 2
-0.98714018 -2.4207695 -0.12083361 2
-1.0874445 -2.3028128 -0.098149657 2
-0.89135522 -1.6939927 -0.057022497 2.5
-1.0081344 -1.4841844 -0.078702748 1.8
-1.0711945 -0.9381569 -0.15671384 0
-1.0691363 -0.67611533 -0.049356185 2
-0.91359979 1.0453545 -0.12471929 0.75
-1.0606335 -3.4830792 0.073142834 4
-0.98906749 -2.3324261 0.077888072 4.5
-1.0479587 -1.3753146 0.23782495 7.5999999
-0.8812356 1.1134773 0.040436078 4
-1.1318576 -1.2828096 0.56682944 13
-1.1343589 -3.4878902 1.0563421 11.75
-1.0023335 -3.5092986 1.4334465 14.555555
-0.84288794 1.4111003 1.3032056 23.5
-1.0142796 -3.5176315 1.7791535 17
-0.85599148 1.4163986 1.7133713 27.5
-1.0462339 -3.5104017 2.1723545 19.4
-1.1051921 -3.115741 2.3726027 22
-1.1368828 1.5537717 2.152458 28.5
-1.0847682 1.6146516 2.1463864 28
-1.1048415 -3.0060258 2.5414419 23
-1.0216647 -1.8524934 2.5440865 29.5
-0.67468244 -3.4706137 -0.0043604141 3
-0.52082747 -2.0704405 -0.13604143 1.5
-0.7281124 -1.9460692 -0.17590241 1
-0.77883428 -1.4804944 -0.096054651 2
-0.59346944 1.0925982 -0.068204597 1.5
-0.55975771 -2.0600998 0.28307635 7.25
-0.72249395 -1.4035004 0.29473862 8.8000002
-0.56635749 1.0932308 0.17926809 7.5714288
-0.55923796 -2.0400505 0.4710511 9.8000002
-0.50873196 -1.9973865 0.6001876 12
-0.68793011 -1.4092947 0.48908195 12.2
-0.59718841 1.1138383 0.47712454 14.222222
-0.48095906 1.5153706 0.77233136 17
-0.57545692 1.5006311 1.004594 20
-0.70107901 -3.5407362 1.5209041 15.5
-0.57921302 1.4816962 1.3914807 25
-0.75279808 -3.5417488 1.7502998 17
-0.63899791 -2.0405018 2.5468786 29.333334
-0.71917003 -1.9683681 2.5456076 30
-0.23598213 -2.602303 -0.15748903 1
-0.1768513 -2.1819181 -0.10061622 1.75
-0.11245134 -1.5557756 -0.036486752 2.5
-0.20148313 1.1086261 -0.043824192 2
-0.37016219 -2.0918596 0.19527152 6
-0.056219734 -1.6121777 0.026223293 4
-0.13503397 -1.5597836 0.062839225 4.5
-0.10414931 -0.89815229 0.18536484 9.333333
-0.07087522 -0.78335685 0.26445037 13
-0.20410736 1.112601 0.19191538 8.25
-0.063874982 -0.65023404 0.59949642 25.5
-0.21399869 1.1120114 0.46255109 15
-0.27447626 1.4993552 0.78000587 17.5
-0.043665022 1.1777297 0.93884152 23.5
-0.2483515 1.4673485 0.99800432 21.111111
-0.24186671 1.4892924 1.3725418 25.6
-0.29800695 -2.143811 2.5444617 29
0.21386123 -3.5015748 -0.10393959 2
0.097069256 -3.0483358 -0.1831685 1
0.37550178 -2.280407 -0.090320863 2
0.16099399 -1.4652619 -0.0067375018 3
0.16761824 -0.99798399 -0.031250384 2.3333333
0.25304359 1.0450613 -0.043379966 2
0.16766948 1.2042103 -0.009502166 3
0.1763462 -1.390488 0.044351716 4.3333335
0.22872384 -0.91621864 0.19863953 9.7142859
0.16560552 -0.76511371 0.30598697 14.428572
0.24188599 1.1013627 0.1873084 8.212121
0.18187484 1.2099023 0.14375901 6.7777777
0.11831935 -0.60600555 0.47858155 23.111111
0.38723841 -0.36599326 0.52821565 27
0.16174467 1.0461005 0.55464274 17.666666
0.23784471 1.0279567 0.9775213 25.571428
0.38183832 1.1843913 1.4038368 29
0.34245032 1.2262093 1.394467 28.333334
0.42505977 -1.605902 -0.0055566384 3
0.47783095 -1.3819505 -0.080118768 1.5
0.54121047 -0.95379269 -0.03940488 2
0.69417381 -0.66385102 -0.030838048 2.2857144
0.58747464 0.99808067 -0.057297874 1.7
0.42038164 -1.6315833 0.16909395 6.2857141
0.48799703 -1.3076645 0.026981698 3.75
0.48967266 -0.97707981 0.094288297 5.9166665
0.62718356 -0.69449115 0.11125386 6.8947368
0.63844085 1.0282991 0.13080445 6.3913045
0.66110384 1.3770111 0.25809416 8.5
0.47938403 -0.43853015 0.48046505 22.5
0.46571484 -0.30516535 0.47479767 24.75
0.62672246 1.0606093 0.62181467 17.470589
0.61609554 1.0137848 0.95607758 23.833334
0.68445939 1.078553 1.3691534 28.181818
0.76479399 -2.0147967 2.5544107 29.5
0.78311759 -1.9870006 2.557785 30
0.97939903 -0.51012474 -0.060701195 1.4444444
1.1957932 -0.29050124 -0.055213738 2
1.0525894 0.96219689 -0.058730364 1.875
0.97808468 -0.48154438 0.16343842 7.6666665
1.1937476 -0.29546958 0.055537798 4.5
1.1419313 1.0193874 0.18983401 7
1.1847452 1.2835119 0.20145921 6.8333335
0.97527838 -0.42450637 0.45435274 15.5
0.82388324 -0.37815896 0.51744884 19
1.121685 1.0066633 0.58845693 14.714286
1.1223567 1.3002548 0.62900639 14
1.0918767 1.0209099 0.97782654 20.928572
1.0037103 1.0082279 1.3814535 26.700001
1.4358503 -0.83244371 -0.17930192 0
1.3695791 -0.59600645 -0.11395424 1
1.3854287 -0.19897543 -0.078449667 1.6
1.3718572 0.53231961 -0.16139859 0
1.4766403 0.90558332 -0.060737088 2
1.2604783 -0.43215331 0.046400901 4
1.3149686 -0.15901594 0.16513048 7.0769229
1.5739468 0.95563471 0.20099476 6.4285712
1.2032092 1.2719142 0.11510231 5
1.2698008 -0.1343621 0.45174226 13.5
1.5196302 0.97348982 0.5214237 12
1.4865509 0.95243263 1.0135577 19.166666
1.5282766 1.0138916 1.3836563 22.666666
1.556114 1.1343505 2.3822122 30
1.5470693 1.2457043 2.3829117 29.5
1.7298135 -0.88936305 -0.08109691 2
1.6428419 -0.64916289 -0.079760768 2
1.7952062 -0.18113111 -0.16315794 0.5
1.8566887 0.26213446 -0.16046588 1
1.726669 0.53454864 -0.15690053 1
1.8524197 0.89433193 -0.098477937 1.8
1.6714352 -0.48483074 0.0046774852 3
1.9901891 -0.0035927559 0.32561609 8
1.9789927 0.04923407 0.24241151 7
1.82059 0.99698144 0.2074482 6.352941
1.7888342 0.99733841 0.58552676 11.75
1.9682846 0.96793824 1.0429503 16.75
1.9261163 -0.8572033 2.3812675 28.5
1.9900441 -0.58014745 2.3819208 29
1.9819382 -0.2793898 2.3832881 29.5
1.9942509 0.5851528 2.3874674 29
1.8635839 1.1625615 2.3797009 28
1.8755212 1.2358899 2.3856735 27.5
1.7539942 -1.2647617 2.5480788 29.5
1.824084 -0.94439822 2.5095334 29.857143
1.9184669 -0.59923166 2.50699 30.5
1.9306115 -0.32861993 2.4235911 30.5
1.9605193 0.28441679 2.4852476 30.333334
1.9473962 0.63731861 2.5116601 30
1.8770307 0.89807713 2.561599 30.25
2.0482643 -0.14503382 -0.10986885 1.8
2.0259128 0.061755039 -0.055399586 2.5
2.3863006 0.70130342 -0.057904951 2.5
2.1191456 0.84162211 -0.13435146 1.5
2.0460997 -0.04926163 0.052772559 4
2.0677621 0.061171614 0.17886068 6.1999998
2.3912826 0.72460061 0.19411246 5.5714288
2.0360534 0.87014288 0.34607068 8
2.2970562 -0.52414769 0.65100747 11.5
2.3832905 -0.35220888 0.61455119 11
2.39481 0.72302151 0.60188627 10.5
2.3004396 -0.50119805 0.83932447 13.5
2.3816292 0.7609902 1.047235 15.4
2.3534627 0.91408414 1.0081965 14.75
2.2858791 -0.55690414 1.3869593 19.6
2.3915951 -0.38540742 1.3647401 19
2.3565526 0.78077549 1.5053549 19.5
2.3779685 0.86389393 1.3181862 18
2.3925862 0.73507243 1.6984103 21.5
2.168813 -0.54035294 2.3112941 27.200001
2.2607083 -0.22074728 2.2681506 26.9
2.2099953 0.21306257 2.2978902 27.454546
2.3130436 0.59488279 2.2788136 26.25
2.2275512 1.0216097 2.3342152 26.25
2.0135198 1.2378533 2.2737749 26
2.0230677 0.52907652 2.5393038 30
2.5379701 0.16475104 -0.00013507184 3
2.4993739 0.65050173 -0.023963427 3
2.5697253 0.59871882 0.20681761 5.5999999
2.4091792 0.84465575 0.29434559 7
2.6594083 -0.075958021 0.67835552 11
2.4890544 0.61533397 0.62530416 10.5
2.4114494 0.8414554 0.67934948 11.5
2.6660852 -0.1085308 1.0352998 14.4
2.6351833 0.10395151 1.0320036 14.5
2.4003055 0.77995706 0.8263846 13
2.7293639 0.62183714 1.4523332 17.75
2.431577 0.82933867 1.4010383 18.666666
2.7174489 -0.27036604 1.9972181 22
2.6292615 0.5873785 1.801165 21.5
2.4098711 0.84306759 1.8660978 22.5
2.5355682 -0.15699059 2.136903 24.111111
2.5439303 0.18866588 2.1590981 24.166666
2.496614 0.62087703 2.1723874 24.5
2.4087462 0.96194106 2.1587634 24.5
3.0864887 0.32919428 -0.15788199 2
3.438421 0.60847944 -0.10182384 2.5999999
3.4030097 0.57720006 0.18652612 4.8000002
3.4385324 0.60300976 0.61818939 8.666667
3.4619567 0.58878422 0.93614155 11.25
3.4893377 0.59664369 1.3981752 14.833333
3.479769 0.48325306 1.6282791 16
3.7451668 0.39178699 0.067501806 4
3.7620525 0.44820389 0.14231321 4.3333335
3.7636993 0.4665952 0.59459531 8
3.7766595 0.54313004 0.8064338 10
3.7930541 0.43224135 1.9380096 17
3.7606335 0.45871845 2.112098 18.5
